ncols        447
nrows        29
xllcorner    40.4562700234
yllcorner    7.49786660554
cellsize     0.008993216100
NODATA_value  -9999.00
1258.71 1155.83 1306.16 1413.55 1374.75 1307.57 1380.16 1420.31 1449.85 1408.36 1434.81 1412.74 1307.05 1107.22 947.57 941.49 948.42 1258.60 1252.29 1103.68 1123.85 1385.53 1442.66 1439.63 1448.42 1456.61 1463.32 1465.78 1450.38 1335.53 1293.40 1437.04 1255.45 1301.22 1385.84 1348.42 1311.58 1308.17 1338.53 1379.86 1421.16 1435.46 1459.96 1513.87 1539.91 1557.00 1548.17 1545.00 1566.84 1572.65 1566.37 1563.64 1554.01 1540.36 1527.15 1516.31 1507.52 1498.61 1487.65 1474.41 1464.90 1461.72 1467.00 1484.24 1493.73 1485.97 1471.69 1460.09 1455.23 1457.34 1456.28 1440.31 1426.62 1420.36 1405.42 1399.49 1388.01 1381.39 1366.41 1349.75 1339.45 1328.95 1316.58 1305.32 1296.22 1287.85 1278.25 1269.02 1257.64 1246.89 1241.05 1244.41 1239.38 1229.96 1209.15 1191.87 1204.50 1208.63 1210.09 1227.41 1213.12 1214.60 1230.16 1246.90 1287.63 1321.20 1276.07 1221.68 1201.62 1229.57 1228.97 1233.37 1253.90 1258.21 1247.73 1223.03 1210.19 1215.86 1232.03 1234.86 1233.58 1227.65 1202.82 1129.10 1042.66 998.65 964.61 899.77 776.66 655.01 868.46 973.82 954.10 929.59 883.74 935.50 939.65 928.74 948.20 1015.32 1059.64 1048.81 1052.77 1062.65 1066.08 1064.45 1061.31 1056.94 1056.55 1054.99 1052.48 1054.15 1056.87 1069.84 1064.28 1053.78 1048.32 1040.42 1016.73 999.24 1018.64 1024.59 1018.53 1003.68 979.45 952.22 937.03 928.82 923.92 930.45 951.11 913.67 818.40 743.22 709.96 649.39 706.59 714.87 749.37 783.86 804.63 896.86 972.08 975.32 974.18 965.58 969.15 965.37 946.70 933.86 934.06 933.96 938.36 945.41 962.89 972.74 968.99 953.41 932.43 929.47 928.52 929.60 925.45 917.19 905.50 844.99 818.46 838.14 875.62 919.57 937.49 949.88 953.86 949.14 946.05 932.78 911.86 884.97 871.59 848.88 841.47 868.79 889.65 884.30 877.15 885.91 832.36 738.22 767.95 864.21 877.00 885.42 887.94 895.17 903.11 909.59 921.30 923.92 920.61 919.72 914.87 911.09 914.48 909.87 894.94 876.86 849.97 805.69 834.28 877.10 879.69 839.85 734.48 727.68 740.18 838.54 889.81 890.39 892.67 886.45 839.38 852.03 877.67 877.34 866.76 861.54 865.12 877.05 849.77 862.73 895.55 900.54 915.22 930.39 865.84 881.69 926.42 926.32 940.57 965.31 971.35 952.43 955.78 942.50 963.87 979.49 978.58 976.20 969.39 965.43 965.15 967.25 969.55 971.43 972.94 974.61 977.00 981.57 987.14 993.13 998.42 1002.93 1006.39 1010.71 1015.78 1021.15 1027.32 1033.50 1039.90 1046.61 1053.52 1061.51 1069.55 1079.26 1091.19 1104.48 1113.18 1111.07 1099.86 1082.30 1067.19 1055.21 1036.74 1026.37 1010.36 998.41 990.71 979.28 970.83 962.88 955.48 949.87 951.79 965.23 1002.06 1015.97 984.30 977.00 992.70 995.43 978.85 943.58 914.64 902.15 905.78 921.85 960.74 969.22 987.15 939.56 858.60 835.90 826.29 820.29 817.08 814.11 812.38 811.65 810.06 808.56 806.51 804.77 804.63 805.38 807.11 815.86 821.63 840.45 875.87 887.98 891.85 916.97 899.91 875.41 862.45 850.77 845.91 848.94 845.90 835.48 826.16 817.98 816.33 817.25 819.18 819.72 823.43 833.41 846.61 846.67 846.72 855.22 865.09 874.98 881.66 882.03 883.45 890.47 900.80 911.07 916.79 920.64 926.10 931.75 931.28 927.20 927.69 929.20 931.64 933.70 935.13 936.54 938.99 941.59 944.47 946.92 949.16 951.16 -9999 -9999 -9999 -9999 -9999 -9999 -9999 -9999 -9999 -9999 -9999 -9999 -9999 -9999 -9999 -9999 -9999 -9999 -9999 -9999 -9999 -9999 -9999 -9999 -9999 -9999 -9999 -9999 -9999
1179.21 1216.71 1379.09 1487.03 1571.47 1553.21 1582.53 1641.99 1589.39 1488.90 1453.43 1402.00 1226.88 1003.77 946.18 1067.85 1116.96 1349.98 1441.40 1344.20 1099.69 1246.91 1392.70 1411.88 1429.36 1447.14 1474.26 1464.36 1391.68 1343.27 1429.85 1435.84 1266.09 1312.14 1401.07 1342.49 1333.93 1345.73 1330.09 1352.76 1403.25 1441.61 1474.21 1511.52 1547.93 1599.12 1583.76 1574.31 1587.48 1585.55 1570.54 1553.62 1531.76 1515.58 1504.68 1494.51 1485.60 1477.21 1468.04 1460.40 1450.63 1447.26 1461.56 1478.69 1474.22 1468.76 1458.86 1447.36 1439.56 1447.09 1448.38 1435.78 1415.72 1399.37 1383.47 1367.19 1356.80 1353.54 1355.48 1344.64 1330.66 1319.09 1309.73 1301.80 1295.26 1288.11 1284.94 1281.46 1258.61 1251.01 1258.45 1264.34 1252.32 1241.99 1215.09 1185.06 1180.72 1190.98 1194.94 1209.62 1191.92 1196.09 1220.93 1246.12 1295.86 1313.27 1303.84 1264.89 1266.80 1309.46 1292.65 1266.61 1267.63 1275.24 1255.06 1228.88 1207.64 1198.15 1223.50 1229.51 1225.63 1223.73 1215.64 1210.13 1203.58 1106.24 985.92 928.11 914.45 755.97 828.74 961.57 868.41 855.19 901.37 898.25 918.65 916.73 959.54 1054.57 1074.60 1071.27 1066.46 1061.82 1060.22 1057.01 1052.76 1049.44 1049.99 1045.12 1040.30 1046.49 1046.13 1061.59 1064.32 1049.89 1042.34 1032.44 1019.78 999.57 994.61 1006.75 1008.22 994.59 970.36 947.38 933.64 927.53 925.93 933.75 954.50 938.14 827.76 779.98 727.05 664.53 648.33 709.33 771.21 808.61 829.47 895.68 895.14 885.34 923.36 930.45 965.98 954.53 930.37 923.31 913.80 923.91 924.84 929.30 948.70 961.36 961.73 952.34 949.36 953.20 948.95 946.48 937.58 933.98 918.57 861.25 811.11 865.21 912.95 914.88 914.83 937.53 948.96 946.79 938.25 922.64 908.18 884.14 863.82 844.03 834.25 857.71 882.65 884.74 820.24 788.90 797.10 739.75 755.13 804.88 837.96 842.65 868.57 881.07 887.34 897.83 916.84 919.41 913.48 910.19 905.26 901.35 904.84 904.85 899.25 876.65 854.35 821.05 807.43 863.12 865.83 818.51 727.51 725.47 748.93 857.00 882.02 865.30 847.54 853.24 823.48 861.17 877.08 863.78 853.68 846.96 847.69 866.07 847.47 841.94 844.37 854.70 888.91 872.15 850.44 865.47 889.75 906.14 931.41 954.53 964.29 935.19 930.87 944.15 961.44 974.63 973.34 968.26 964.22 959.72 959.03 961.06 963.47 966.21 969.36 972.20 976.08 981.53 988.55 996.43 1004.59 1007.94 1009.76 1012.90 1016.95 1021.35 1027.87 1034.08 1040.17 1046.31 1054.14 1062.62 1071.84 1082.21 1095.37 1108.15 1119.48 1116.34 1096.18 1075.50 1065.75 1050.66 1031.81 1025.76 1016.20 999.85 992.50 990.93 984.36 969.73 956.64 948.08 944.85 950.23 980.68 1011.17 1004.20 964.64 955.64 963.06 982.83 974.37 943.27 910.69 897.20 907.11 928.94 939.18 966.15 982.48 890.82 848.61 833.63 828.09 822.76 818.02 810.49 810.24 809.99 807.64 805.52 803.12 801.35 800.99 799.81 800.17 807.15 827.39 852.45 848.21 860.84 908.58 917.16 895.47 858.04 845.63 844.73 863.82 855.52 832.48 821.42 815.70 812.48 814.24 815.96 818.33 825.54 832.69 836.37 842.62 850.59 856.83 863.12 869.59 882.54 892.75 888.05 891.97 900.48 910.48 918.80 924.81 929.95 935.07 939.33 938.65 937.10 938.84 941.88 942.39 943.74 943.83 944.75 946.94 948.58 949.69 951.28 952.90 -9999 -9999 -9999 -9999 -9999 -9999 -9999 -9999 -9999 -9999 -9999 -9999 -9999 -9999 -9999 -9999 -9999 -9999 -9999 -9999 -9999 -9999 -9999 -9999 -9999 -9999 -9999 -9999 -9999
1226.78 1299.65 1384.76 1528.74 1733.14 1881.71 1826.67 1939.57 1758.19 1554.55 1472.20 1449.42 1320.74 1012.69 972.40 1248.85 1403.58 1401.52 1438.74 1386.44 1202.35 1314.85 1335.48 1384.62 1405.11 1434.61 1464.74 1445.29 1418.32 1504.17 1466.63 1446.48 1358.32 1262.83 1401.10 1368.15 1368.17 1378.83 1379.46 1354.04 1390.34 1429.63 1461.38 1499.92 1549.05 1610.15 1629.34 1618.26 1608.06 1589.18 1568.23 1542.99 1517.77 1498.53 1485.11 1473.50 1465.29 1456.82 1448.33 1443.60 1435.31 1432.81 1448.41 1463.35 1457.40 1449.47 1439.28 1428.33 1425.06 1430.73 1434.44 1432.83 1418.21 1397.00 1381.68 1372.06 1358.95 1335.70 1326.26 1329.94 1323.55 1313.67 1306.10 1302.52 1299.35 1294.06 1295.43 1291.98 1270.25 1264.04 1266.71 1254.24 1232.41 1218.09 1202.55 1183.83 1165.84 1166.39 1184.34 1191.55 1179.17 1190.30 1207.36 1231.14 1252.82 1290.13 1299.47 1318.84 1329.79 1322.97 1307.77 1299.09 1286.34 1273.75 1251.26 1222.67 1203.84 1184.25 1207.07 1220.50 1210.54 1211.67 1212.21 1197.15 1167.78 1080.36 986.59 961.33 952.88 806.79 702.70 786.57 735.77 916.91 954.58 928.78 918.42 936.52 959.38 1047.29 1070.30 1068.93 1060.53 1058.60 1055.40 1045.69 1040.65 1044.23 1047.24 1040.58 1030.28 1037.21 1037.69 1047.32 1052.85 1044.31 1037.98 1033.26 1028.11 1017.75 997.74 973.47 981.57 989.12 967.56 939.88 927.96 918.36 918.37 917.66 937.32 955.65 915.88 804.21 732.00 675.68 663.02 749.95 759.06 769.29 758.63 773.82 773.37 786.87 801.10 887.79 950.96 946.00 930.63 908.72 899.34 913.56 910.48 917.43 936.13 948.92 949.24 952.66 960.64 958.58 943.22 929.01 910.22 912.56 914.58 860.32 805.44 857.70 900.43 888.30 893.11 918.96 942.85 943.20 934.75 915.48 898.74 882.06 857.59 828.08 827.52 859.12 877.54 888.19 864.51 799.25 730.41 728.42 744.04 770.16 813.75 826.57 859.20 875.22 883.26 899.29 914.41 913.96 903.61 898.17 895.27 893.12 896.90 894.80 892.06 889.65 876.72 844.80 784.95 822.81 856.55 792.37 722.80 723.55 735.25 781.49 843.18 874.48 818.16 793.67 845.87 881.90 872.96 853.95 840.62 829.23 840.44 861.91 847.34 819.22 850.44 850.37 843.00 870.70 911.95 890.34 880.56 913.04 927.52 946.50 951.85 926.92 917.65 950.36 960.86 966.44 969.59 960.41 955.32 953.53 954.38 957.09 960.53 964.00 968.48 973.76 977.78 983.04 990.08 1000.02 1010.84 1014.59 1014.26 1015.73 1018.34 1022.85 1030.12 1036.31 1042.02 1049.47 1057.44 1067.86 1079.72 1088.08 1098.61 1107.85 1115.21 1115.22 1096.35 1066.34 1049.62 1037.51 1025.30 1017.62 1012.65 1007.08 1006.68 1009.07 1003.63 985.68 966.66 951.28 942.11 943.30 960.82 996.85 1009.40 993.98 963.09 940.46 939.30 973.26 965.16 933.01 894.79 894.32 905.28 932.47 966.54 1006.52 976.89 887.78 843.37 840.19 834.61 828.53 816.95 809.64 807.50 806.26 804.91 802.88 800.52 798.66 797.41 795.75 796.99 811.72 838.01 834.01 833.66 865.43 909.22 919.39 877.59 843.42 832.61 851.99 886.99 861.04 841.14 817.58 809.73 812.48 816.56 825.96 831.79 836.90 841.40 846.99 855.85 862.77 868.72 877.33 882.41 889.49 893.57 894.83 901.37 909.29 917.77 926.43 934.20 939.96 944.39 946.34 947.44 950.19 955.24 954.71 954.47 958.72 953.39 953.29 954.26 955.93 958.22 960.09 -9999 -9999 -9999 -9999 -9999 -9999 -9999 -9999 -9999 -9999 -9999 -9999 -9999 -9999 -9999 -9999 -9999 -9999 -9999 -9999 -9999 -9999 -9999 -9999 -9999 -9999 -9999 -9999 -9999
1307.71 1346.23 1461.22 1696.74 1941.06 2068.10 2015.88 2071.91 1823.58 1659.79 1470.71 1277.19 1089.71 942.88 1163.06 1360.38 1398.80 1420.18 1442.66 1416.98 1355.85 1395.40 1445.18 1430.12 1424.11 1446.26 1472.65 1471.92 1434.93 1501.21 1498.71 1466.78 1380.23 1331.09 1394.56 1425.07 1389.05 1412.31 1429.44 1381.92 1390.37 1429.82 1460.95 1495.47 1533.88 1596.52 1668.16 1641.79 1593.14 1564.03 1554.83 1534.78 1509.89 1490.66 1472.73 1457.23 1446.98 1438.96 1431.54 1423.75 1416.50 1422.09 1435.31 1444.19 1441.32 1428.46 1420.64 1410.58 1413.62 1420.48 1420.95 1428.50 1420.30 1410.01 1392.85 1368.71 1350.85 1331.03 1314.37 1307.39 1306.62 1302.29 1298.00 1292.18 1287.24 1280.71 1281.00 1282.66 1273.12 1272.09 1275.20 1265.49 1239.62 1220.90 1209.06 1198.85 1175.41 1152.02 1171.69 1172.94 1170.89 1181.42 1195.88 1199.31 1222.44 1250.98 1307.34 1336.32 1334.64 1327.93 1318.61 1303.77 1284.90 1267.22 1248.93 1233.01 1219.13 1183.90 1178.91 1191.42 1186.15 1191.65 1191.05 1176.25 1174.62 1050.73 972.11 933.25 883.33 784.96 764.84 701.23 652.82 894.94 940.13 945.64 961.75 1020.48 1043.75 1049.83 1057.97 1050.15 1032.11 1053.63 1047.56 1035.04 1016.08 1038.47 1040.82 1038.41 1021.82 1023.95 1028.67 1037.83 1040.61 1037.77 1033.39 1029.61 1025.53 1019.25 1009.18 981.54 949.49 952.27 967.81 938.62 925.31 907.27 903.67 897.74 913.12 941.19 947.76 825.28 741.88 694.19 649.96 731.23 728.49 695.08 721.11 740.20 749.87 763.28 766.05 805.78 883.42 949.63 943.62 903.18 888.20 906.04 897.22 904.41 927.31 937.44 939.25 956.40 963.07 952.36 931.54 916.31 900.91 881.65 887.38 883.53 814.32 831.96 850.73 873.97 898.57 925.48 942.14 939.64 935.47 909.68 882.61 859.83 839.78 813.78 827.36 852.45 871.41 881.81 869.40 785.47 719.03 751.32 806.17 845.91 871.60 875.94 876.58 891.73 896.97 904.84 915.07 913.34 899.21 887.62 883.55 886.27 890.60 886.98 875.29 878.17 872.12 843.52 775.71 815.03 857.08 788.74 717.93 719.99 723.29 758.28 852.97 860.43 793.54 791.08 864.12 880.84 864.83 837.28 825.42 816.95 835.07 852.85 836.45 818.39 870.83 892.91 893.77 916.66 942.33 940.67 914.12 888.55 893.03 904.49 900.68 910.55 938.32 956.95 954.21 953.63 962.15 951.67 947.96 948.75 952.34 956.46 961.14 965.94 971.13 977.57 981.01 985.36 991.10 999.32 1009.07 1017.27 1018.23 1019.21 1021.07 1025.05 1031.74 1039.86 1046.02 1053.19 1062.90 1074.80 1085.87 1091.12 1095.14 1100.34 1103.24 1097.55 1083.76 1065.69 1052.10 1048.57 1040.58 1022.91 1027.92 1016.67 1017.93 1022.27 1011.42 995.33 976.46 954.90 942.33 937.37 956.59 983.77 992.91 1013.51 988.06 969.16 938.46 932.30 940.58 932.10 892.03 885.66 895.21 907.89 940.17 970.93 982.45 938.37 890.11 878.24 878.42 855.01 825.51 812.57 806.14 803.75 803.53 802.26 800.28 798.01 795.85 794.04 792.99 795.30 809.53 818.79 830.60 858.58 866.04 880.03 889.06 858.73 827.86 829.53 856.50 861.51 851.62 836.47 814.95 829.40 839.08 849.40 848.08 848.56 860.08 862.10 865.74 872.36 881.07 886.13 888.91 894.39 897.59 896.97 903.82 912.92 921.27 929.52 938.03 945.09 948.65 953.45 965.60 975.45 975.44 980.57 977.70 971.83 968.00 961.15 960.01 962.36 965.39 -9999 -9999 -9999 -9999 -9999 -9999 -9999 -9999 -9999 -9999 -9999 -9999 -9999 -9999 -9999 -9999 -9999 -9999 -9999 -9999 -9999 -9999 -9999 -9999 -9999 -9999 -9999 -9999 -9999 -9999
1351.69 1378.85 1515.78 1805.20 2091.99 2330.86 2386.49 2070.97 1926.19 1654.79 1413.64 1222.93 977.96 1048.25 1108.76 1286.61 1398.01 1428.16 1451.78 1439.66 1408.49 1406.38 1449.92 1468.15 1459.39 1463.36 1502.23 1507.44 1491.88 1455.84 1495.78 1527.79 1438.97 1373.75 1403.48 1450.47 1418.87 1443.13 1461.03 1408.40 1386.93 1437.17 1473.66 1498.06 1547.60 1611.31 1632.67 1628.82 1584.77 1554.04 1531.33 1516.09 1500.49 1483.60 1464.94 1446.74 1432.81 1423.73 1423.31 1410.78 1402.17 1415.64 1425.00 1428.04 1422.29 1413.59 1406.07 1397.90 1402.84 1409.60 1407.41 1410.95 1407.25 1411.27 1396.98 1383.26 1364.86 1334.77 1312.56 1296.48 1291.77 1287.69 1278.06 1269.82 1264.54 1261.19 1268.26 1275.10 1267.58 1266.70 1276.60 1267.43 1249.88 1241.06 1232.77 1208.96 1185.58 1174.08 1164.10 1153.12 1160.17 1180.31 1184.47 1178.87 1208.11 1259.11 1312.40 1333.79 1331.82 1326.81 1318.39 1306.83 1295.07 1284.21 1262.54 1245.56 1224.53 1197.05 1161.34 1152.52 1157.85 1169.28 1154.35 1167.14 1200.93 1089.82 969.67 944.16 931.98 950.97 937.75 910.03 717.01 828.07 921.90 922.22 937.62 1017.39 993.42 993.27 1052.99 995.52 972.25 1048.65 1034.43 996.53 986.33 1020.92 1028.22 1033.15 1001.57 994.67 1028.05 1034.58 1033.44 1030.96 1028.42 1025.31 1018.85 1014.25 1005.37 999.16 985.92 940.65 930.69 922.44 909.94 883.76 847.32 844.59 885.06 920.17 929.32 827.13 765.29 718.19 662.75 670.03 672.96 742.60 771.01 792.87 799.14 822.11 851.02 880.60 933.09 948.93 916.45 887.27 881.16 898.21 887.54 887.02 903.88 923.94 931.43 953.29 959.93 952.28 943.19 939.04 924.60 899.91 857.23 848.67 817.81 800.89 846.28 892.19 904.46 915.09 931.40 935.43 924.17 911.68 891.76 857.42 828.86 806.07 824.09 841.82 863.26 867.93 825.95 746.30 734.34 841.32 870.02 876.81 881.01 887.55 887.61 893.49 900.99 904.69 911.22 908.89 895.63 883.13 877.01 881.94 886.03 884.21 875.02 855.71 838.15 803.90 764.66 827.49 851.69 788.38 729.56 714.90 719.42 746.40 842.06 839.30 774.80 773.71 828.20 858.27 842.42 814.94 805.01 806.21 825.96 845.85 839.55 811.60 835.81 872.74 889.68 909.01 932.93 945.52 945.30 923.77 924.67 931.73 912.59 906.26 924.73 940.81 937.53 940.41 944.04 941.58 943.61 947.88 952.92 958.67 965.10 972.83 977.00 981.39 985.81 989.72 993.25 998.91 1006.01 1013.52 1018.95 1021.35 1023.76 1027.40 1033.67 1041.43 1048.82 1056.42 1065.03 1075.60 1084.33 1087.12 1089.46 1093.14 1096.87 1098.08 1087.19 1077.78 1073.84 1060.05 1040.41 1030.49 1032.46 1023.36 1021.82 1019.46 1011.34 1009.09 993.71 959.98 945.54 936.82 937.51 949.62 981.92 1003.00 1010.67 1004.33 975.52 934.42 911.59 904.21 884.83 917.76 901.30 895.60 906.76 917.74 953.94 945.34 909.52 939.04 956.67 862.95 832.20 816.44 811.06 809.82 801.86 800.19 798.81 797.21 795.38 793.31 791.59 790.59 794.18 801.49 820.27 853.13 857.06 841.61 835.36 837.33 834.40 819.12 816.12 826.12 826.36 812.04 816.99 837.73 851.13 849.13 851.17 857.15 868.19 880.77 892.61 901.21 908.68 904.80 898.30 902.73 906.32 914.40 927.76 931.02 931.30 945.95 947.03 950.86 954.66 966.70 989.47 1011.28 1000.25 1002.00 1005.71 987.23 983.02 974.89 970.22 971.95 972.83 -9999 -9999 -9999 -9999 -9999 -9999 -9999 -9999 -9999 -9999 -9999 -9999 -9999 -9999 -9999 -9999 -9999 -9999 -9999 -9999 -9999 -9999 -9999 -9999 -9999 -9999 -9999 -9999 -9999 -9999
1378.21 1423.23 1533.28 1822.34 2172.08 2341.44 2454.39 2070.29 1604.13 1400.57 1214.96 1056.33 1046.78 1339.64 1308.79 1285.63 1377.00 1416.11 1451.64 1450.81 1437.11 1418.16 1436.43 1473.69 1493.69 1493.39 1539.42 1629.29 1653.86 1544.53 1501.22 1520.25 1467.10 1411.72 1392.11 1465.63 1463.86 1469.45 1474.85 1424.66 1407.27 1428.27 1468.99 1497.74 1558.41 1574.30 1577.52 1607.13 1577.82 1550.19 1524.96 1504.83 1488.16 1472.53 1459.55 1445.00 1430.40 1416.03 1407.11 1398.93 1390.85 1405.54 1414.87 1419.16 1411.23 1401.84 1391.69 1382.33 1392.73 1394.53 1398.81 1394.50 1392.27 1403.34 1402.69 1379.08 1353.05 1328.96 1309.45 1293.82 1282.81 1275.81 1268.33 1262.85 1254.18 1251.22 1268.67 1298.85 1270.86 1255.88 1251.55 1241.70 1231.82 1230.01 1222.47 1220.93 1211.58 1201.01 1199.18 1171.45 1144.12 1167.47 1167.31 1169.81 1197.20 1237.40 1295.83 1319.78 1317.96 1319.96 1314.69 1301.14 1282.31 1262.71 1237.25 1213.84 1200.48 1180.77 1156.98 1134.97 1131.31 1155.49 1136.21 1160.15 1184.41 1153.30 1043.13 984.50 981.70 983.69 926.12 877.80 700.54 671.78 808.51 904.80 932.89 957.34 934.18 932.09 960.79 927.49 963.18 1036.11 1025.77 955.61 977.40 972.21 1023.97 1027.99 989.32 985.26 1030.68 1031.66 1028.79 1023.97 1023.18 1019.77 1009.86 1005.35 1000.66 994.97 991.41 978.69 956.33 932.76 903.25 900.44 879.35 802.83 856.69 921.33 924.30 810.01 790.86 746.73 666.84 661.55 726.15 746.08 771.09 800.18 807.73 839.55 914.78 937.52 951.96 925.16 891.92 870.55 872.03 881.89 879.32 875.94 899.81 915.59 919.49 938.46 954.47 955.74 951.34 939.30 917.04 896.41 861.99 844.10 804.58 810.39 876.32 883.65 881.48 894.24 916.34 922.31 913.51 905.60 886.14 860.46 841.32 813.02 800.08 828.53 843.83 826.16 828.73 739.73 740.18 851.02 862.02 862.91 870.07 875.50 876.31 886.31 893.82 894.69 895.73 897.45 889.00 877.02 871.27 876.99 880.22 877.46 874.02 870.76 859.64 823.82 756.73 818.44 861.51 813.34 735.95 709.79 715.85 751.10 833.19 837.17 763.74 766.14 794.35 825.19 811.77 793.98 790.63 808.98 822.58 839.55 830.57 807.31 834.92 868.72 886.33 908.75 917.32 937.16 943.31 941.27 942.62 959.72 933.68 922.22 912.93 917.76 924.93 930.51 935.22 941.48 946.21 950.93 956.16 962.36 970.10 979.55 984.92 990.78 995.21 997.13 997.99 1000.95 1005.64 1011.01 1016.72 1020.96 1024.20 1027.99 1034.13 1042.30 1050.23 1058.11 1065.65 1076.02 1082.48 1082.89 1086.56 1091.57 1097.03 1100.32 1093.93 1087.09 1075.64 1057.47 1043.86 1042.59 1035.99 1029.87 1032.49 1021.92 1002.07 993.82 988.14 964.26 948.47 939.71 933.27 932.42 941.38 970.32 995.64 1003.47 989.99 984.32 928.12 886.60 877.34 898.88 934.15 920.22 877.80 883.21 922.48 942.61 891.31 974.03 937.21 866.87 838.89 822.62 824.12 819.56 801.74 798.82 796.82 795.62 794.22 792.29 790.20 789.45 789.58 795.55 809.26 821.04 825.75 837.13 831.02 816.15 816.19 820.32 805.88 801.57 803.63 805.26 821.14 843.70 885.89 900.45 876.71 862.25 884.71 888.63 907.27 936.53 933.68 927.83 920.11 921.93 917.08 927.05 946.33 962.29 950.33 951.27 958.57 959.56 961.31 966.26 978.66 997.76 1013.04 1012.45 1009.05 1008.40 999.86 992.91 990.34 984.12 981.39 -9999 -9999 -9999 -9999 -9999 -9999 -9999 -9999 -9999 -9999 -9999 -9999 -9999 -9999 -9999 -9999 -9999 -9999 -9999 -9999 -9999 -9999 -9999 -9999 -9999 -9999 -9999 -9999 -9999 -9999
1394.95 1424.58 1492.58 1769.63 1967.68 1923.48 1966.95 1919.27 1655.86 1332.44 1135.89 963.72 1007.84 1242.10 1405.39 1417.26 1404.71 1413.31 1451.06 1470.63 1462.70 1439.55 1449.45 1467.73 1511.47 1523.92 1569.57 1745.81 1844.75 1644.18 1525.11 1504.55 1486.29 1444.48 1435.45 1450.50 1496.41 1497.69 1473.20 1447.72 1444.19 1434.31 1459.13 1495.92 1516.91 1522.73 1551.72 1558.78 1554.65 1552.74 1531.11 1512.56 1496.46 1482.11 1469.25 1452.69 1440.90 1425.16 1407.45 1392.11 1380.95 1388.96 1406.74 1418.05 1406.15 1389.92 1378.21 1367.96 1373.96 1379.14 1385.30 1376.06 1382.54 1382.43 1387.07 1369.13 1349.40 1333.55 1315.48 1295.99 1280.18 1269.01 1261.63 1258.33 1249.01 1243.44 1263.11 1287.09 1262.25 1248.33 1238.20 1225.58 1213.77 1206.28 1196.98 1194.91 1194.89 1188.95 1179.25 1170.80 1156.51 1141.91 1152.66 1164.22 1175.57 1195.19 1254.83 1320.31 1298.14 1300.71 1303.82 1282.05 1266.67 1260.94 1248.74 1229.48 1213.41 1189.01 1161.42 1146.32 1118.59 1121.75 1118.86 1126.46 1146.29 1145.81 1126.66 999.62 998.68 968.53 922.28 867.93 772.69 791.62 723.87 770.01 921.49 906.05 893.61 890.15 873.49 907.56 1003.25 1020.51 1020.40 967.64 906.19 951.62 1009.87 986.28 935.38 979.98 1026.65 1028.80 1023.21 1014.31 1012.43 1010.63 1002.52 996.88 990.25 982.02 976.11 977.85 967.08 940.11 915.20 902.99 883.11 784.06 793.57 839.84 930.37 849.91 758.38 716.12 663.99 665.67 713.10 733.66 747.74 759.42 763.23 781.27 791.81 865.52 947.00 925.62 886.79 865.69 858.88 862.38 873.71 867.26 885.74 897.75 914.01 934.50 941.55 940.19 936.72 934.06 914.07 898.49 892.83 895.42 831.95 802.32 867.00 859.07 878.94 896.91 908.59 908.95 904.91 897.08 883.53 865.17 844.35 813.83 789.15 818.42 839.05 822.85 772.67 732.38 741.56 803.55 828.80 846.14 862.98 856.28 862.38 877.76 884.41 883.10 882.87 884.50 882.24 870.70 864.64 872.24 876.89 872.30 857.50 840.23 848.84 829.37 754.43 825.09 822.15 736.98 703.31 710.82 713.25 757.34 784.04 779.93 746.48 753.40 768.46 789.75 780.50 777.09 790.83 803.79 815.30 833.60 819.08 805.80 857.82 867.25 881.61 885.95 900.68 924.06 916.80 924.10 932.00 952.87 969.64 951.77 933.13 922.13 923.56 931.53 941.52 946.72 951.15 955.62 960.19 966.36 973.02 980.04 985.81 992.69 998.67 1001.79 1002.84 1004.16 1006.98 1010.91 1015.26 1019.10 1022.60 1027.21 1033.82 1041.96 1050.62 1059.37 1066.07 1073.08 1076.19 1078.78 1085.66 1094.10 1101.47 1103.34 1094.42 1082.22 1068.80 1058.06 1059.45 1054.34 1043.03 1039.22 1032.19 1025.77 1011.02 996.42 997.37 977.42 950.98 943.13 934.54 930.26 925.69 931.97 934.39 926.73 947.29 968.65 907.39 890.21 888.39 869.35 924.69 953.41 904.69 870.64 881.26 918.99 875.72 903.06 889.70 848.99 835.30 831.66 832.57 828.84 807.95 797.87 796.01 794.34 792.34 790.58 789.45 787.89 786.65 786.11 787.87 801.18 801.59 811.62 815.38 818.22 804.87 798.38 797.18 797.46 801.17 809.74 826.02 850.26 895.44 908.90 888.68 873.39 886.15 907.23 904.56 918.82 957.68 962.28 943.21 931.61 922.66 933.68 950.73 971.92 981.28 972.33 967.88 970.95 969.61 969.93 973.74 987.18 1017.23 1032.94 1026.17 1032.29 1023.02 1008.69 1011.30 1006.44 997.61 -9999 -9999 -9999 -9999 -9999 -9999 -9999 -9999 -9999 -9999 -9999 -9999 -9999 -9999 -9999 -9999 -9999 -9999 -9999 -9999 -9999 -9999 -9999 -9999 -9999 -9999 -9999 -9999 -9999 -9999
1393.96 1393.31 1420.29 1580.74 1620.16 1596.87 1569.10 1621.65 1577.06 1393.74 1153.89 990.90 1172.91 1094.06 1191.04 1389.40 1430.71 1428.34 1456.86 1487.34 1485.49 1460.63 1474.82 1497.62 1521.27 1554.50 1575.97 1690.12 1795.42 1645.75 1545.23 1552.60 1530.49 1494.83 1448.05 1480.01 1531.91 1521.54 1505.85 1471.36 1477.47 1472.50 1451.32 1473.64 1486.13 1531.38 1556.84 1534.94 1524.11 1534.34 1543.54 1532.35 1515.21 1491.49 1468.81 1452.79 1440.57 1428.31 1419.58 1402.64 1375.35 1374.14 1394.81 1403.16 1398.18 1381.55 1365.93 1355.23 1353.92 1372.96 1373.17 1357.54 1370.20 1372.58 1358.42 1354.64 1333.95 1320.28 1312.26 1303.51 1285.13 1264.44 1256.53 1249.73 1240.27 1236.61 1245.21 1247.99 1239.55 1243.00 1251.20 1237.58 1226.23 1216.03 1207.83 1194.61 1180.26 1168.08 1161.93 1156.46 1146.18 1125.93 1143.53 1156.77 1157.58 1166.63 1227.37 1312.76 1306.45 1275.75 1270.51 1251.06 1233.50 1234.25 1228.17 1230.87 1219.15 1194.34 1171.56 1152.40 1119.96 1097.37 1090.45 1088.64 1108.15 1117.09 1117.11 1098.95 1038.67 950.40 901.54 872.74 935.39 914.80 822.90 745.90 910.54 881.16 873.79 865.35 874.81 983.31 995.91 960.54 991.01 1003.24 901.24 930.27 914.47 906.49 970.98 1010.83 1020.51 1022.97 1014.45 1002.60 998.51 996.54 992.17 985.89 980.62 969.02 948.40 960.94 957.70 929.04 904.16 893.63 876.95 830.84 751.88 781.97 922.10 874.41 798.81 742.82 678.09 702.40 672.69 680.88 707.12 733.74 747.21 758.33 811.63 917.99 948.86 926.17 892.06 872.65 852.37 849.53 859.01 855.13 870.71 890.64 910.35 924.29 930.80 928.50 926.88 924.11 905.18 897.53 899.33 893.50 858.96 792.76 816.62 841.58 878.68 885.74 887.49 888.71 885.79 880.96 866.19 854.44 834.46 803.16 781.48 808.31 842.29 839.73 767.85 705.77 715.70 785.53 842.96 851.86 844.75 840.84 852.72 868.05 875.13 869.83 873.38 871.50 869.95 862.19 859.74 872.23 875.46 870.93 855.16 812.37 800.25 798.20 759.95 817.67 727.88 707.08 704.42 707.70 709.47 710.65 716.51 723.95 731.50 736.56 745.17 753.78 761.03 778.00 796.72 807.10 813.73 822.41 802.69 807.03 826.67 839.09 855.95 859.10 876.60 889.69 919.90 937.47 943.09 951.03 967.39 973.90 949.54 940.20 931.08 934.95 941.74 947.89 953.33 958.01 962.11 968.48 973.73 977.59 982.39 989.48 995.47 1000.32 1002.70 1004.62 1007.18 1010.94 1014.64 1017.80 1021.16 1025.66 1033.22 1041.82 1051.78 1060.04 1066.51 1069.85 1070.86 1075.93 1085.21 1096.53 1104.02 1102.47 1097.63 1094.98 1079.51 1069.20 1068.62 1059.79 1051.01 1041.12 1027.21 1013.62 1015.37 1005.46 979.64 969.63 962.11 958.29 948.12 937.62 926.13 919.03 930.18 965.16 938.04 902.79 892.74 949.55 934.27 880.72 874.14 925.93 935.20 897.05 857.88 862.76 853.32 851.34 844.42 834.96 828.62 832.05 842.23 833.89 819.44 803.01 796.82 792.95 791.15 789.30 787.46 786.33 784.64 783.68 782.63 781.58 783.07 788.13 793.40 802.42 802.75 792.58 795.09 802.39 828.75 844.81 840.87 843.89 870.37 918.32 925.59 899.72 889.87 900.70 917.90 923.64 936.68 946.32 958.86 950.88 935.24 943.31 959.69 970.51 994.66 1001.09 989.12 982.00 978.72 977.22 978.09 983.23 1000.89 1025.49 1032.20 1046.50 1040.50 1037.37 1033.53 1019.29 1016.66 -9999 -9999 -9999 -9999 -9999 -9999 -9999 -9999 -9999 -9999 -9999 -9999 -9999 -9999 -9999 -9999 -9999 -9999 -9999 -9999 -9999 -9999 -9999 -9999 -9999 -9999 -9999 -9999 -9999 -9999
1371.33 1355.53 1337.11 1393.08 1426.35 1286.91 1301.93 1291.29 1291.16 1412.06 1198.27 1011.87 1343.07 1373.88 1200.55 1288.17 1431.41 1435.86 1457.72 1490.59 1503.75 1495.70 1493.32 1530.32 1540.67 1563.27 1582.15 1620.95 1655.76 1588.77 1581.31 1603.30 1548.04 1516.04 1463.20 1472.23 1521.17 1548.76 1518.78 1475.30 1500.43 1493.12 1477.82 1508.56 1518.99 1553.26 1564.98 1528.10 1504.94 1510.86 1529.30 1521.14 1507.00 1478.84 1455.71 1444.79 1435.26 1420.59 1407.05 1395.64 1374.49 1361.71 1372.64 1379.00 1388.06 1381.64 1363.08 1345.38 1341.04 1352.24 1353.26 1344.07 1361.83 1363.73 1337.17 1349.67 1339.11 1317.14 1300.97 1289.04 1278.05 1264.56 1266.12 1262.98 1238.11 1228.32 1232.11 1241.58 1235.34 1230.97 1240.97 1251.78 1249.09 1236.40 1232.37 1212.93 1199.34 1179.19 1186.21 1181.79 1165.57 1141.77 1117.72 1137.64 1138.55 1158.29 1230.54 1320.77 1313.56 1290.77 1269.25 1255.86 1237.78 1211.35 1193.68 1180.49 1171.06 1156.49 1140.86 1129.73 1133.36 1143.66 1114.53 1086.79 1066.71 1090.15 1095.02 1124.58 1039.44 921.35 873.11 977.31 981.01 921.02 817.99 734.66 836.61 785.15 839.72 829.14 896.55 995.82 931.85 894.80 980.72 1008.04 937.05 860.89 893.72 973.73 988.29 1002.38 1012.62 1014.09 1004.67 992.33 987.88 986.36 982.55 975.47 970.97 966.66 949.81 926.87 921.89 906.33 892.30 886.60 884.31 890.57 819.02 735.63 784.03 767.40 739.97 696.93 654.88 729.22 748.09 730.33 728.11 753.26 785.86 849.76 904.67 935.15 939.69 925.51 896.62 879.37 859.68 840.23 839.62 844.74 869.55 887.64 899.38 911.24 919.51 920.60 913.36 907.97 893.22 883.89 885.95 885.52 880.62 821.27 783.75 854.58 871.47 869.53 870.93 869.70 872.06 868.99 847.55 831.14 828.15 796.40 776.01 814.11 839.33 842.49 811.81 710.00 754.67 839.01 841.66 833.53 812.47 820.26 849.18 863.27 858.01 859.05 868.51 861.11 853.57 851.24 859.45 869.75 872.05 869.40 863.93 842.26 779.33 755.55 741.59 803.32 710.51 697.91 704.95 719.69 762.92 774.97 746.83 730.84 730.74 733.24 739.36 749.11 773.05 795.28 805.70 804.64 799.61 797.05 792.88 821.73 854.96 863.78 870.52 882.36 891.89 897.66 924.17 937.29 952.43 960.08 964.46 970.32 953.29 944.76 938.12 938.77 943.02 948.69 953.95 957.97 961.52 967.04 971.75 974.41 977.96 984.67 991.10 995.73 999.19 1002.42 1005.77 1009.14 1012.06 1015.58 1019.70 1024.37 1030.57 1038.58 1048.21 1056.62 1064.45 1067.42 1066.21 1072.32 1082.29 1092.30 1094.39 1092.07 1090.72 1095.85 1091.42 1080.86 1075.74 1071.19 1055.49 1041.77 1034.85 1009.48 998.20 993.67 992.16 982.66 983.21 979.92 968.84 969.90 938.53 924.17 936.09 987.73 968.81 935.29 927.50 991.38 981.40 893.08 856.98 861.92 858.36 854.71 845.89 841.63 838.24 833.12 829.02 823.47 819.90 825.83 838.84 835.94 827.18 824.48 813.85 795.86 791.64 788.55 786.02 784.38 783.09 781.75 780.71 779.12 781.12 784.93 785.65 788.19 789.33 791.95 801.55 808.11 823.94 866.76 884.37 867.31 884.32 941.35 970.59 952.46 926.75 914.35 934.71 945.13 953.20 955.65 967.15 964.79 941.65 954.97 971.86 981.28 1000.24 1018.21 1014.18 998.86 988.51 985.66 985.92 987.14 992.76 1002.15 1020.62 1043.61 1054.55 1058.96 1049.00 1034.91 -9999 -9999 -9999 -9999 -9999 -9999 -9999 -9999 -9999 -9999 -9999 -9999 -9999 -9999 -9999 -9999 -9999 -9999 -9999 -9999 -9999 -9999 -9999 -9999 -9999 -9999 -9999 -9999 -9999 -9999 -9999
1337.99 1351.08 1308.88 1282.61 1308.02 1118.60 1076.52 1098.77 1166.67 1311.00 1093.13 1083.03 1386.17 1411.00 1350.36 1300.46 1388.59 1420.53 1456.97 1489.11 1513.51 1528.99 1523.02 1535.12 1562.71 1594.83 1602.65 1656.21 1658.47 1608.17 1616.90 1590.42 1520.05 1531.27 1474.04 1516.49 1573.78 1601.67 1539.74 1498.01 1514.63 1507.70 1492.82 1538.59 1568.06 1568.57 1548.18 1519.86 1494.89 1487.61 1497.36 1494.79 1484.12 1466.07 1444.16 1430.03 1428.82 1421.79 1403.10 1386.07 1370.36 1355.35 1350.84 1358.21 1365.53 1364.10 1364.75 1347.27 1330.46 1328.48 1329.83 1335.46 1361.81 1350.71 1320.62 1320.16 1332.63 1326.50 1303.37 1285.42 1268.12 1259.97 1255.24 1244.98 1228.16 1219.23 1219.31 1230.21 1224.53 1219.43 1235.75 1266.02 1265.30 1254.86 1251.99 1238.19 1213.63 1203.83 1195.81 1185.09 1173.01 1157.79 1120.13 1105.01 1125.33 1159.51 1216.97 1250.92 1304.75 1313.83 1303.34 1293.19 1274.67 1252.17 1228.21 1199.71 1178.50 1167.84 1169.10 1159.11 1169.21 1166.26 1152.36 1131.37 1067.52 1027.61 1076.66 1083.50 976.65 886.87 934.08 1019.30 971.43 967.27 868.96 753.92 755.04 744.64 699.54 855.58 912.11 905.32 873.19 897.83 999.05 996.22 921.95 848.51 907.35 935.93 932.55 1001.30 1005.67 1002.93 995.25 983.32 978.54 977.22 973.33 965.73 953.55 947.58 938.35 920.02 894.06 881.90 882.63 880.34 884.31 881.23 806.18 789.17 730.87 738.76 715.29 698.00 611.36 700.43 766.93 756.05 759.64 790.63 857.73 894.42 907.66 929.40 935.92 916.58 881.12 864.19 866.74 841.33 828.84 833.19 851.42 871.89 895.35 905.30 900.20 912.67 907.76 896.23 887.49 877.38 868.68 875.22 873.79 801.51 797.57 861.83 860.15 850.46 847.97 858.30 869.75 857.51 834.63 808.89 802.24 794.01 773.24 811.69 832.49 836.10 796.93 708.76 713.28 771.13 786.63 768.07 795.70 834.45 852.04 850.82 846.11 857.93 862.94 853.61 841.79 845.31 861.49 867.43 867.01 865.62 863.49 858.75 831.56 758.89 712.73 743.29 704.00 696.57 717.52 755.36 828.34 846.40 784.26 786.26 760.08 755.55 746.52 745.86 758.31 783.24 787.65 787.00 784.64 784.36 795.92 826.25 854.32 857.91 864.82 880.55 903.15 917.89 920.30 931.31 940.16 946.67 953.08 954.66 950.45 946.67 943.50 943.74 946.38 949.26 952.52 955.62 958.87 964.17 969.35 972.29 975.14 979.87 986.09 991.15 995.73 1000.07 1003.60 1006.38 1008.59 1012.01 1017.01 1022.42 1028.17 1034.37 1042.16 1050.35 1057.38 1061.80 1060.34 1066.83 1076.74 1080.96 1081.90 1083.02 1086.23 1092.38 1095.01 1085.91 1083.68 1074.20 1048.07 1028.78 1021.93 1005.01 993.98 992.36 1006.31 1002.02 1005.90 987.11 986.52 989.53 955.15 930.16 924.82 936.69 951.77 939.41 918.47 922.75 910.36 871.36 857.99 852.41 846.95 839.98 835.21 833.55 831.39 825.87 820.14 814.68 812.81 819.15 831.05 845.35 845.83 830.54 819.69 808.57 803.64 794.42 787.17 784.90 782.42 781.25 779.65 777.59 778.90 781.12 783.18 786.74 788.61 797.80 822.22 838.18 833.04 832.42 858.02 898.68 903.74 914.21 936.79 958.61 961.06 931.10 948.05 968.82 973.55 977.10 980.32 971.60 952.27 950.27 965.75 983.98 999.56 1024.08 1031.23 1013.45 999.12 997.25 995.48 994.78 996.03 1002.11 1012.97 1028.09 1040.51 1050.76 1048.75 -9999 -9999 -9999 -9999 -9999 -9999 -9999 -9999 -9999 -9999 -9999 -9999 -9999 -9999 -9999 -9999 -9999 -9999 -9999 -9999 -9999 -9999 -9999 -9999 -9999 -9999 -9999 -9999 -9999 -9999 -9999 -9999
1305.11 1332.24 1307.62 1127.42 1030.48 1010.61 988.21 976.21 1208.69 1230.80 987.36 1250.99 1359.83 1374.80 1378.38 1348.88 1375.19 1425.14 1465.86 1496.32 1518.65 1540.88 1558.39 1569.70 1592.48 1615.57 1633.99 1650.06 1662.22 1647.58 1679.71 1600.73 1574.60 1556.50 1499.10 1511.95 1581.01 1592.67 1533.20 1531.11 1549.16 1532.75 1527.43 1552.89 1578.96 1560.99 1532.07 1510.55 1488.55 1471.49 1470.86 1474.38 1464.23 1452.04 1437.41 1420.42 1410.60 1414.77 1406.86 1388.66 1370.32 1354.07 1340.31 1339.23 1343.49 1343.75 1357.87 1357.62 1331.65 1316.22 1315.63 1329.05 1346.76 1337.49 1309.93 1299.00 1306.88 1311.89 1299.73 1283.90 1268.81 1257.97 1247.13 1231.57 1217.79 1211.64 1209.71 1220.13 1209.75 1211.40 1229.90 1258.46 1258.60 1237.04 1234.75 1232.88 1225.65 1201.04 1184.10 1176.84 1169.37 1148.37 1128.03 1088.44 1124.36 1137.18 1149.58 1174.94 1279.74 1317.66 1307.34 1298.12 1287.38 1275.67 1263.13 1238.67 1209.35 1212.40 1219.14 1201.28 1203.07 1191.56 1161.39 1124.66 1087.76 1016.92 1047.23 1001.74 908.96 933.71 1021.50 1099.87 995.04 929.37 881.96 894.27 889.36 832.95 728.22 881.40 887.61 840.00 861.10 895.56 974.82 996.18 961.72 854.64 848.39 876.34 944.39 997.79 997.23 991.43 983.32 974.77 969.84 969.16 957.64 936.93 930.54 908.48 881.13 887.29 876.09 870.71 870.68 874.24 885.07 886.11 883.20 906.91 903.56 893.29 798.16 740.57 645.01 707.64 750.64 766.18 758.18 782.68 811.14 808.08 867.69 919.62 926.07 895.64 870.91 852.07 843.29 836.01 824.42 822.28 830.45 851.76 875.75 891.75 885.88 898.16 911.81 905.75 900.31 883.16 855.23 841.69 831.00 783.46 785.58 844.96 842.34 821.32 845.04 866.25 866.90 847.09 824.17 791.77 779.01 774.01 774.95 806.95 822.40 829.26 832.74 741.59 680.22 724.28 744.22 777.01 820.34 843.94 850.70 836.11 839.74 854.42 848.87 842.92 834.25 840.29 855.16 861.04 860.48 857.99 856.23 846.88 839.95 798.07 716.24 699.08 693.30 695.03 716.26 776.50 819.99 839.73 810.43 817.23 806.31 792.49 778.79 755.21 751.14 763.42 768.06 771.11 776.26 784.02 802.92 811.09 826.04 840.01 849.79 854.44 889.22 904.82 911.91 921.96 925.35 929.54 938.28 945.76 948.34 949.77 947.86 947.44 948.15 948.88 950.25 951.90 955.24 960.34 965.63 969.98 973.29 976.73 982.07 987.93 993.33 997.56 1000.57 1002.47 1004.85 1008.67 1013.52 1019.00 1024.40 1027.87 1033.80 1041.15 1046.22 1050.14 1052.56 1060.57 1070.35 1072.54 1074.58 1079.06 1085.80 1095.25 1100.26 1087.59 1084.24 1076.68 1054.65 1034.90 1013.30 1010.62 1015.05 1008.63 1007.24 1005.58 999.38 987.73 982.33 960.95 943.17 935.69 925.97 911.18 905.92 898.43 890.89 881.73 872.62 866.16 858.46 850.05 842.93 837.67 833.40 828.86 825.81 821.51 815.74 810.32 807.52 813.70 826.03 841.30 847.05 836.24 830.67 832.85 823.65 820.40 803.19 787.34 781.80 780.96 779.15 776.77 777.03 779.38 782.18 784.56 793.79 814.59 845.55 881.61 876.44 864.05 842.55 877.58 900.75 890.97 904.15 925.89 947.02 950.49 953.26 971.27 994.16 1002.74 996.28 981.43 965.57 957.62 963.87 980.08 1003.11 1018.90 1029.65 1017.24 1006.53 1008.17 1008.70 1003.80 1002.65 1005.34 1012.66 1021.59 1031.34 1039.14 -9999 -9999 -9999 -9999 -9999 -9999 -9999 -9999 -9999 -9999 -9999 -9999 -9999 -9999 -9999 -9999 -9999 -9999 -9999 -9999 -9999 -9999 -9999 -9999 -9999 -9999 -9999 -9999 -9999 -9999 -9999 -9999 -9999
1299.16 1237.35 1158.24 988.74 1099.62 1208.64 1237.27 1042.61 987.80 983.32 1001.43 1072.31 1245.56 1340.13 1378.51 1385.71 1368.77 1401.02 1448.59 1493.26 1530.61 1538.95 1571.82 1609.69 1641.21 1659.75 1682.50 1688.14 1694.61 1702.88 1760.88 1702.46 1617.43 1566.75 1536.98 1526.71 1599.93 1590.16 1608.99 1634.80 1596.15 1563.78 1556.14 1543.51 1552.08 1546.39 1527.29 1502.74 1479.23 1459.71 1453.84 1463.37 1452.42 1436.24 1425.39 1412.30 1396.16 1397.82 1407.56 1397.01 1375.97 1355.20 1337.86 1327.34 1325.34 1329.63 1346.44 1348.82 1333.92 1311.02 1304.61 1318.09 1320.26 1311.53 1297.91 1288.81 1290.56 1287.37 1294.45 1291.51 1274.74 1269.33 1247.31 1225.94 1209.57 1202.76 1201.25 1205.36 1199.24 1205.56 1217.52 1252.99 1258.92 1222.79 1209.52 1196.64 1187.65 1179.76 1174.63 1164.28 1160.35 1153.89 1132.41 1088.38 1101.24 1119.17 1121.75 1159.30 1279.41 1315.88 1304.78 1296.55 1286.59 1276.38 1267.58 1253.25 1242.75 1245.68 1241.35 1227.16 1211.07 1199.05 1177.01 1136.04 1088.77 1045.41 965.71 930.64 1057.02 1088.54 1131.85 1085.21 941.46 919.70 935.30 890.72 833.77 713.20 847.72 869.81 805.03 843.78 860.40 885.01 976.37 991.89 987.70 885.85 854.65 963.80 977.77 984.41 989.41 985.91 972.69 965.43 961.54 964.79 956.72 891.02 862.26 908.58 871.24 855.81 858.18 859.42 860.34 873.45 889.90 895.60 897.46 922.98 939.85 900.22 772.01 709.98 634.25 735.23 753.75 735.26 720.06 739.34 767.84 809.67 823.06 887.84 915.45 898.79 875.58 853.11 834.07 822.55 816.44 815.88 822.17 833.40 857.14 876.03 875.74 886.23 907.69 908.03 902.00 885.82 869.15 838.42 830.43 826.31 766.00 788.20 809.97 810.76 847.13 861.74 862.65 842.03 819.59 795.18 768.43 755.67 787.86 805.97 805.52 789.28 784.62 714.93 695.56 767.29 815.38 828.10 832.33 846.78 845.01 825.61 831.85 844.49 833.99 827.75 826.48 834.82 844.09 853.03 853.87 850.69 843.91 829.22 815.88 796.59 708.89 693.47 692.45 698.04 703.75 760.68 824.03 837.35 834.72 837.26 839.99 815.20 813.20 796.98 763.82 760.20 763.26 768.56 774.83 786.88 819.08 839.96 833.74 843.65 862.56 863.71 868.42 881.31 896.84 906.56 914.44 925.64 937.55 936.38 951.96 953.20 950.19 948.65 947.39 946.46 946.61 947.52 950.64 956.11 961.84 966.52 970.03 973.71 979.38 985.81 991.17 994.71 996.85 998.36 1001.35 1006.13 1010.07 1013.28 1017.71 1022.05 1027.42 1033.27 1037.98 1041.81 1046.81 1054.36 1062.86 1066.70 1072.10 1080.14 1089.32 1099.73 1102.17 1084.77 1075.83 1065.14 1051.67 1032.09 1024.74 1024.33 1018.10 1002.37 993.70 989.86 976.58 963.98 955.52 950.40 949.69 947.94 939.62 916.90 912.12 908.89 901.38 895.30 884.47 877.96 877.72 870.60 860.25 847.98 847.84 838.05 823.56 818.04 814.72 809.57 804.02 810.48 827.09 831.90 828.50 817.90 817.25 819.42 807.77 807.49 804.99 794.52 781.25 779.59 778.18 776.06 775.77 779.32 784.34 786.17 808.63 827.91 844.06 873.08 911.00 911.67 864.42 854.63 864.70 869.92 887.15 913.04 930.62 939.65 950.12 967.58 995.76 1024.05 1010.40 1002.17 980.08 973.83 968.48 977.36 993.46 1010.11 1009.15 1012.70 1017.49 1017.16 1018.27 1014.54 1011.04 1010.27 1015.84 1024.35 1032.05 1037.75 -9999 -9999 -9999 -9999 -9999 -9999 -9999 -9999 -9999 -9999 -9999 -9999 -9999 -9999 -9999 -9999 -9999 -9999 -9999 -9999 -9999 -9999 -9999 -9999 -9999 -9999 -9999 -9999 -9999 -9999 -9999 -9999 -9999
1227.55 1009.99 1058.63 1113.98 1202.60 1269.61 1280.80 1265.23 1210.60 1100.19 1271.35 1155.04 1238.75 1343.77 1363.04 1399.79 1423.03 1410.21 1418.87 1458.01 1487.88 1514.38 1554.95 1590.23 1614.94 1674.99 1732.86 1742.79 1745.86 1766.23 1802.00 1787.50 1684.13 1600.07 1583.58 1568.74 1618.76 1621.13 1732.08 1764.47 1620.61 1563.87 1538.02 1519.52 1515.20 1510.45 1504.36 1494.16 1478.23 1450.58 1440.12 1451.84 1449.05 1435.01 1418.86 1403.07 1388.90 1378.88 1383.51 1386.77 1377.49 1358.19 1340.26 1324.30 1311.83 1317.07 1335.27 1326.16 1311.23 1300.75 1293.73 1311.04 1313.19 1290.68 1280.83 1277.39 1274.86 1271.19 1274.86 1271.62 1256.14 1252.82 1235.32 1224.84 1221.63 1207.83 1199.37 1190.22 1187.04 1195.18 1205.44 1236.87 1254.18 1221.92 1211.48 1184.74 1166.86 1158.71 1163.57 1154.71 1144.70 1143.15 1136.70 1109.45 1062.55 1092.40 1105.69 1140.20 1251.10 1303.48 1303.72 1295.03 1285.97 1276.45 1267.13 1253.21 1232.29 1225.34 1234.11 1225.09 1194.90 1182.50 1162.98 1142.20 1104.44 1056.37 1005.40 1031.81 1089.65 1109.80 1141.49 1035.14 924.84 874.10 867.38 849.07 743.63 691.91 790.92 712.97 677.98 774.29 835.79 931.30 954.26 982.92 980.77 878.52 827.98 940.06 975.86 975.09 978.68 976.66 961.32 935.04 948.40 955.31 947.14 889.20 823.65 849.78 839.29 821.74 837.99 845.23 859.99 877.64 896.34 904.35 916.05 932.06 929.64 900.76 772.39 710.07 637.72 727.07 727.64 678.61 690.64 728.88 740.99 751.08 752.37 818.86 910.55 906.79 884.44 865.67 846.16 828.98 813.31 808.00 811.13 822.28 848.04 864.15 865.72 880.92 892.63 895.94 898.11 891.08 878.46 867.91 857.65 830.45 793.96 754.32 781.99 832.93 845.50 850.71 856.54 841.60 814.33 782.33 756.70 754.13 778.94 803.61 807.89 770.23 729.80 677.39 749.11 809.42 814.78 820.93 836.09 837.45 830.09 813.50 820.84 831.44 817.22 816.28 827.20 840.58 846.44 848.12 845.09 840.16 827.94 800.52 746.08 735.02 689.30 686.97 752.25 756.76 742.62 739.20 795.66 830.99 835.39 833.24 837.17 842.66 846.35 824.19 782.80 766.84 768.83 771.47 777.77 795.30 825.14 844.84 858.06 850.44 855.59 885.88 883.97 889.85 907.10 913.36 918.79 923.50 927.27 925.04 954.63 964.42 950.73 946.95 944.02 942.23 941.84 943.27 946.61 951.90 957.18 960.90 964.82 970.29 977.23 983.98 988.74 991.26 991.94 994.20 998.55 1003.03 1006.39 1009.11 1013.41 1020.98 1027.47 1033.84 1039.27 1045.96 1049.09 1051.70 1057.67 1065.32 1074.92 1086.73 1093.00 1097.49 1097.33 1079.16 1069.32 1057.24 1050.91 1048.69 1039.25 1025.66 1016.38 1006.29 993.88 985.83 978.65 973.64 979.19 981.52 983.89 985.68 949.85 931.08 922.64 919.80 918.81 921.50 924.13 934.64 936.35 936.47 920.26 900.32 879.05 869.76 834.67 814.01 810.83 807.47 802.38 800.39 816.87 831.36 822.68 805.76 802.85 799.69 794.49 788.48 780.84 780.04 778.62 777.80 775.94 774.75 776.87 782.51 788.96 796.89 803.05 823.64 867.17 889.43 909.70 912.42 883.48 879.88 870.58 878.42 879.40 894.18 908.06 926.63 942.94 956.02 983.90 1022.82 1022.99 1008.40 991.53 989.04 982.73 991.82 992.14 996.09 1009.14 1024.79 1028.21 1026.60 1026.35 1023.83 1020.50 1017.52 1018.83 1026.23 1034.13 1039.84 1044.41 -9999 -9999 -9999 -9999 -9999 -9999 -9999 -9999 -9999 -9999 -9999 -9999 -9999 -9999 -9999 -9999 -9999 -9999 -9999 -9999 -9999 -9999 -9999 -9999 -9999 -9999 -9999 -9999 -9999 -9999 -9999 -9999
1024.16 1044.64 1226.76 1271.96 1207.81 1258.32 1296.81 1299.27 1298.63 1289.45 1301.53 1261.24 1197.51 1279.91 1335.73 1385.78 1419.00 1439.14 1446.34 1469.18 1483.25 1520.22 1554.39 1577.60 1605.41 1644.33 1694.59 1753.48 1782.45 1867.20 1957.34 1970.63 1787.19 1673.40 1648.37 1659.34 1670.58 1659.39 1690.70 1680.92 1617.39 1575.14 1543.74 1517.88 1496.30 1482.92 1481.14 1476.82 1466.36 1445.55 1428.17 1435.53 1442.22 1430.49 1423.74 1417.87 1403.71 1378.98 1363.75 1365.45 1366.79 1360.33 1343.12 1324.98 1307.28 1306.42 1323.35 1317.19 1300.74 1287.84 1284.05 1302.01 1316.20 1286.82 1267.95 1259.68 1263.40 1257.02 1254.08 1253.41 1240.01 1231.37 1222.26 1215.45 1226.90 1225.74 1210.01 1195.47 1179.55 1177.47 1189.39 1202.36 1215.88 1194.89 1209.42 1207.84 1174.62 1143.15 1154.26 1156.53 1143.25 1127.99 1121.09 1113.46 1062.31 1092.71 1118.22 1130.65 1165.45 1224.05 1278.74 1293.79 1284.90 1276.57 1267.58 1257.88 1242.57 1207.47 1206.05 1225.30 1197.49 1168.38 1141.66 1107.22 1090.34 1102.07 1043.53 1040.98 1073.29 1099.81 1129.28 1109.95 994.25 911.97 881.88 885.81 833.38 772.75 767.13 842.47 806.29 709.01 873.83 878.46 853.58 940.83 893.75 836.31 818.28 929.09 968.35 941.09 964.64 973.25 962.91 934.13 906.75 939.62 923.08 909.42 874.97 837.34 779.26 759.95 815.91 847.02 864.46 884.97 903.06 918.43 933.84 935.42 912.56 903.66 803.17 727.52 651.41 675.12 649.05 672.91 697.83 693.90 712.37 745.38 771.67 848.30 919.74 917.21 889.85 873.29 858.76 833.60 810.06 799.25 799.88 818.27 842.18 844.43 859.20 884.31 870.27 881.70 893.51 887.83 878.65 868.35 860.40 857.57 841.19 756.82 802.23 838.03 836.21 836.27 842.14 836.84 809.74 784.52 754.69 742.73 768.10 794.18 812.63 821.05 790.79 676.52 720.89 803.98 789.79 802.89 825.48 819.91 810.94 807.32 803.78 809.41 803.88 817.76 834.14 841.30 841.33 836.73 829.64 825.95 802.09 718.97 688.62 680.94 680.41 717.51 788.52 813.24 808.72 764.87 764.62 817.03 819.65 816.27 823.26 838.04 843.22 811.05 781.74 770.62 772.22 776.99 782.87 798.37 821.09 830.16 833.51 852.13 876.15 892.87 890.00 893.30 909.46 910.96 910.39 911.75 914.21 915.64 926.85 950.87 949.29 944.83 939.58 937.28 937.14 938.96 942.08 946.61 951.10 955.65 961.46 968.15 975.08 980.92 984.25 986.00 987.97 992.00 996.29 999.53 1002.47 1005.93 1011.86 1022.35 1031.80 1040.11 1045.68 1052.91 1056.21 1055.58 1059.63 1068.39 1079.95 1090.70 1093.08 1094.06 1095.62 1087.02 1076.05 1067.18 1083.81 1079.54 1051.52 1035.88 1038.16 1022.79 1009.27 997.52 986.58 983.48 990.38 997.50 1003.78 998.38 972.38 949.51 946.03 956.68 969.01 966.09 1001.03 1025.12 1012.75 1012.79 996.95 947.82 931.56 914.16 847.84 819.37 812.66 805.77 800.85 797.24 800.84 818.80 815.64 797.24 797.42 800.01 808.37 796.40 781.52 774.12 775.94 775.19 773.93 772.80 776.02 783.33 793.46 804.17 812.14 823.90 857.85 911.71 931.18 946.05 935.22 917.28 902.34 911.75 899.86 890.93 903.58 922.74 939.02 959.32 981.09 992.54 1022.48 1024.33 1012.19 1003.67 995.07 1006.70 1009.39 1005.05 1012.75 1032.51 1037.37 1036.60 1036.15 1033.52 1030.07 1026.81 1024.59 1028.33 1035.61 1041.53 1047.46 1053.54 1060.34 1068.66 -9999 -9999 -9999 -9999 -9999 -9999 -9999 -9999 -9999 -9999 -9999 -9999 -9999 -9999 -9999 -9999 -9999 -9999 -9999 -9999 -9999 -9999 -9999 -9999 -9999 -9999 -9999 -9999 -9999
1234.52 1229.71 1222.54 1278.23 1227.54 1244.16 1299.69 1316.12 1309.02 1315.55 1322.64 1294.49 1245.51 1259.72 1283.29 1332.66 1362.60 1393.06 1448.42 1493.47 1523.78 1535.90 1548.11 1570.98 1601.27 1640.40 1715.27 1796.70 1848.04 1900.96 2055.13 2147.43 1953.79 1864.79 1815.16 1756.06 1731.26 1698.96 1673.64 1639.72 1608.02 1572.50 1547.46 1523.76 1499.14 1481.27 1466.64 1457.40 1449.27 1439.32 1423.39 1411.57 1421.64 1423.20 1412.30 1412.54 1401.06 1385.87 1360.28 1346.85 1343.83 1345.73 1338.08 1321.37 1306.06 1295.53 1306.24 1308.46 1294.80 1280.72 1276.90 1293.44 1309.34 1285.70 1266.01 1249.98 1253.44 1246.34 1238.69 1243.66 1236.76 1223.95 1212.03 1206.05 1210.19 1221.49 1213.83 1204.15 1189.52 1167.99 1166.51 1172.97 1174.91 1161.10 1163.92 1179.87 1162.63 1132.14 1131.25 1148.15 1148.85 1130.33 1109.01 1091.65 1054.04 1057.13 1107.76 1112.83 1114.74 1136.34 1237.60 1293.78 1282.42 1273.70 1267.19 1258.78 1240.23 1198.39 1164.73 1196.01 1217.87 1189.38 1150.10 1134.05 1155.26 1144.16 1067.50 1031.74 1063.64 1082.53 1110.60 1132.46 1115.89 1014.18 964.35 926.58 881.43 953.05 902.58 843.44 704.73 824.09 852.11 784.77 832.99 858.17 838.83 805.44 806.80 924.56 942.62 892.88 956.63 971.30 969.33 955.37 881.30 875.41 871.12 840.46 822.21 847.95 835.83 736.91 802.10 851.45 867.05 894.61 916.21 932.69 936.97 935.46 878.95 814.63 794.71 696.40 634.20 665.36 750.86 744.68 735.68 738.51 721.29 764.77 853.55 908.70 919.48 906.58 893.44 878.02 857.82 827.20 803.20 793.33 793.61 809.14 824.75 833.80 854.06 869.06 853.58 874.19 884.85 879.18 878.60 875.63 867.94 855.26 843.10 772.04 784.79 814.39 809.86 819.60 833.17 834.17 813.25 792.35 767.29 736.82 755.83 779.07 796.40 808.46 802.70 701.04 699.83 765.21 760.15 804.45 824.36 814.70 791.79 786.24 784.14 799.47 810.00 818.61 831.34 837.06 831.16 824.23 821.86 810.85 744.92 679.65 674.92 686.67 720.20 782.85 803.51 819.26 824.73 817.49 774.03 784.90 800.13 806.33 819.11 833.11 833.35 806.17 782.59 773.74 772.44 779.38 786.30 794.65 806.01 810.84 824.73 838.59 854.35 866.26 864.76 881.22 900.75 905.25 901.29 903.75 906.41 908.38 912.56 919.53 933.85 942.47 935.05 933.03 933.02 934.69 937.97 942.97 948.06 953.29 960.17 967.04 972.76 976.30 978.31 981.53 986.11 989.62 992.04 994.98 997.56 1002.80 1012.40 1021.84 1032.04 1040.88 1047.68 1055.96 1060.16 1058.96 1061.92 1069.58 1080.72 1086.69 1087.73 1090.04 1092.40 1094.75 1086.24 1086.39 1094.97 1084.57 1057.48 1066.52 1065.51 1037.57 1027.72 1007.74 999.83 993.05 993.06 1006.22 1004.69 992.97 975.73 976.58 982.19 977.04 996.17 986.30 1011.11 1037.71 1056.70 1024.68 987.76 995.35 985.26 886.85 834.64 826.78 817.61 807.49 799.32 794.25 798.02 791.56 797.09 792.45 784.04 783.42 800.10 794.21 781.74 775.00 773.96 772.26 771.24 771.46 773.76 779.13 795.55 819.45 820.53 825.60 848.25 877.26 917.24 933.24 937.52 939.54 950.87 961.08 930.47 911.90 909.21 919.60 935.78 960.10 989.11 999.02 1010.19 1029.68 1037.48 1030.78 1011.61 1018.49 1031.27 1026.62 1026.37 1036.11 1050.02 1046.96 1046.07 1043.14 1039.15 1036.51 1033.18 1032.15 1037.31 1043.74 1049.98 1056.37 1062.79 1069.51 -9999 -9999 -9999 -9999 -9999 -9999 -9999 -9999 -9999 -9999 -9999 -9999 -9999 -9999 -9999 -9999 -9999 -9999 -9999 -9999 -9999 -9999 -9999 -9999 -9999 -9999 -9999 -9999 -9999
1316.77 1264.25 1274.52 1289.26 1255.77 1253.04 1310.23 1338.52 1340.06 1339.09 1342.92 1297.00 1284.92 1329.81 1332.68 1304.66 1331.91 1383.07 1419.81 1470.57 1519.60 1563.00 1599.06 1616.44 1654.90 1713.44 1817.38 1964.42 1932.21 2037.35 2093.12 2000.78 1932.34 2007.00 1863.98 1738.89 1718.18 1697.36 1660.78 1632.36 1611.01 1572.39 1539.98 1519.29 1502.96 1487.29 1469.28 1450.81 1436.73 1428.06 1421.23 1402.70 1394.10 1407.20 1401.86 1393.25 1387.19 1369.77 1354.56 1341.01 1332.03 1329.35 1331.47 1319.09 1301.34 1288.26 1294.57 1296.98 1282.40 1271.38 1272.31 1290.17 1305.99 1286.87 1264.87 1244.41 1231.53 1223.67 1227.83 1231.98 1238.19 1224.61 1211.51 1201.88 1200.06 1206.66 1201.65 1191.56 1189.40 1175.78 1158.17 1150.21 1150.71 1139.10 1137.20 1153.83 1143.49 1132.31 1115.94 1127.36 1142.52 1126.83 1105.85 1089.78 1072.42 1044.65 1063.72 1080.26 1087.56 1111.01 1187.55 1254.00 1282.75 1241.76 1222.03 1242.65 1214.63 1226.14 1166.89 1129.56 1185.05 1207.81 1174.41 1168.08 1138.13 1116.09 1063.27 1024.75 1048.67 1084.34 1106.81 1128.88 1138.60 1122.96 1016.56 912.93 950.44 961.25 892.18 864.87 681.49 760.83 718.58 659.48 775.12 852.17 821.69 802.66 789.68 876.51 934.26 839.89 917.93 967.11 960.82 957.16 928.86 863.86 815.93 801.70 768.43 762.99 795.36 771.45 718.76 812.82 857.76 878.54 887.41 935.50 935.35 930.51 868.14 746.51 716.73 653.37 683.84 795.82 873.67 866.53 852.85 777.17 759.42 876.03 895.57 915.31 914.26 896.06 887.64 881.40 862.96 824.73 798.74 789.48 787.66 792.41 804.13 820.70 835.61 841.30 839.65 852.52 865.03 855.10 862.14 864.34 853.85 842.08 836.85 817.76 747.04 763.63 804.91 821.48 830.87 835.87 823.66 794.95 769.12 742.29 731.01 757.05 773.61 790.57 773.19 732.57 663.08 718.08 772.27 798.43 813.49 812.87 777.23 751.52 788.35 813.03 817.35 810.29 823.88 834.02 819.63 810.66 808.80 785.40 702.20 670.26 681.04 719.89 784.46 798.81 810.69 818.92 823.00 817.15 793.61 789.33 815.01 819.23 827.77 838.11 838.99 815.87 789.64 778.43 773.57 781.20 786.79 791.21 807.05 816.39 819.54 824.10 830.60 839.13 853.59 882.82 878.70 888.68 888.46 895.76 897.76 903.07 911.08 925.05 951.95 938.84 930.65 928.64 928.89 931.14 935.21 940.81 948.25 954.33 960.38 965.58 968.78 970.42 973.97 978.36 982.90 984.14 985.68 989.44 994.57 1002.09 1011.50 1021.21 1030.79 1039.92 1048.06 1059.82 1062.34 1059.40 1062.26 1068.94 1076.56 1080.70 1082.73 1085.10 1088.76 1093.40 1093.64 1102.50 1100.72 1084.71 1064.95 1086.87 1085.85 1061.92 1031.95 1017.89 1010.53 1006.34 1001.95 1008.03 1008.31 994.06 982.09 992.70 997.75 1000.07 1002.97 1011.21 998.01 1021.87 1024.98 1032.31 1025.20 992.97 941.17 871.89 841.91 833.62 822.31 811.08 802.10 793.03 793.43 785.72 779.01 779.10 777.30 772.19 773.70 773.82 773.91 769.48 769.39 769.24 768.80 770.87 788.52 792.53 798.78 825.58 838.72 827.24 839.61 865.49 876.20 885.23 900.77 920.87 928.15 961.07 959.25 953.59 938.92 926.13 927.15 950.99 978.88 1009.37 1016.49 1015.55 1025.30 1029.21 1026.88 1033.51 1034.67 1039.64 1046.00 1047.32 1060.21 1060.59 1055.78 1051.73 1047.92 1045.36 1041.42 1037.60 1039.86 1045.92 1051.94 1057.62 1064.14 1071.20 1076.48 -9999 -9999 -9999 -9999 -9999 -9999 -9999 -9999 -9999 -9999 -9999 -9999 -9999 -9999 -9999 -9999 -9999 -9999 -9999 -9999 -9999 -9999 -9999 -9999 -9999 -9999 -9999 -9999
1330.91 1288.30 1274.47 1308.55 1293.54 1266.98 1321.43 1361.25 1375.86 1385.68 1365.26 1321.75 1300.71 1348.65 1383.71 1344.81 1339.39 1382.34 1410.60 1445.72 1484.96 1530.92 1568.51 1599.69 1655.93 1825.61 2007.44 2020.34 2019.21 2068.33 1946.24 1963.14 1881.75 1866.68 1833.11 1766.68 1697.72 1666.64 1640.31 1614.64 1590.62 1571.23 1545.77 1523.59 1506.38 1488.21 1470.33 1454.04 1438.02 1420.90 1407.60 1397.67 1383.28 1377.41 1389.12 1387.21 1369.90 1356.89 1344.61 1334.23 1324.79 1316.79 1325.01 1320.19 1304.60 1288.68 1278.81 1289.72 1277.43 1260.33 1268.85 1291.55 1291.81 1268.06 1257.66 1240.85 1229.16 1215.84 1213.23 1214.77 1223.12 1229.14 1216.36 1201.21 1190.98 1189.88 1185.88 1179.77 1178.00 1180.90 1171.57 1156.13 1140.16 1127.78 1121.36 1124.06 1116.85 1119.78 1106.50 1114.11 1129.57 1132.07 1120.58 1115.58 1106.61 1082.77 1029.95 1050.33 1066.54 1085.72 1125.45 1250.38 1257.78 1219.56 1160.46 1192.88 1159.08 1199.86 1221.89 1134.81 1104.94 1176.10 1187.25 1139.56 1112.27 1065.78 1037.65 1019.44 1033.23 1061.98 1087.28 1122.12 1130.63 1130.29 1110.17 1059.43 1010.32 905.02 892.21 854.56 792.77 768.12 804.44 785.36 711.68 816.10 807.52 766.01 813.04 937.35 892.36 797.12 884.83 961.95 933.46 923.58 940.73 921.80 908.79 903.16 859.15 802.88 776.71 723.27 694.89 683.33 742.98 760.72 815.61 907.41 933.15 923.26 855.56 802.19 735.98 642.51 692.46 789.00 854.43 894.56 891.81 850.13 871.54 916.50 914.06 914.26 904.64 890.75 878.82 873.09 853.34 820.79 808.66 789.15 777.80 782.63 793.78 800.33 816.03 818.48 819.23 831.17 843.88 836.21 845.19 849.60 838.39 829.37 820.44 794.24 737.75 782.92 805.54 815.14 823.86 837.41 831.82 804.90 785.17 768.95 739.58 721.16 753.91 768.44 716.96 655.71 707.95 786.36 787.87 792.83 797.69 803.98 783.19 746.23 787.37 797.29 804.02 787.81 807.73 820.16 814.26 789.95 751.95 705.12 668.65 673.86 746.54 766.91 762.17 780.17 802.23 814.93 822.50 823.96 812.38 794.45 812.93 826.19 837.10 845.73 843.74 824.86 797.12 783.07 776.29 783.29 789.66 791.95 796.87 815.49 826.94 838.07 838.89 839.77 842.63 854.11 858.96 867.41 873.30 884.03 890.21 900.22 908.14 933.48 941.63 932.28 926.82 924.10 924.59 928.13 932.79 938.79 947.41 955.65 959.01 960.21 962.35 965.01 968.30 971.65 975.09 978.25 982.72 988.98 996.02 1004.12 1011.93 1020.80 1030.36 1039.07 1047.85 1060.62 1062.06 1058.35 1061.17 1066.48 1071.69 1075.70 1078.77 1080.85 1085.39 1090.48 1095.85 1099.70 1097.21 1088.51 1077.25 1091.76 1094.80 1068.72 1037.49 1029.00 1026.41 1021.94 1011.73 1016.67 1012.28 997.18 987.39 997.47 1017.33 1031.43 1031.69 1001.37 984.28 1008.00 985.17 971.40 972.73 919.19 878.27 857.74 849.47 838.96 826.80 815.41 805.24 796.68 788.53 783.42 776.93 772.37 770.06 767.32 763.89 762.82 763.47 765.50 767.50 766.39 766.84 772.31 803.34 840.46 837.18 839.44 870.10 854.46 836.83 844.28 865.43 875.48 905.66 904.36 895.09 940.51 977.41 974.55 972.19 957.07 936.58 941.95 962.50 991.17 996.83 1015.06 1019.17 1022.83 1032.83 1032.78 1026.96 1032.24 1056.42 1064.78 1070.79 1073.97 1065.82 1060.31 1056.36 1052.61 1047.85 1043.08 1042.65 1047.50 1053.67 1058.97 1064.91 1072.43 1078.40 1084.20 1085.96 -9999 -9999 -9999 -9999 -9999 -9999 -9999 -9999 -9999 -9999 -9999 -9999 -9999 -9999 -9999 -9999 -9999 -9999 -9999 -9999 -9999 -9999 -9999 -9999 -9999 -9999
1335.47 1309.04 1298.77 1310.36 1337.35 1302.32 1299.95 1357.17 1398.11 1415.21 1367.08 1329.05 1341.65 1357.63 1395.82 1378.53 1348.30 1378.14 1409.26 1458.81 1499.17 1528.53 1570.08 1611.78 1642.73 1721.26 1813.82 1825.09 1979.45 1989.08 1874.34 1937.97 1923.77 1779.50 1755.20 1766.70 1716.32 1666.61 1633.18 1608.38 1585.82 1564.91 1544.90 1526.61 1508.74 1489.30 1469.33 1451.45 1435.68 1420.08 1404.00 1385.69 1379.86 1366.67 1364.61 1379.12 1378.38 1371.47 1350.16 1333.66 1318.79 1307.50 1311.10 1314.41 1297.78 1282.82 1268.45 1273.65 1264.26 1251.23 1261.15 1280.94 1275.87 1255.93 1241.11 1228.96 1223.50 1209.93 1202.26 1204.37 1209.31 1222.36 1219.25 1203.18 1188.81 1177.11 1170.33 1164.92 1163.90 1166.72 1171.98 1168.21 1155.02 1142.59 1122.85 1105.10 1102.77 1101.28 1097.28 1113.49 1109.61 1120.61 1126.63 1113.70 1097.03 1090.97 1040.58 1020.29 1061.41 1078.78 1151.48 1239.36 1232.83 1180.61 1134.38 1114.64 1108.06 1138.98 1172.62 1178.65 1085.20 1107.89 1197.65 1189.43 1144.19 1070.97 1036.02 1012.85 1020.27 1036.50 1081.32 1098.25 1103.01 1118.66 1126.57 1125.11 1062.87 963.71 890.01 828.89 915.58 963.04 955.07 836.91 666.72 685.88 736.74 742.14 808.40 860.29 814.53 788.58 902.85 930.20 918.29 838.04 917.98 924.42 932.38 931.47 919.36 892.37 859.34 826.60 825.64 727.34 648.73 729.29 778.61 904.18 926.26 921.43 820.34 725.40 714.33 646.69 639.67 718.63 739.75 847.17 892.57 899.98 906.40 905.57 900.69 907.47 903.02 885.86 871.13 855.42 832.90 808.81 799.57 786.14 773.74 773.13 776.55 786.02 802.47 805.03 801.05 818.83 823.00 822.15 827.35 835.38 836.28 829.30 814.98 781.40 727.11 761.21 804.21 817.10 822.46 833.80 836.53 819.43 803.39 786.34 764.75 719.13 698.66 692.04 667.72 696.06 778.98 767.59 773.09 778.97 781.43 786.04 748.43 722.96 764.08 791.45 793.82 767.86 780.32 793.08 789.74 776.90 688.19 665.92 702.26 693.62 748.12 797.40 794.75 788.97 798.01 809.82 817.12 825.40 818.95 802.66 806.74 822.54 834.81 846.10 845.43 828.92 803.37 787.88 780.62 780.79 786.48 792.88 794.36 803.70 816.98 837.06 857.63 860.38 856.38 861.19 877.41 884.60 879.98 883.78 892.70 899.83 905.89 932.73 933.14 927.82 922.94 919.50 920.30 924.28 929.70 937.52 945.90 951.16 953.16 953.88 956.32 959.53 962.37 966.93 972.17 977.77 984.51 992.06 999.17 1006.31 1013.16 1021.59 1030.60 1038.30 1048.34 1057.81 1058.20 1057.10 1059.78 1063.56 1067.57 1071.77 1074.69 1077.96 1082.84 1089.65 1098.41 1099.06 1094.34 1090.37 1087.83 1095.35 1097.04 1065.92 1052.81 1052.27 1040.43 1031.35 1020.52 1020.96 1019.89 1007.10 1003.60 997.73 1017.51 1016.12 1009.65 1002.19 966.77 969.57 999.13 936.75 894.95 883.84 886.74 875.61 854.89 836.76 826.74 817.01 807.33 798.06 788.87 781.16 774.45 768.80 765.51 762.78 761.15 760.90 761.75 764.20 764.24 765.18 767.48 774.85 792.29 821.77 858.47 873.26 888.21 878.12 852.46 845.69 875.20 896.06 909.17 935.15 917.84 921.53 969.37 987.91 998.23 967.36 963.75 947.43 957.38 970.57 987.04 1013.79 1020.42 1030.15 1029.09 1018.13 1009.64 1018.72 1041.34 1075.21 1087.58 1082.38 1074.58 1068.96 1064.07 1058.87 1053.50 1048.13 1044.21 1046.51 1053.30 1059.31 1065.39 1072.12 1078.47 1081.80 1081.95 1078.83 1080.85 -9999 -9999 -9999 -9999 -9999 -9999 -9999 -9999 -9999 -9999 -9999 -9999 -9999 -9999 -9999 -9999 -9999 -9999 -9999 -9999 -9999 -9999 -9999 -9999
1345.75 1337.30 1340.08 1316.30 1348.50 1354.43 1302.13 1329.04 1382.66 1418.12 1375.29 1362.35 1385.74 1374.75 1412.60 1407.25 1370.80 1401.62 1420.82 1454.72 1500.31 1554.53 1600.35 1708.09 1763.15 1715.56 1762.13 1894.38 1969.91 1925.92 1838.00 1808.88 1884.75 1807.59 1718.33 1699.37 1684.73 1645.67 1626.49 1602.82 1580.68 1561.28 1541.32 1522.47 1504.84 1487.43 1468.60 1449.54 1431.96 1415.16 1395.67 1379.15 1365.87 1358.35 1347.30 1351.80 1358.42 1361.68 1354.91 1336.56 1318.27 1303.34 1294.11 1299.90 1297.27 1275.83 1260.15 1256.26 1250.95 1242.09 1249.07 1268.52 1275.01 1255.43 1236.52 1218.46 1208.50 1198.47 1193.18 1193.39 1195.21 1202.63 1205.38 1201.32 1196.19 1183.47 1168.46 1156.22 1151.62 1153.53 1160.19 1169.30 1156.77 1142.19 1130.83 1117.73 1104.88 1086.36 1080.54 1103.99 1093.82 1116.02 1122.20 1111.67 1097.02 1072.02 1044.73 1009.52 1057.52 1080.73 1162.15 1197.56 1144.50 1202.19 1149.75 1087.67 1064.87 1074.06 1083.49 1093.43 1056.86 1084.19 1194.54 1182.23 1112.41 1058.27 1027.97 1003.33 1011.29 1034.19 1090.60 1076.82 1063.93 1082.83 1111.59 1123.15 1060.61 926.20 877.59 915.82 982.66 972.83 861.66 790.67 816.25 773.34 713.19 681.80 731.00 810.13 752.99 838.88 927.35 832.28 845.14 799.02 803.97 851.33 928.12 933.18 919.32 894.20 865.01 846.90 836.43 800.03 648.14 656.45 759.35 889.83 899.50 850.94 841.22 727.07 637.91 626.79 710.23 765.96 787.97 863.35 885.52 885.36 888.64 888.40 888.97 897.21 892.34 872.98 862.17 846.46 822.53 803.20 791.28 784.22 773.19 765.43 770.35 781.05 795.09 791.35 796.71 804.10 803.00 806.83 812.93 816.43 829.13 830.72 817.82 792.48 735.06 769.44 808.02 807.29 812.12 824.67 829.24 818.48 811.40 793.77 774.47 753.48 736.68 725.06 640.66 725.22 780.55 733.95 741.80 747.29 772.51 775.40 697.40 741.99 789.20 765.46 787.60 762.47 711.63 722.90 695.47 683.28 666.94 746.24 793.03 758.04 704.15 747.41 778.82 787.49 798.81 802.39 812.19 822.11 825.80 814.64 809.12 818.49 829.09 839.75 841.88 833.73 815.14 795.36 785.47 782.99 785.19 789.61 795.46 799.83 807.22 821.43 833.41 847.54 861.37 867.44 885.58 892.49 891.39 887.76 892.01 899.53 905.97 920.60 930.48 920.54 917.83 914.91 916.47 920.90 926.05 933.75 941.34 943.79 946.52 948.86 951.91 956.09 961.03 967.90 975.28 981.48 987.92 993.94 999.80 1006.31 1014.18 1022.51 1030.29 1037.82 1047.43 1054.72 1055.43 1055.38 1057.51 1060.84 1064.72 1067.97 1071.26 1075.45 1081.30 1089.08 1099.39 1100.43 1093.70 1088.84 1088.81 1094.13 1097.65 1079.95 1081.90 1074.36 1053.67 1040.33 1030.91 1026.46 1027.56 1021.16 1015.93 1008.06 1013.01 1014.90 998.96 986.38 987.23 943.64 930.29 920.19 935.59 922.81 958.39 951.02 916.83 846.53 824.96 820.27 809.28 796.25 788.22 780.01 773.03 767.84 763.04 759.87 758.69 759.07 760.19 761.98 761.61 763.50 766.68 774.89 795.63 817.44 837.02 871.95 901.57 893.19 873.31 862.08 857.98 877.66 889.82 903.23 926.38 925.42 947.28 982.87 990.85 977.22 996.00 972.80 964.25 982.08 991.38 992.62 999.40 1003.65 1001.78 1002.94 996.93 1011.62 1035.33 1070.87 1095.82 1090.61 1082.76 1076.26 1070.38 1063.84 1058.52 1052.48 1043.19 1039.86 1048.71 1056.13 1063.24 1069.64 1076.12 1072.28 1060.03 1062.43 1066.48 1075.57 -9999 -9999 -9999 -9999 -9999 -9999 -9999 -9999 -9999 -9999 -9999 -9999 -9999 -9999 -9999 -9999 -9999 -9999 -9999 -9999 -9999 -9999 -9999
1361.55 1354.08 1367.28 1342.45 1353.66 1378.98 1346.20 1335.23 1348.01 1410.79 1404.53 1405.76 1433.80 1415.06 1421.69 1418.79 1391.88 1442.46 1462.20 1483.78 1503.04 1553.50 1631.73 1739.19 1846.41 1818.43 1901.09 1958.20 1875.26 1844.54 1785.18 1750.13 1756.06 1742.23 1699.52 1674.06 1651.65 1626.63 1604.15 1584.72 1562.96 1547.67 1531.50 1514.07 1495.41 1478.08 1462.53 1446.66 1430.19 1416.03 1401.41 1385.00 1364.58 1346.75 1337.69 1331.09 1330.95 1334.86 1340.67 1323.63 1310.73 1304.52 1292.02 1281.51 1278.01 1269.61 1260.37 1244.48 1237.54 1234.30 1241.06 1257.20 1262.83 1251.87 1233.19 1214.63 1202.17 1194.52 1184.32 1182.32 1181.12 1187.52 1182.33 1186.91 1188.57 1185.88 1170.55 1154.55 1142.05 1141.99 1147.98 1154.31 1150.58 1135.83 1130.40 1123.04 1115.65 1110.37 1084.70 1059.54 1090.74 1112.10 1111.87 1092.93 1076.71 1063.54 1035.16 1003.20 1039.61 1046.21 1075.29 1107.76 1084.07 1117.71 1109.48 1097.44 1058.34 1036.21 1036.21 1037.11 1030.42 1059.34 1154.33 1159.24 1097.75 1046.97 1022.97 999.03 993.13 1017.85 1074.66 1083.55 1038.02 1056.40 1079.44 1103.08 1103.88 1054.47 1027.99 1063.71 1054.47 944.66 837.77 899.44 895.50 832.25 827.15 770.84 649.18 681.91 710.64 801.72 847.53 826.25 755.43 756.20 827.11 919.54 932.02 928.15 919.32 901.63 871.53 846.77 824.54 796.77 689.72 658.49 772.37 864.74 884.83 755.36 723.50 732.10 634.76 675.40 764.04 872.12 886.38 887.54 862.29 853.61 869.21 879.29 887.85 885.73 884.34 883.89 874.27 845.53 821.47 808.88 805.37 799.68 773.87 759.79 761.98 773.15 786.34 783.30 784.07 784.53 783.81 785.01 795.73 804.95 824.89 822.48 816.08 804.87 743.77 752.06 783.49 800.31 808.40 821.93 816.35 803.71 810.83 793.08 771.29 755.48 755.40 759.02 667.35 656.82 718.46 669.09 682.55 716.66 747.25 776.33 707.84 707.67 727.07 711.40 716.77 691.78 658.56 658.43 660.93 684.40 723.16 774.27 799.28 791.87 757.26 732.98 736.54 764.96 782.22 788.91 807.19 817.21 821.92 823.49 820.94 821.83 827.29 835.92 840.57 834.36 820.89 800.87 789.86 786.35 786.36 790.22 797.83 805.89 807.29 812.97 820.01 828.72 834.13 846.83 860.91 877.86 883.53 879.48 886.11 890.56 897.23 904.96 917.06 914.73 911.84 910.34 912.46 916.94 922.86 928.44 933.76 937.75 941.76 945.28 949.80 957.68 964.46 971.73 979.06 985.51 992.16 997.72 1002.87 1008.54 1015.76 1023.22 1030.88 1038.25 1045.22 1052.34 1055.07 1054.86 1055.96 1058.05 1060.91 1064.18 1068.21 1073.26 1079.41 1088.19 1094.62 1095.97 1092.17 1088.64 1087.57 1089.98 1092.83 1090.73 1091.11 1085.10 1070.11 1054.46 1040.70 1033.46 1034.98 1033.93 1026.65 1023.26 1012.37 999.65 995.98 1017.86 995.33 998.33 953.83 967.64 1006.09 975.65 982.87 1036.34 991.21 878.84 841.65 830.90 814.72 796.39 787.63 781.01 777.54 770.90 762.57 757.23 756.03 757.35 759.44 760.24 759.91 761.52 762.78 782.83 794.53 817.87 850.87 864.92 890.10 900.15 898.21 879.37 880.15 874.38 885.79 894.12 903.28 931.17 948.54 969.36 993.08 995.16 1007.77 1005.30 993.60 983.04 989.42 979.64 970.51 979.61 969.04 973.77 993.60 1014.83 1045.46 1059.59 1071.83 1087.58 1084.79 1073.83 1066.30 1062.83 1060.31 1054.94 1042.13 1031.01 1036.51 1045.01 1054.65 1063.88 1064.18 1066.62 1055.67 1041.93 1042.29 1059.51 1071.60 -9999 -9999 -9999 -9999 -9999 -9999 -9999 -9999 -9999 -9999 -9999 -9999 -9999 -9999 -9999 -9999 -9999 -9999 -9999 -9999 -9999 -9999
1381.24 1378.71 1384.11 1377.94 1374.13 1396.09 1376.63 1383.47 1373.92 1398.61 1440.76 1447.14 1486.35 1490.60 1472.18 1441.81 1410.71 1483.87 1530.49 1527.43 1555.85 1574.02 1622.03 1680.12 1756.67 1876.44 1968.79 1980.40 1919.62 1835.94 1763.75 1719.30 1707.74 1696.54 1672.83 1651.21 1640.60 1616.86 1596.46 1573.79 1553.87 1536.64 1520.36 1505.00 1490.21 1474.58 1454.44 1437.83 1423.39 1409.61 1396.88 1384.87 1372.69 1359.37 1341.40 1323.37 1312.51 1314.91 1323.94 1317.31 1301.90 1295.43 1295.50 1279.02 1263.62 1254.83 1248.92 1236.65 1230.50 1226.52 1235.15 1242.59 1253.80 1246.41 1229.90 1210.94 1199.24 1189.48 1176.17 1171.64 1173.55 1176.92 1166.43 1173.50 1176.94 1168.69 1160.79 1150.59 1134.87 1130.81 1139.19 1140.81 1138.85 1128.06 1116.90 1118.35 1103.08 1108.39 1109.38 1082.46 1054.39 1091.41 1105.21 1095.65 1079.04 1066.15 1063.71 1018.03 988.30 1012.20 1043.03 1072.91 1060.57 1055.83 1087.01 1133.28 1087.51 1038.40 1012.27 1006.68 1008.69 1016.30 1046.23 1088.81 1096.24 1039.28 1019.29 1004.64 980.69 1007.69 1038.68 1067.75 1022.94 1027.61 1045.93 1066.82 1101.54 1110.26 1109.27 1108.56 1077.66 993.73 969.49 980.72 916.16 881.84 810.03 778.42 756.24 737.23 666.68 765.41 786.07 814.32 737.50 762.29 827.63 869.71 927.52 921.28 907.42 866.25 847.61 847.05 835.45 738.06 640.20 644.83 769.93 859.99 898.12 836.83 708.77 665.23 632.22 657.25 762.20 871.10 881.01 827.94 798.59 833.93 876.84 889.34 886.89 866.76 875.22 909.42 891.29 848.89 828.66 824.24 814.98 796.33 767.15 753.91 758.93 774.99 797.30 793.87 772.10 763.80 769.15 764.68 771.85 794.14 813.76 812.33 803.26 801.61 768.31 733.76 795.06 795.07 798.06 814.02 807.32 790.46 797.77 791.97 771.89 746.41 731.33 740.32 704.60 617.66 615.70 618.55 644.42 639.02 684.74 718.01 667.11 657.74 642.98 646.88 672.74 714.09 731.10 717.07 685.57 762.28 784.34 786.83 797.53 797.58 786.99 774.85 759.94 750.06 770.15 787.59 799.85 809.16 816.82 825.38 828.32 829.78 832.56 837.91 840.22 831.96 816.19 801.45 794.80 791.39 789.78 793.22 798.59 812.22 816.33 813.48 818.85 828.73 831.65 833.75 841.58 854.63 865.44 869.13 876.03 882.00 889.53 897.22 902.31 907.07 906.52 906.67 909.30 913.48 919.06 924.24 928.29 932.66 937.31 942.52 948.67 958.24 967.71 975.14 982.07 988.96 996.44 1003.00 1008.15 1013.46 1019.72 1026.73 1034.40 1041.92 1047.10 1051.87 1054.23 1054.09 1053.88 1055.06 1056.31 1059.24 1064.53 1069.92 1076.25 1083.30 1087.64 1088.76 1088.97 1087.23 1085.96 1085.82 1086.86 1088.51 1087.86 1084.46 1080.39 1069.61 1053.18 1041.83 1040.21 1044.47 1032.24 1021.21 1011.05 996.08 1014.87 1015.14 1001.26 1022.35 966.06 951.92 1004.45 1019.36 1001.23 1026.72 981.86 893.75 863.39 847.82 820.00 803.60 794.84 787.39 790.68 788.95 766.44 758.18 754.79 756.03 757.78 757.72 757.08 757.87 760.01 787.89 819.16 811.83 838.71 856.24 871.23 895.25 911.16 910.13 899.27 894.73 899.13 900.94 904.05 924.44 954.18 953.53 963.40 992.66 1013.03 1016.87 999.84 968.71 988.18 978.58 952.99 949.57 954.23 971.61 997.77 1019.74 1046.32 1048.61 1045.45 1064.48 1071.47 1068.59 1056.99 1051.00 1051.98 1052.30 1041.79 1026.68 1024.01 1030.42 1040.30 1052.24 1050.94 1052.98 1058.45 1044.82 1029.39 1029.97 1048.18 1062.09 -9999 -9999 -9999 -9999 -9999 -9999 -9999 -9999 -9999 -9999 -9999 -9999 -9999 -9999 -9999 -9999 -9999 -9999 -9999 -9999 -9999
1409.33 1406.87 1413.93 1406.96 1391.82 1409.34 1410.12 1417.25 1402.96 1392.74 1439.33 1492.58 1545.48 1557.41 1503.07 1474.62 1433.31 1473.67 1521.94 1549.52 1587.90 1620.16 1659.39 1703.93 1734.46 1822.96 2053.64 2274.86 2229.53 1955.08 1803.11 1723.83 1683.10 1671.51 1653.00 1628.43 1615.57 1602.95 1586.59 1568.80 1548.72 1529.50 1512.38 1494.35 1479.89 1467.89 1454.15 1434.93 1419.01 1403.88 1391.20 1378.12 1364.45 1352.38 1340.49 1327.32 1311.91 1300.70 1303.05 1310.61 1302.43 1283.11 1276.69 1275.93 1268.30 1252.61 1238.53 1229.65 1222.85 1218.61 1220.47 1233.24 1243.69 1225.56 1213.80 1203.75 1200.94 1179.94 1168.36 1161.08 1163.31 1162.04 1154.09 1159.06 1162.56 1159.04 1151.75 1144.48 1122.59 1125.20 1134.67 1132.27 1127.71 1114.83 1088.90 1094.72 1085.22 1092.94 1082.54 1069.29 1044.45 1086.06 1088.55 1091.85 1077.86 1074.35 1066.79 1039.08 990.43 1005.15 1067.75 1033.14 1023.25 1038.93 1042.74 1076.16 1099.26 1062.00 1017.11 986.49 992.56 984.86 996.46 1034.94 1079.73 1039.04 1018.62 1009.33 977.88 995.12 1007.22 1021.97 998.94 995.77 1015.76 1059.82 1082.85 1101.86 1102.83 1100.67 1094.84 1074.72 1085.77 1044.43 919.73 841.49 800.24 862.18 841.77 842.73 690.66 650.19 670.70 672.06 646.60 710.61 740.35 832.02 918.92 915.77 846.11 775.84 739.48 741.45 774.48 750.73 596.82 621.99 721.52 819.56 873.70 808.91 684.30 594.54 591.51 655.30 763.77 797.08 743.90 785.96 866.97 881.62 884.19 895.34 897.44 858.19 882.05 916.69 890.52 856.11 847.96 834.28 817.92 791.72 764.49 749.96 755.54 771.31 804.55 807.91 783.93 762.83 753.60 745.48 753.51 772.84 792.09 807.38 799.65 774.92 737.90 722.57 763.90 782.70 792.79 809.41 804.71 782.39 777.23 784.44 774.93 760.34 728.64 665.02 629.73 616.63 646.55 683.67 716.63 711.72 642.28 636.02 637.91 639.12 666.25 710.12 748.68 781.79 782.86 766.41 729.41 717.21 755.27 776.87 787.95 792.93 792.79 789.30 782.79 753.96 764.64 783.76 790.31 803.82 809.84 817.90 819.94 826.16 834.63 845.82 847.09 830.17 817.34 805.33 801.91 799.19 795.75 797.43 801.85 810.87 828.01 820.10 821.48 842.61 848.68 834.98 846.52 866.39 877.23 879.74 883.03 888.16 894.18 901.38 902.09 903.32 903.06 903.80 906.75 910.88 916.45 919.63 923.15 927.80 933.46 941.76 949.70 956.42 965.49 975.12 984.27 992.57 1001.05 1007.92 1012.93 1018.49 1025.59 1033.26 1041.47 1047.97 1051.84 1053.66 1053.56 1052.34 1051.35 1051.62 1051.96 1053.77 1058.84 1066.54 1072.96 1076.96 1078.70 1080.50 1082.02 1083.26 1084.02 1083.03 1082.00 1082.99 1083.14 1080.43 1078.00 1071.10 1059.60 1048.37 1041.33 1045.92 1039.87 1024.26 1013.38 1007.31 1020.84 1024.32 1014.73 991.80 965.83 983.95 990.39 1014.90 1037.35 998.42 948.33 916.46 932.88 942.97 839.28 818.93 811.01 800.18 795.35 798.26 784.07 762.43 753.37 754.69 756.27 756.12 756.72 772.36 771.67 774.54 806.02 836.26 831.30 858.47 883.67 902.31 925.38 928.03 914.76 902.64 918.10 926.18 924.00 922.30 931.62 937.62 944.24 962.84 972.76 985.13 992.71 965.56 943.10 969.18 952.65 937.62 978.96 982.23 985.86 1003.40 1018.56 1027.94 1020.96 1044.96 1050.60 1066.10 1058.49 1043.94 1040.97 1040.49 1037.04 1026.95 1016.10 1018.89 1027.50 1032.71 1036.72 1041.90 1042.68 1041.80 1025.32 1018.74 1032.83 1047.40 1062.13 -9999 -9999 -9999 -9999 -9999 -9999 -9999 -9999 -9999 -9999 -9999 -9999 -9999 -9999 -9999 -9999 -9999 -9999 -9999 -9999
1431.82 1428.68 1437.03 1438.00 1422.81 1429.63 1454.24 1451.01 1429.64 1428.57 1426.95 1474.74 1514.81 1557.62 1545.98 1492.92 1476.68 1473.98 1484.45 1506.07 1537.09 1574.47 1617.39 1691.66 1786.46 1935.46 2128.38 2172.92 2187.89 2008.45 1835.50 1734.99 1682.68 1648.97 1632.90 1614.68 1593.48 1582.58 1567.35 1552.91 1534.87 1520.91 1506.12 1491.50 1474.24 1457.27 1446.95 1439.48 1421.34 1405.22 1397.13 1382.37 1368.87 1355.63 1342.46 1328.20 1314.67 1299.35 1288.03 1296.52 1295.73 1282.90 1266.36 1257.40 1255.61 1252.36 1234.38 1224.75 1216.10 1209.51 1209.81 1221.01 1225.37 1212.79 1200.76 1190.67 1187.16 1175.40 1161.28 1152.94 1148.86 1143.94 1141.30 1146.47 1153.08 1154.22 1146.70 1132.93 1111.71 1111.27 1116.99 1110.79 1113.02 1091.65 1048.77 1045.05 1041.87 1050.21 1035.38 1031.17 1048.17 1046.54 1046.99 1072.38 1068.96 1044.70 1018.67 1032.42 1004.44 973.54 995.18 1004.09 995.07 1038.58 1007.58 1056.21 1068.41 1053.15 1009.96 976.87 976.97 963.85 967.85 977.13 988.48 997.09 1006.54 999.92 970.58 978.56 992.22 993.15 979.01 969.43 1003.23 1028.08 1067.87 1099.71 1100.01 1098.02 1097.36 1096.79 1093.73 1080.78 997.38 910.49 852.93 888.69 879.41 799.28 766.12 768.37 740.00 735.69 774.57 666.52 713.41 865.01 870.87 854.28 871.31 879.57 792.09 708.38 660.96 693.73 643.13 559.35 641.86 728.18 861.30 827.88 697.99 623.22 649.76 614.69 732.98 689.93 763.78 856.36 874.08 874.14 861.24 882.57 880.64 849.90 857.95 864.43 868.89 877.17 871.55 833.77 815.32 787.84 761.63 749.28 745.08 762.97 782.28 806.17 792.92 784.40 778.85 752.11 737.63 750.28 773.72 798.19 797.42 795.34 724.31 759.90 783.17 791.85 797.48 810.65 805.81 788.07 767.48 751.72 737.84 761.93 723.72 628.43 606.00 692.20 744.95 756.82 756.71 723.06 708.90 686.75 703.79 720.36 693.05 717.64 762.80 776.10 783.89 783.64 785.52 762.42 732.62 750.64 758.04 770.13 784.67 789.26 787.72 769.84 755.36 760.77 776.29 789.46 786.35 800.32 797.46 813.00 830.33 850.89 852.06 833.24 818.69 811.18 811.28 808.69 802.98 804.47 807.75 812.92 827.05 828.73 820.71 833.21 850.41 845.08 846.25 863.93 873.50 879.01 888.53 898.18 901.53 902.68 899.07 896.38 900.15 902.44 904.79 908.15 911.91 915.83 920.62 926.64 933.52 942.55 953.01 961.76 967.98 976.06 985.83 994.86 1003.50 1011.04 1016.79 1023.41 1030.83 1040.22 1048.42 1050.38 1052.87 1053.98 1052.57 1049.62 1048.48 1047.89 1047.66 1049.53 1053.94 1063.05 1070.05 1072.48 1072.83 1072.99 1074.32 1077.55 1081.16 1080.68 1078.85 1078.15 1077.31 1075.03 1071.39 1064.51 1055.65 1048.12 1041.39 1039.08 1034.84 1023.33 1023.04 1028.72 1022.89 1011.11 1000.12 1003.90 980.41 1002.53 1032.14 1008.54 1033.10 1026.35 992.78 984.69 993.07 917.57 853.98 837.56 828.78 814.28 795.04 781.25 789.61 779.79 752.36 752.73 753.73 753.70 755.01 780.55 810.92 795.27 792.93 834.44 849.46 853.39 875.86 895.75 910.06 929.38 929.68 917.92 920.12 935.82 947.55 939.63 924.32 914.81 925.27 932.50 936.40 943.76 961.48 983.28 956.56 917.19 938.31 928.38 974.04 1010.82 1002.89 996.20 987.53 992.23 1013.16 1036.40 1040.22 1057.30 1066.42 1053.91 1039.85 1033.80 1028.03 1023.16 1009.89 1012.46 1016.09 1014.19 1022.84 1022.28 1026.83 1034.57 1016.13 1009.00 1015.64 1028.51 1048.02 1054.24 1053.94 -9999 -9999 -9999 -9999 -9999 -9999 -9999 -9999 -9999 -9999 -9999 -9999 -9999 -9999 -9999 -9999 -9999 -9999
1385.49 1431.12 1468.18 1470.32 1461.09 1460.24 1501.17 1469.62 1468.86 1465.14 1467.17 1476.10 1497.58 1550.89 1568.65 1536.06 1534.23 1524.33 1535.52 1562.45 1544.65 1571.08 1607.64 1689.84 1801.18 1937.64 1994.61 1907.76 1910.71 1942.95 1867.32 1739.84 1670.79 1631.16 1615.95 1602.55 1583.83 1563.82 1550.26 1535.33 1518.17 1504.55 1492.49 1480.89 1468.70 1453.52 1437.37 1425.24 1413.59 1399.72 1394.71 1383.39 1366.75 1354.90 1340.28 1329.03 1314.92 1301.72 1287.18 1277.09 1287.91 1288.91 1268.89 1251.26 1237.47 1235.35 1225.67 1216.24 1209.75 1201.78 1198.79 1204.11 1205.59 1200.01 1195.19 1189.92 1174.37 1169.06 1158.65 1148.19 1141.48 1134.69 1128.71 1131.71 1139.26 1142.57 1132.91 1128.25 1102.08 1081.49 1085.75 1083.17 1073.31 1067.51 1063.78 1085.33 1071.88 1058.62 1043.54 1061.52 1031.00 1020.35 1008.29 1042.14 1062.13 1017.17 974.78 976.05 971.51 960.43 959.12 954.49 953.41 990.91 1001.65 1017.34 992.70 1010.07 1014.09 973.04 955.45 947.77 941.14 947.31 955.43 982.00 998.71 997.03 973.25 952.65 980.82 982.58 963.65 961.77 980.81 1002.00 1036.38 1079.16 1098.55 1096.46 1094.61 1092.29 1089.29 1088.25 1065.80 975.38 920.83 959.10 906.94 840.61 849.86 825.00 771.18 798.19 867.86 696.69 714.24 787.94 750.76 723.22 748.27 845.39 818.32 697.96 658.05 629.31 571.25 569.86 562.56 665.97 814.82 713.28 599.93 591.12 664.70 647.99 603.63 685.74 837.57 854.76 866.38 835.76 786.90 862.96 864.09 806.66 784.12 833.22 860.07 859.82 845.51 829.16 811.42 783.47 757.15 747.09 737.83 754.48 761.17 787.09 811.24 811.55 797.55 767.36 734.50 729.56 755.77 784.48 785.13 751.41 711.96 765.79 778.16 781.43 788.14 798.55 799.63 786.81 775.73 765.46 707.39 675.89 646.65 597.37 620.36 678.61 734.78 754.27 760.51 737.80 743.93 755.33 761.70 758.94 727.43 722.26 732.26 757.63 773.86 783.82 786.56 773.30 753.53 770.41 768.12 753.48 765.75 780.87 787.84 782.21 780.10 776.68 760.02 766.52 769.11 777.26 785.44 809.06 819.79 830.47 837.15 842.61 824.45 825.33 824.42 817.42 808.31 809.61 814.60 818.71 824.58 829.44 826.09 827.58 843.73 850.70 848.14 851.88 866.70 872.13 879.57 890.14 899.31 899.12 893.36 892.76 897.81 899.85 901.78 905.37 909.70 914.07 921.64 930.66 938.06 945.79 954.49 962.66 970.12 978.43 987.19 994.75 1002.44 1010.44 1018.03 1026.70 1036.51 1045.08 1049.93 1050.66 1052.39 1053.27 1051.58 1048.06 1045.55 1044.08 1043.54 1045.76 1050.97 1058.66 1066.61 1069.27 1068.85 1068.21 1068.23 1069.65 1073.29 1075.92 1076.41 1076.31 1074.63 1071.53 1067.15 1061.87 1058.42 1056.68 1051.77 1043.89 1033.07 1039.14 1042.73 1038.70 1027.30 1022.74 1011.84 1023.99 984.28 1009.77 1033.87 1042.68 1029.09 1044.83 1035.95 1028.29 1015.59 955.78 874.21 853.58 840.12 820.41 801.12 780.86 772.55 775.30 756.20 749.94 750.57 751.08 751.50 762.21 793.14 808.39 811.38 810.39 842.69 869.96 864.13 876.68 904.27 907.08 924.55 926.85 929.55 937.85 945.26 941.07 930.36 908.72 897.76 900.53 913.66 917.14 930.26 960.65 956.65 917.24 903.16 925.18 976.02 991.84 990.78 995.04 975.04 970.75 985.00 1005.63 1030.59 1054.30 1066.44 1058.09 1040.14 1026.43 1020.44 1013.62 1003.14 1008.91 1008.41 1006.08 1007.90 1002.31 1014.48 1022.59 1011.35 997.37 1010.91 1025.26 1032.39 1033.43 1038.79 1036.33 1039.24 -9999 -9999 -9999 -9999 -9999 -9999 -9999 -9999 -9999 -9999 -9999 -9999 -9999 -9999 -9999 -9999
1375.28 1438.03 1484.61 1503.03 1499.94 1489.71 1516.87 1498.51 1513.25 1492.52 1504.66 1513.33 1529.05 1585.70 1663.81 1690.09 1646.03 1592.19 1590.01 1611.10 1613.52 1633.89 1603.41 1651.46 1739.81 1813.34 1853.22 1819.35 1802.59 1795.64 1769.10 1706.05 1656.42 1622.71 1594.83 1587.95 1572.93 1555.95 1538.67 1524.62 1508.74 1493.22 1480.35 1468.74 1457.84 1444.56 1430.33 1417.11 1404.98 1392.80 1381.81 1381.08 1368.87 1357.54 1350.87 1339.53 1319.82 1305.29 1291.52 1274.26 1270.80 1280.23 1271.94 1248.41 1232.04 1224.71 1215.63 1210.24 1206.63 1201.79 1194.67 1191.69 1193.26 1189.58 1182.27 1186.47 1172.69 1162.92 1164.95 1150.67 1139.78 1129.14 1122.71 1117.50 1116.74 1112.01 1099.24 1093.92 1087.71 1092.08 1119.67 1111.00 1080.25 1077.59 1085.63 1099.85 1094.76 1069.46 1078.98 1087.28 1067.68 1062.18 1026.64 1006.84 1000.09 989.58 992.96 989.57 994.08 987.64 1005.68 1034.64 1000.00 945.88 949.33 949.23 933.95 957.15 996.40 962.68 938.20 935.55 924.86 928.01 940.80 968.76 990.55 994.42 983.60 944.52 962.65 973.33 951.11 959.18 965.67 974.92 1019.29 1084.48 1098.53 1095.54 1093.19 1090.78 1088.02 1084.49 1080.49 1071.54 1057.72 1049.25 975.99 871.32 900.62 860.09 815.87 867.72 832.61 650.33 703.17 750.25 721.87 633.77 625.11 690.19 730.76 667.55 586.69 611.87 606.90 754.70 646.69 585.15 633.02 587.88 611.88 640.64 729.16 772.29 590.52 643.18 750.23 826.31 864.43 804.48 726.28 838.32 844.91 733.98 706.18 830.05 858.47 851.34 834.76 822.62 807.18 789.17 765.12 748.92 733.63 736.36 747.90 770.48 801.96 811.73 782.84 761.09 740.95 722.62 743.28 769.64 778.50 720.72 697.82 752.45 770.00 775.26 788.46 786.50 780.37 779.41 767.21 756.86 744.39 626.26 600.39 642.00 722.73 722.96 746.13 761.87 765.89 756.75 751.19 765.33 770.86 757.76 745.12 752.25 736.02 745.05 761.03 776.51 781.04 774.81 762.64 773.74 780.71 771.05 757.23 771.16 784.39 785.69 788.77 793.29 777.30 773.64 785.34 780.55 775.97 788.45 800.27 813.39 826.96 818.48 812.57 823.97 830.34 821.03 812.79 813.52 819.85 829.07 836.85 837.08 832.68 829.10 836.90 844.99 849.46 849.78 858.61 864.99 871.06 880.52 891.72 892.70 888.80 889.83 893.28 895.67 899.26 904.01 909.75 914.93 924.05 933.17 943.09 950.96 956.97 963.48 970.18 978.20 985.65 993.10 1001.30 1009.14 1016.99 1029.95 1041.79 1048.23 1052.40 1057.15 1054.79 1052.80 1050.13 1045.44 1042.39 1040.84 1040.45 1042.63 1047.69 1055.53 1063.27 1067.06 1066.32 1064.70 1063.34 1063.20 1065.46 1068.83 1072.73 1075.75 1079.05 1075.37 1067.29 1064.30 1066.91 1071.56 1061.39 1053.32 1042.05 1041.91 1047.33 1043.04 1034.75 1020.02 1003.75 998.37 999.81 1010.86 1034.95 1049.04 1058.05 1048.28 1033.85 1030.72 977.29 928.68 890.14 897.90 853.98 825.47 805.48 783.28 765.79 761.91 760.14 748.91 748.58 749.69 749.49 753.16 770.84 797.99 824.76 833.77 841.46 849.88 843.49 866.09 880.31 898.94 902.87 904.77 907.91 935.76 934.16 939.78 928.52 912.53 891.96 884.07 893.62 888.41 897.94 915.69 903.88 896.49 908.61 916.39 942.36 954.44 962.06 999.15 988.45 956.08 981.45 1000.74 1031.02 1052.80 1050.73 1040.97 1039.73 1020.87 1022.60 1008.41 998.77 1007.01 1005.47 992.24 988.58 990.51 1000.97 1011.62 997.80 999.18 1021.30 1021.24 1015.53 1015.42 1024.76 1020.55 1022.77 -9999 -9999 -9999 -9999 -9999 -9999 -9999 -9999 -9999 -9999 -9999 -9999 -9999 -9999 -9999 -9999
1394.17 1427.00 1533.89 1581.28 1545.87 1522.08 1539.87 1537.92 1547.94 1541.41 1534.00 1564.53 1566.26 1645.84 1789.89 1923.14 1903.71 1760.97 1691.06 1658.34 1705.71 1677.80 1645.52 1692.70 1735.77 1777.44 1765.67 1763.37 1736.35 1714.61 1695.50 1653.05 1617.03 1593.23 1576.50 1571.10 1557.89 1545.58 1530.92 1516.13 1500.37 1485.31 1471.88 1461.71 1450.84 1437.35 1422.23 1409.03 1397.73 1385.74 1373.85 1371.03 1369.34 1359.23 1356.11 1342.17 1324.85 1304.95 1289.41 1274.54 1259.48 1257.49 1259.16 1244.39 1225.69 1220.39 1218.96 1216.68 1209.98 1203.97 1197.24 1188.20 1181.10 1180.35 1172.62 1169.30 1158.54 1150.39 1153.96 1150.23 1137.06 1126.57 1116.67 1110.57 1101.32 1106.41 1124.57 1120.62 1115.18 1116.54 1119.38 1103.51 1095.42 1098.48 1093.82 1095.15 1082.55 1072.30 1092.04 1089.33 1082.76 1072.05 1051.65 1034.08 1039.55 1025.07 1051.34 1054.46 1024.81 1037.37 1055.86 1036.35 994.81 964.54 986.28 940.77 952.52 927.43 931.16 935.64 925.34 922.57 916.87 915.79 932.63 958.39 981.40 983.95 980.78 962.98 932.25 955.90 945.86 938.71 952.48 966.20 1004.77 1071.09 1096.28 1095.10 1092.46 1089.63 1086.78 1083.26 1080.02 1077.52 1074.62 1071.93 1043.22 1002.14 1016.15 966.48 903.56 854.43 797.68 754.44 632.38 640.40 686.23 641.15 709.21 624.25 684.70 617.40 668.52 590.81 677.33 802.66 778.45 727.58 628.21 661.01 696.91 720.70 825.38 805.91 672.40 597.84 661.47 779.91 864.03 822.71 690.35 726.23 748.30 673.22 795.69 824.27 825.90 842.51 838.14 816.83 804.67 794.12 775.44 753.02 736.18 724.49 736.80 754.04 771.14 797.79 786.46 755.64 734.57 718.82 736.63 760.15 737.00 692.44 707.32 756.88 774.52 790.11 792.94 775.91 759.31 754.35 751.60 720.96 654.93 596.22 674.06 710.26 751.53 754.95 749.69 765.75 768.71 764.07 760.04 765.82 772.07 763.94 762.11 758.38 760.93 746.46 762.47 773.18 775.29 775.81 775.83 779.51 782.80 779.74 766.54 762.21 770.08 778.65 786.34 793.01 785.26 778.55 794.81 799.44 789.75 782.85 786.60 793.11 799.15 798.55 801.12 805.83 816.48 822.12 815.73 816.88 821.63 833.15 847.67 850.41 838.33 832.09 834.04 841.91 850.11 852.78 855.45 860.53 864.93 871.74 881.88 884.31 883.65 885.84 888.77 893.63 898.49 903.87 912.24 919.54 925.97 936.15 947.34 954.33 958.80 964.56 971.26 978.21 985.16 992.81 1000.60 1009.92 1018.97 1032.98 1043.51 1047.17 1053.31 1059.89 1055.54 1051.59 1047.71 1043.80 1040.43 1038.49 1037.53 1038.61 1042.08 1050.73 1059.80 1064.97 1064.76 1061.01 1058.48 1058.48 1060.27 1063.29 1068.25 1074.49 1079.73 1078.15 1066.81 1060.82 1061.19 1061.78 1055.95 1051.91 1045.58 1044.58 1048.09 1047.47 1037.12 1020.19 1010.21 1014.81 1027.79 1001.08 1016.66 1037.07 1050.73 1062.00 1033.44 986.95 972.19 946.61 939.05 959.51 871.29 840.23 808.05 782.30 764.00 756.60 753.04 749.17 746.92 747.32 746.85 747.25 762.55 795.00 829.35 860.26 854.87 808.70 822.86 852.62 890.92 905.22 874.67 872.54 900.20 922.83 918.14 929.71 941.50 918.23 911.87 887.55 870.36 869.70 872.01 879.51 873.24 885.05 937.12 948.31 923.85 915.68 930.09 976.91 968.76 971.67 983.01 987.08 998.61 1025.08 1034.04 1031.90 1019.36 1031.49 1033.93 1012.83 998.58 1008.92 1005.71 987.38 977.44 977.91 994.81 1000.34 990.28 998.47 1018.86 998.35 999.15 999.94 1011.38 1008.64 1005.17 1019.49 -9999 -9999 -9999 -9999 -9999 -9999 -9999 -9999 -9999 -9999 -9999 -9999 -9999 -9999 -9999
1431.33 1439.19 1604.25 1697.06 1636.78 1562.09 1579.04 1575.56 1594.88 1590.68 1582.29 1618.45 1597.85 1691.88 1849.59 2022.40 2030.72 1976.62 1819.58 1767.78 1805.95 1730.47 1671.82 1743.15 1813.79 1759.50 1715.13 1718.18 1713.11 1682.12 1653.42 1627.08 1594.33 1567.12 1555.65 1554.93 1543.77 1531.87 1519.99 1507.22 1492.87 1478.18 1464.80 1453.48 1443.85 1432.43 1417.94 1401.84 1389.36 1378.73 1367.08 1357.60 1352.55 1344.93 1332.81 1325.59 1319.69 1303.05 1290.89 1279.39 1270.36 1255.99 1241.68 1233.10 1233.19 1230.39 1226.19 1218.63 1211.21 1203.86 1198.50 1194.15 1186.81 1171.91 1165.06 1161.44 1157.48 1156.44 1142.55 1138.74 1131.37 1123.07 1116.70 1111.43 1103.06 1112.04 1125.19 1127.53 1123.44 1124.08 1121.56 1106.04 1100.24 1106.09 1099.07 1092.02 1078.88 1082.10 1104.28 1088.62 1074.80 1072.39 1037.04 1046.47 1060.25 1050.99 1064.91 1053.36 1031.21 1065.16 1049.78 1031.42 1019.28 1029.89 1022.53 1000.39 1010.96 957.63 929.32 914.41 911.27 910.38 910.25 910.31 932.12 957.48 977.18 975.55 974.29 973.89 940.94 918.59 938.24 931.83 951.44 953.27 982.71 1025.13 1085.25 1095.47 1091.27 1088.07 1085.29 1082.52 1079.43 1075.84 1071.53 1066.95 1063.92 1062.39 1057.35 1049.16 1022.52 954.07 916.30 811.25 715.28 717.91 662.55 638.11 728.75 650.91 625.67 695.00 751.35 661.41 676.10 787.19 814.77 785.12 665.90 815.21 788.39 751.84 857.07 789.75 652.14 571.73 604.59 704.35 756.49 802.45 688.14 680.38 711.46 653.03 706.23 697.52 783.65 843.59 838.83 813.41 800.27 790.82 779.07 753.82 734.65 718.80 724.99 745.07 764.23 786.81 784.70 755.58 731.41 713.73 722.81 740.98 692.49 697.67 735.88 763.16 778.84 794.61 799.59 780.29 759.55 743.41 707.04 645.09 593.14 599.91 694.49 765.75 757.08 768.43 765.18 767.24 767.65 761.16 759.89 765.65 771.03 771.72 770.71 768.62 768.63 753.68 756.32 766.05 771.61 776.34 778.72 781.75 785.54 784.90 777.26 770.65 767.85 773.22 782.68 791.64 791.88 789.52 799.08 806.52 803.01 793.41 786.36 791.12 796.39 804.96 803.59 803.83 810.09 816.05 815.58 819.14 824.63 836.55 848.75 857.82 846.91 835.45 835.26 840.72 855.47 864.58 864.42 865.46 869.07 870.19 874.88 878.49 881.00 885.20 890.39 894.70 900.36 906.68 913.82 921.85 929.02 939.85 951.17 957.06 961.28 966.50 972.47 979.50 986.87 993.40 1000.95 1010.28 1019.80 1032.04 1042.22 1045.67 1051.38 1060.55 1056.64 1051.49 1046.40 1042.63 1039.09 1036.55 1035.06 1035.09 1036.63 1042.86 1050.48 1058.33 1062.36 1057.24 1054.90 1054.97 1055.76 1060.51 1068.09 1072.51 1071.78 1068.58 1062.09 1056.26 1052.84 1050.49 1049.51 1047.87 1047.06 1048.39 1051.57 1050.93 1043.03 1027.89 1016.54 1025.29 1021.35 1023.87 1029.41 1030.49 1053.14 1061.12 1032.43 1014.25 1015.29 992.12 1018.03 992.23 919.60 896.12 843.33 800.72 764.67 755.52 748.97 746.50 745.03 744.59 744.44 743.87 754.63 772.71 796.11 829.08 861.19 824.71 799.34 814.79 851.05 886.93 885.10 844.72 892.22 907.90 912.60 915.54 933.58 918.31 902.61 908.08 884.27 863.18 853.34 856.38 864.21 898.08 917.15 926.82 926.49 895.16 906.03 932.56 940.56 992.97 993.59 975.02 976.61 994.01 1015.29 1010.79 1012.22 1040.14 1036.36 1010.77 1009.52 1012.34 1007.48 995.03 973.84 966.31 972.56 986.80 975.85 994.56 1011.17 985.38 983.59 994.41 1000.35 990.90 989.82 1003.73 -9999 -9999 -9999 -9999 -9999 -9999 -9999 -9999 -9999 -9999 -9999 -9999 -9999 -9999 -9999
1463.39 1466.87 1521.40 1599.85 1614.80 1615.05 1641.91 1645.15 1668.41 1643.30 1625.36 1652.86 1628.40 1693.03 1872.23 2039.54 2005.64 1977.15 1925.91 1892.40 1841.27 1759.11 1716.74 1759.41 1821.61 1778.98 1699.12 1670.04 1678.91 1665.96 1641.23 1608.29 1588.54 1565.16 1541.28 1534.48 1530.41 1519.22 1508.22 1496.07 1483.52 1470.07 1457.25 1445.52 1435.13 1425.19 1413.98 1403.47 1387.62 1371.76 1359.87 1348.72 1340.41 1332.40 1322.83 1310.38 1302.63 1297.83 1296.86 1287.75 1273.65 1253.29 1242.44 1245.20 1242.59 1240.46 1236.22 1221.73 1213.70 1206.65 1203.66 1199.25 1189.71 1175.36 1173.43 1171.25 1174.84 1172.43 1162.12 1143.68 1136.06 1130.23 1123.41 1118.17 1113.43 1113.36 1118.68 1129.63 1135.09 1127.44 1120.25 1112.34 1105.85 1115.22 1108.20 1094.89 1090.43 1090.48 1093.89 1080.20 1067.68 1057.87 1033.06 1040.91 1055.28 1071.80 1073.15 1044.25 1047.12 1070.84 1058.57 1051.41 1045.50 1040.90 1029.53 1021.05 1002.46 971.59 936.05 915.21 902.09 894.85 897.93 908.65 924.44 937.70 955.29 965.97 960.26 964.56 958.43 918.66 901.46 933.51 931.67 949.61 963.02 999.17 1077.56 1094.19 1089.63 1086.82 1084.19 1081.79 1078.17 1074.09 1070.35 1066.04 1061.16 1056.70 1052.83 1049.45 1047.68 1048.39 962.58 774.94 790.28 842.03 738.94 727.91 779.17 749.05 774.77 831.71 880.78 729.19 645.88 730.42 806.26 757.97 713.17 849.13 835.76 799.48 844.89 855.32 790.76 651.80 594.10 561.81 638.18 683.31 651.94 685.59 759.64 630.64 674.57 784.51 834.12 846.19 827.39 808.57 795.66 787.04 776.79 749.86 725.64 712.07 716.93 733.71 758.45 781.26 786.18 760.61 745.97 724.67 701.88 709.60 699.10 752.45 779.44 787.05 789.67 794.72 799.01 792.82 775.55 770.43 761.04 673.04 582.52 645.05 743.59 768.07 778.92 777.51 773.52 768.41 763.74 756.91 755.37 760.61 766.66 770.38 771.60 771.66 767.92 758.18 757.48 763.48 768.52 773.97 778.51 782.82 787.26 788.90 785.35 782.02 775.94 773.15 779.48 788.08 795.76 799.64 807.64 816.05 815.23 797.95 790.83 793.22 808.30 827.37 814.07 806.73 808.65 811.39 813.53 819.32 825.11 837.31 853.72 861.96 853.64 839.92 837.62 841.03 853.00 870.13 880.03 876.97 879.88 879.27 878.23 881.18 883.14 886.54 892.39 896.10 904.80 915.02 919.95 923.23 929.87 941.21 951.06 956.84 962.46 968.69 973.64 980.77 987.49 993.03 1000.27 1008.45 1016.88 1030.71 1039.23 1043.34 1047.09 1054.90 1058.73 1053.29 1047.42 1042.02 1037.90 1034.62 1032.89 1032.48 1033.15 1036.08 1041.30 1048.88 1055.03 1052.94 1051.17 1050.80 1051.17 1055.01 1062.03 1065.56 1069.72 1060.77 1053.68 1050.17 1047.99 1046.86 1046.95 1047.69 1050.29 1051.95 1053.75 1053.51 1043.84 1034.28 1036.55 1035.32 1022.28 1030.15 1048.65 1048.91 1046.74 1063.39 1054.45 1046.66 1044.13 1025.10 1041.57 1051.30 1003.21 962.67 889.13 808.37 771.59 757.41 748.29 744.63 742.78 742.67 742.07 742.80 745.56 765.10 791.94 796.17 825.16 820.76 818.53 833.82 837.37 873.53 852.23 840.83 860.16 871.02 883.90 903.11 893.38 890.97 888.80 890.57 895.63 877.59 851.39 845.67 864.84 880.15 884.53 893.08 897.30 903.55 918.85 913.43 932.50 954.10 975.48 978.38 959.49 968.50 993.20 996.53 1014.50 1022.25 1015.75 999.40 1002.23 1002.20 999.03 994.38 981.41 965.31 956.10 959.79 968.64 990.42 998.36 983.83 989.29 991.47 986.35 975.60 980.92 992.85 -9999 -9999 -9999 -9999 -9999 -9999 -9999 -9999 -9999 -9999 -9999 -9999 -9999 -9999 -9999
1495.15 1505.97 1506.50 1532.41 1590.38 1681.16 1747.82 1775.64 1780.16 1716.74 1699.18 1745.24 1686.86 1683.65 1844.53 1978.75 1947.79 1917.87 1909.75 1872.04 1849.31 1813.40 1795.21 1762.97 1788.66 1866.66 1767.51 1658.98 1634.54 1627.91 1619.40 1592.63 1573.88 1557.55 1535.76 1517.43 1512.44 1506.59 1495.86 1484.75 1473.97 1461.16 1448.98 1438.78 1428.32 1417.64 1407.10 1396.77 1385.47 1372.46 1359.80 1346.21 1334.06 1322.24 1314.72 1305.15 1294.56 1285.08 1274.77 1267.21 1256.08 1258.97 1259.21 1253.55 1248.54 1247.86 1237.43 1225.51 1219.28 1214.91 1210.44 1201.72 1194.44 1190.00 1188.02 1181.73 1185.43 1177.31 1166.58 1153.50 1146.07 1136.30 1127.27 1122.61 1121.33 1124.01 1129.84 1137.56 1143.27 1139.29 1129.04 1116.94 1120.45 1126.59 1123.79 1115.13 1119.77 1096.03 1088.09 1080.46 1065.40 1051.98 1039.73 1053.39 1052.62 1079.75 1084.92 1064.91 1075.37 1077.97 1065.68 1052.89 1043.40 1032.28 1029.15 1012.62 988.18 957.49 932.96 919.84 905.30 895.06 899.57 888.22 900.99 906.72 900.74 897.81 931.80 962.59 955.37 947.16 905.44 899.21 922.90 938.24 941.48 1001.41 1043.30 1068.26 1090.59 1086.56 1083.23 1080.46 1076.69 1072.55 1068.77 1064.12 1059.50 1055.28 1051.48 1047.51 1042.93 1043.70 973.72 869.24 964.98 926.35 867.28 887.55 909.54 941.21 951.24 967.15 971.15 838.97 662.43 649.61 777.94 776.08 698.07 802.60 821.96 850.20 854.26 854.21 838.66 763.58 653.94 581.26 596.41 637.30 619.40 639.03 671.32 614.42 699.20 823.66 833.00 834.08 816.67 803.49 794.72 784.92 771.69 742.84 717.64 705.74 712.37 725.94 747.84 767.97 787.09 767.71 741.48 720.40 702.06 683.49 708.77 743.26 759.92 779.24 773.87 766.19 777.26 775.54 749.68 747.73 744.61 624.58 636.40 713.44 735.75 753.62 773.17 776.20 768.09 760.84 755.96 751.95 751.03 755.70 761.61 765.41 766.55 768.30 767.08 761.47 760.40 763.78 767.97 772.76 778.19 783.94 789.92 796.51 801.14 795.55 784.37 778.22 779.70 787.81 798.80 806.04 812.17 818.94 820.15 803.38 796.37 797.19 805.49 821.06 821.20 812.51 811.81 811.98 815.51 819.41 824.03 834.53 855.63 859.51 848.57 841.73 840.10 842.85 850.91 863.48 878.82 882.26 885.88 891.85 885.39 887.26 886.93 888.21 892.39 897.72 904.95 916.75 927.74 930.64 935.14 943.01 948.69 954.29 961.89 969.65 976.03 981.11 985.62 990.81 996.77 1003.29 1013.39 1025.92 1033.44 1037.81 1042.36 1046.39 1055.49 1055.64 1047.86 1042.86 1037.61 1033.29 1031.13 1029.93 1030.45 1031.49 1035.55 1041.19 1044.69 1045.93 1046.22 1046.77 1046.37 1046.87 1049.33 1055.10 1069.49 1058.80 1047.67 1044.53 1043.45 1044.04 1045.15 1048.66 1052.73 1054.87 1056.03 1056.58 1054.02 1049.99 1051.61 1043.86 1021.66 1029.61 1058.52 1065.58 1059.83 1063.29 1077.26 1070.06 1062.57 1048.71 1012.42 1011.56 1007.55 919.70 838.73 799.02 777.34 762.75 751.75 744.43 741.29 740.60 740.09 740.42 740.55 743.46 760.52 783.69 797.53 787.58 844.22 865.06 867.07 827.42 812.06 819.78 830.53 833.12 863.14 890.97 872.12 859.57 865.02 863.30 874.72 881.04 871.82 846.66 840.24 855.66 856.02 869.21 895.70 908.68 931.16 948.07 927.42 928.32 946.58 968.49 953.23 948.18 964.45 974.42 993.72 1008.56 994.67 977.23 981.86 1002.91 999.50 986.92 980.62 970.61 960.13 951.92 955.06 963.02 973.72 968.58 982.00 982.03 977.39 966.68 979.82 995.22 1004.26 -9999 -9999 -9999 -9999 -9999 -9999 -9999 -9999 -9999 -9999 -9999 -9999 -9999 -9999
