ncols  417
nrows   31
xllcorner   10.384004
yllcorner    46.21788
cellsize   0.0050020
NODATA_value -9999
-9999.0 -9999.0 -9999.0 -9999.0 -9999.0 -9999.0 -9999.0 -9999.0 -9999.0 -9999.0 -9999.0 -9999.0 -9999.0 -9999.0 -9999.0 -9999.0 -9999.0 -9999.0 -9999.0 -9999.0 -9999.0 -9999.0 -9999.0 -9999.0 -9999.0 -9999.0 -9999.0 -9999.0 -9999.0 -9999.0 -9999.0 3329.0 3284.6 3327.9 3317.3 3199.0 3161.5 3045.0 2999.0 3189.6 3296.8 3220.7 3001.0 2880.8 2986.5 2995.7 2887.5 2753.4 2558.1 2408.3 2300.1 2141.5 1988.0 1997.1 1970.1 1917.4 1889.3 1793.5 1712.4 1565.9 1466.8 1668.4 1869.7 2041.5 2217.5 2348.7 2554.3 2806.6 2928.4 2931.8 2942.2 2954.9 2855.4 2782.9 2756.6 2760.4 2841.5 2800.6 2824.9 2910.8 2780.9 2772.5 2950.4 2936.4 2856.8 2851.4 2790.7 2721.2 2598.4 2357.4 2105.3 1990.1 2047.4 2154.3 2129.7 2091.0 1873.1 1713.7 1574.1 1412.7 1269.2 1120.7 1075.9 1085.3 1101.1 1103.7 1081.6 1026.0 940.8 835.7 758.9 721.1 779.1 959.8 1119.5 1320.8 1482.1 1670.9 1865.5 1914.7 1852.6 1786.5 1608.8 1407.7 1269.2 1107.4 1006.8 952.1 931.7 907.1 901.5 811.5 627.7 569.9 743.9 839.6 869.5 877.9 948.3 1011.7 1070.3 1114.8 1160.9 1130.3 1132.0 1133.4 1150.6 1221.7 1394.7 1506.5 1576.0 1623.5 1675.9 1751.3 1850.1 1973.0 2048.4 2122.5 2206.0 2276.7 2305.8 2117.8 1904.1 1737.0 1577.3 1574.5 1496.2 1253.5 1048.9 855.1 740.2 634.8 508.3 472.3 465.8 463.4 456.6 499.5 678.4 499.2 285.4 413.7 456.8 466.2 469.8 503.5 740.8 982.8 1236.3 1318.2 1375.8 1439.7 1416.0 1393.9 1432.2 1498.7 1535.9 1600.4 1652.7 1627.9 1638.3 1620.8 1674.7 1721.5 1751.8 1796.8 1915.3 2005.1 2065.8 2171.2 2254.5 2217.1 2132.5 2067.0 2020.1 2045.9 2029.8 1984.3 2009.6 2034.0 2024.7 2001.4 1995.5 2025.1 1998.5 2005.5 2002.2 2005.7 2030.5 2104.6 2231.2 2342.7 2469.9 2663.7 2842.9 2752.7 2647.8 2500.9 2404.6 2307.8 2182.2 2056.7 1882.9 1796.4 1856.3 1868.3 1879.0 1880.1 1766.9 1613.1 1408.6 1217.4 1363.5 1736.8 1956.4 2057.7 2021.5 1995.2 1904.0 1846.9 1800.7 1879.2 1921.1 1898.2 1924.7 1947.0 1996.3 2108.5 2190.7 2310.6 2394.9 2391.6 2350.9 2309.2 2455.1 2565.5 2465.3 2534.6 2721.4 -9999.0 -9999.0 -9999.0 -9999.0 -9999.0 -9999.0 -9999.0 -9999.0 -9999.0 -9999.0 -9999.0 -9999.0 -9999.0 -9999.0 -9999.0 -9999.0 -9999.0 -9999.0 -9999.0 -9999.0 -9999.0 -9999.0 -9999.0 -9999.0 -9999.0 -9999.0 -9999.0 -9999.0 -9999.0 -9999.0 -9999.0 -9999.0 -9999.0 -9999.0 -9999.0 -9999.0 -9999.0 -9999.0 -9999.0 -9999.0 -9999.0 -9999.0 -9999.0 -9999.0 -9999.0 -9999.0 -9999.0 -9999.0 -9999.0 -9999.0 -9999.0 -9999.0 -9999.0 -9999.0 -9999.0 -9999.0 -9999.0 -9999.0 -9999.0 -9999.0 -9999.0 -9999.0 -9999.0 -9999.0 -9999.0 -9999.0 -9999.0 -9999.0 -9999.0 -9999.0 -9999.0 -9999.0 -9999.0 -9999.0 -9999.0 -9999.0 -9999.0 -9999.0 -9999.0 -9999.0 -9999.0 -9999.0 -9999.0 -9999.0 -9999.0 -9999.0 -9999.0 -9999.0 -9999.0 -9999.0 -9999.0 -9999.0 -9999.0 -9999.0 -9999.0 -9999.0 -9999.0 -9999.0 -9999.0 -9999.0 -9999.0 -9999.0 -9999.0 -9999.0 -9999.0 -9999.0 -9999.0 -9999.0 -9999.0 -9999.0 -9999.0 -9999.0 -9999.0 -9999.0 -9999.0 -9999.0 -9999.0 -9999.0 -9999.0 -9999.0 -9999.0 -9999.0 -9999.0 -9999.0 -9999.0 -9999.0 -9999.0 -9999.0 -9999.0 -9999.0 -9999.0 -9999.0 -9999.0 -9999.0 -9999.0 -9999.0 -9999.0 -9999.0
-9999.0 -9999.0 -9999.0 -9999.0 -9999.0 -9999.0 -9999.0 -9999.0 -9999.0 -9999.0 -9999.0 -9999.0 -9999.0 -9999.0 -9999.0 -9999.0 -9999.0 -9999.0 -9999.0 -9999.0 -9999.0 -9999.0 -9999.0 -9999.0 -9999.0 -9999.0 -9999.0 -9999.0 -9999.0 -9999.0 3229.7 3248.2 3153.1 3133.5 3205.5 3067.7 2866.2 2779.8 2842.8 3040.9 3058.2 3098.2 2979.9 2801.5 2700.2 2707.3 2740.0 2713.0 2514.3 2315.5 2163.1 2002.4 1832.0 1771.1 1735.4 1704.2 1691.7 1638.4 1573.0 1477.0 1433.7 1547.1 1713.8 1913.1 2032.6 2221.4 2470.8 2718.7 2756.5 2777.5 2925.6 2860.0 2693.9 2614.8 2604.1 2623.7 2666.2 2631.9 2685.0 2712.0 2619.5 2683.4 2794.2 2794.5 2911.7 2854.2 2717.9 2592.6 2468.5 2308.8 2211.7 2303.4 2341.7 2419.2 2365.0 2214.8 2050.1 1901.2 1730.3 1636.4 1595.2 1447.4 1316.4 1233.4 1084.7 988.0 866.5 809.7 750.7 747.6 786.1 885.0 1070.0 1208.9 1340.4 1439.9 1558.5 1757.5 1918.5 1937.7 1853.4 1744.4 1548.2 1431.7 1296.2 1091.8 979.1 937.5 918.9 895.3 897.3 839.9 717.2 566.6 612.5 807.7 859.7 926.2 974.7 1018.5 1078.9 1161.7 1203.4 1156.7 1184.5 1314.0 1315.2 1246.3 1255.5 1373.2 1522.7 1606.0 1649.7 1719.1 1844.6 2002.5 2058.9 2107.9 2175.9 2251.1 2282.1 2170.7 1944.4 1626.9 1338.4 1221.9 1147.8 1091.3 1023.3 836.5 682.6 586.6 483.4 467.8 465.3 463.4 461.4 461.2 532.1 345.1 284.2 436.2 467.0 470.2 477.2 628.6 938.1 1070.5 1135.0 1254.1 1325.1 1371.0 1370.3 1326.9 1400.0 1458.3 1391.5 1440.5 1470.3 1464.5 1559.8 1641.5 1752.5 1823.7 1908.3 1945.6 1946.1 2002.8 2029.7 2128.3 2320.9 2368.6 2244.5 2150.4 2075.8 2091.8 2074.0 2032.5 2012.4 2043.7 2057.9 2067.1 2108.7 2136.4 2147.2 2231.0 2185.6 2213.3 2188.7 2153.5 2212.4 2354.0 2520.0 2668.2 2707.6 2759.5 2783.9 2651.1 2547.5 2411.5 2308.5 2192.0 2048.3 1914.9 1733.1 1658.4 1692.9 1730.8 1489.4 1306.6 1233.9 1345.3 1698.8 1885.4 2078.8 2252.8 2364.0 2218.7 2076.8 2019.6 1962.6 2017.1 2118.4 2117.8 2145.1 2158.6 2130.7 2162.6 2273.3 2514.1 2658.2 2626.9 2539.9 2512.2 2548.7 2839.7 2782.9 2706.7 2720.2 2687.3 2641.8 2619.9 2528.6 -9999.0 -9999.0 -9999.0 -9999.0 -9999.0 -9999.0 -9999.0 -9999.0 -9999.0 -9999.0 -9999.0 -9999.0 -9999.0 -9999.0 -9999.0 -9999.0 -9999.0 -9999.0 -9999.0 -9999.0 -9999.0 -9999.0 -9999.0 -9999.0 -9999.0 -9999.0 -9999.0 -9999.0 -9999.0 -9999.0 -9999.0 -9999.0 -9999.0 -9999.0 -9999.0 -9999.0 -9999.0 -9999.0 -9999.0 -9999.0 -9999.0 -9999.0 -9999.0 -9999.0 -9999.0 -9999.0 -9999.0 -9999.0 -9999.0 -9999.0 -9999.0 -9999.0 -9999.0 -9999.0 -9999.0 -9999.0 -9999.0 -9999.0 -9999.0 -9999.0 -9999.0 -9999.0 -9999.0 -9999.0 -9999.0 -9999.0 -9999.0 -9999.0 -9999.0 -9999.0 -9999.0 -9999.0 -9999.0 -9999.0 -9999.0 -9999.0 -9999.0 -9999.0 -9999.0 -9999.0 -9999.0 -9999.0 -9999.0 -9999.0 -9999.0 -9999.0 -9999.0 -9999.0 -9999.0 -9999.0 -9999.0 -9999.0 -9999.0 -9999.0 -9999.0 -9999.0 -9999.0 -9999.0 -9999.0 -9999.0 -9999.0 -9999.0 -9999.0 -9999.0 -9999.0 -9999.0 -9999.0 -9999.0 -9999.0 -9999.0 -9999.0 -9999.0 -9999.0 -9999.0 -9999.0 -9999.0 -9999.0 -9999.0 -9999.0 -9999.0 -9999.0 -9999.0 -9999.0 -9999.0 -9999.0 -9999.0 -9999.0 -9999.0 -9999.0 -9999.0 -9999.0 -9999.0 -9999.0 -9999.0
-9999.0 -9999.0 -9999.0 -9999.0 -9999.0 -9999.0 -9999.0 -9999.0 -9999.0 -9999.0 -9999.0 -9999.0 -9999.0 -9999.0 -9999.0 -9999.0 -9999.0 -9999.0 -9999.0 -9999.0 -9999.0 -9999.0 -9999.0 -9999.0 -9999.0 -9999.0 3205.7 3102.8 3059.2 3125.1 3143.3 2970.3 2885.0 3024.5 3146.7 2964.9 2743.6 2665.6 2793.8 2861.1 2880.4 2965.7 3015.2 2803.0 2558.9 2470.2 2533.0 2499.1 2311.5 2126.9 2013.0 1872.6 1757.8 1757.9 1746.1 1717.4 1709.3 1785.5 1807.8 1612.5 1442.2 1447.8 1548.6 1708.9 1931.4 2184.3 2397.8 2513.3 2626.0 2757.4 2805.5 2698.1 2612.4 2515.0 2456.4 2459.7 2484.0 2484.3 2600.7 2525.2 2495.4 2619.0 2633.5 2641.1 2705.8 2732.7 2710.2 2603.3 2525.9 2529.2 2460.2 2483.4 2496.5 2396.7 2233.0 2094.8 2060.8 1956.1 1854.4 1753.5 1639.5 1478.7 1331.4 1186.6 1012.2 883.6 780.4 787.4 870.2 1013.9 1092.8 1226.8 1349.6 1319.2 1469.6 1639.4 1768.2 1876.2 1931.5 1906.5 1824.8 1707.9 1570.0 1406.7 1275.2 1117.8 986.7 937.0 922.6 902.3 881.3 866.2 841.1 650.3 574.3 774.8 909.6 995.0 1031.1 1070.5 1120.2 1165.2 1147.3 1166.1 1228.5 1317.7 1361.5 1403.7 1390.8 1285.3 1345.8 1472.1 1575.6 1701.1 1802.0 1884.4 1881.9 2016.2 2091.6 2077.3 2198.7 2228.4 2089.0 1788.5 1407.0 1241.1 1049.7 890.6 839.1 750.1 613.5 511.0 479.2 468.0 465.7 463.5 462.5 461.9 389.0 279.9 312.9 469.8 479.9 480.1 497.1 717.2 1043.9 1113.1 1108.1 1133.0 1167.6 1207.1 1236.4 1202.9 1226.8 1266.8 1260.7 1438.7 1559.5 1643.0 1725.0 1767.3 1805.4 1861.3 1895.6 1912.7 1940.4 2023.5 2140.6 2281.6 2393.3 2432.3 2326.6 2217.0 2134.7 2127.8 2106.1 2077.3 2083.8 2083.1 2048.6 2054.0 2166.1 2223.4 2255.9 2381.9 2476.9 2449.8 2366.9 2280.9 2240.0 2290.5 2376.1 2493.7 2477.0 2474.8 2531.8 2438.3 2416.2 2368.5 2229.3 2120.8 2031.4 1933.5 1836.1 1724.3 1547.1 1406.3 1231.8 1241.6 1433.4 1685.2 1891.2 2058.2 2081.8 2267.6 2401.4 2300.9 2199.6 2153.2 2144.5 2116.5 2154.7 2287.8 2352.0 2288.7 2334.3 2314.6 2410.1 2569.0 2708.3 2775.0 2861.5 2820.7 2639.7 2735.9 2767.9 2633.5 2575.7 2558.0 2551.3 2496.0 2446.3 2457.6 -9999.0 -9999.0 -9999.0 -9999.0 -9999.0 -9999.0 -9999.0 -9999.0 -9999.0 -9999.0 -9999.0 -9999.0 -9999.0 -9999.0 -9999.0 -9999.0 -9999.0 -9999.0 -9999.0 -9999.0 -9999.0 -9999.0 -9999.0 -9999.0 -9999.0 -9999.0 -9999.0 -9999.0 -9999.0 -9999.0 -9999.0 -9999.0 -9999.0 -9999.0 -9999.0 -9999.0 -9999.0 -9999.0 -9999.0 -9999.0 -9999.0 -9999.0 -9999.0 -9999.0 -9999.0 -9999.0 -9999.0 -9999.0 -9999.0 -9999.0 -9999.0 -9999.0 -9999.0 -9999.0 -9999.0 -9999.0 -9999.0 -9999.0 -9999.0 -9999.0 -9999.0 -9999.0 -9999.0 -9999.0 -9999.0 -9999.0 -9999.0 -9999.0 -9999.0 -9999.0 -9999.0 -9999.0 -9999.0 -9999.0 -9999.0 -9999.0 -9999.0 -9999.0 -9999.0 -9999.0 -9999.0 -9999.0 -9999.0 -9999.0 -9999.0 -9999.0 -9999.0 -9999.0 -9999.0 -9999.0 -9999.0 -9999.0 -9999.0 -9999.0 -9999.0 -9999.0 -9999.0 -9999.0 -9999.0 -9999.0 -9999.0 -9999.0 -9999.0 -9999.0 -9999.0 -9999.0 -9999.0 -9999.0 -9999.0 -9999.0 -9999.0 -9999.0 -9999.0 -9999.0 -9999.0 -9999.0 -9999.0 -9999.0 -9999.0 -9999.0 -9999.0 -9999.0 -9999.0 -9999.0 -9999.0 -9999.0 -9999.0 -9999.0 -9999.0 -9999.0 -9999.0 -9999.0 -9999.0
-9999.0 -9999.0 -9999.0 -9999.0 -9999.0 -9999.0 -9999.0 -9999.0 -9999.0 -9999.0 -9999.0 -9999.0 -9999.0 -9999.0 -9999.0 -9999.0 -9999.0 -9999.0 -9999.0 -9999.0 -9999.0 -9999.0 -9999.0 -9999.0 -9999.0 -9999.0 3209.9 3056.9 2960.4 2895.4 2904.5 2777.3 2738.5 2846.3 3012.9 2867.5 2678.9 2545.3 2620.5 2720.8 2749.3 2862.5 2840.8 2708.5 2477.5 2277.3 2229.5 2233.2 2108.5 1924.5 1845.6 1838.4 1979.1 2134.4 2137.7 2116.5 2038.0 2140.8 2100.4 1839.5 1597.7 1440.5 1438.1 1544.3 1794.6 2075.9 2142.1 2253.7 2422.3 2586.9 2686.0 2592.8 2489.5 2393.7 2307.4 2290.8 2242.7 2350.1 2484.8 2384.1 2384.7 2541.2 2483.8 2511.5 2522.2 2561.3 2630.0 2642.5 2538.3 2483.3 2482.3 2506.0 2367.4 2242.6 2104.0 1890.4 1774.8 1739.4 1636.4 1546.0 1387.4 1258.7 1117.9 965.2 807.4 774.7 815.6 996.3 1202.1 1277.6 1334.4 1483.6 1621.4 1540.8 1542.2 1689.8 1874.7 1960.6 1935.2 1897.5 1823.6 1721.2 1610.5 1414.7 1264.6 1107.4 1001.6 942.6 925.1 932.0 906.9 874.2 857.1 731.0 575.7 723.5 933.3 1019.8 1041.3 1065.7 1078.6 1102.4 1163.7 1221.6 1253.3 1311.1 1352.4 1398.7 1432.2 1401.4 1339.8 1328.1 1486.0 1582.6 1569.4 1599.4 1681.2 1784.7 1863.4 2005.9 2082.4 2169.4 2144.3 1931.1 1612.8 1430.0 1237.3 1068.2 873.1 661.0 585.9 535.2 495.7 469.0 462.1 462.1 462.8 446.0 288.2 275.9 422.9 488.5 499.9 508.4 631.4 843.2 906.9 941.2 929.9 971.1 1004.3 1006.2 1033.4 1045.9 1124.2 1243.9 1269.5 1342.9 1459.7 1620.7 1725.3 1784.0 1815.2 1786.6 1814.0 1909.9 2003.1 2085.3 2164.3 2219.9 2264.5 2266.1 2257.7 2237.5 2233.7 2197.8 2162.1 2169.2 2167.3 2077.9 1947.3 2063.0 2225.9 2376.6 2512.4 2642.6 2617.2 2558.1 2488.2 2317.9 2181.9 2209.4 2227.5 2328.6 2382.9 2254.7 2233.7 2230.2 2258.7 2229.8 2093.7 2020.8 1944.9 1786.4 1653.1 1488.2 1271.6 1191.8 1254.2 1521.8 1715.6 1841.2 1961.2 2094.9 2287.6 2286.1 2324.3 2373.5 2282.4 2307.2 2334.6 2284.7 2224.9 2343.2 2458.0 2501.2 2553.2 2600.7 2581.6 2609.3 2671.8 2731.2 2696.3 2797.0 2667.2 2605.2 2634.5 2584.4 2448.3 2396.2 2387.4 2365.6 2365.5 -9999.0 -9999.0 -9999.0 -9999.0 -9999.0 -9999.0 -9999.0 -9999.0 -9999.0 -9999.0 -9999.0 -9999.0 -9999.0 -9999.0 -9999.0 -9999.0 -9999.0 -9999.0 -9999.0 -9999.0 -9999.0 -9999.0 -9999.0 -9999.0 -9999.0 -9999.0 -9999.0 -9999.0 -9999.0 -9999.0 -9999.0 -9999.0 -9999.0 -9999.0 -9999.0 -9999.0 -9999.0 -9999.0 -9999.0 -9999.0 -9999.0 -9999.0 -9999.0 -9999.0 -9999.0 -9999.0 -9999.0 -9999.0 -9999.0 -9999.0 -9999.0 -9999.0 -9999.0 -9999.0 -9999.0 -9999.0 -9999.0 -9999.0 -9999.0 -9999.0 -9999.0 -9999.0 -9999.0 -9999.0 -9999.0 -9999.0 -9999.0 -9999.0 -9999.0 -9999.0 -9999.0 -9999.0 -9999.0 -9999.0 -9999.0 -9999.0 -9999.0 -9999.0 -9999.0 -9999.0 -9999.0 -9999.0 -9999.0 -9999.0 -9999.0 -9999.0 -9999.0 -9999.0 -9999.0 -9999.0 -9999.0 -9999.0 -9999.0 -9999.0 -9999.0 -9999.0 -9999.0 -9999.0 -9999.0 -9999.0 -9999.0 -9999.0 -9999.0 -9999.0 -9999.0 -9999.0 -9999.0 -9999.0 -9999.0 -9999.0 -9999.0 -9999.0 -9999.0 -9999.0 -9999.0 -9999.0 -9999.0 -9999.0 -9999.0 -9999.0 -9999.0 -9999.0 -9999.0 -9999.0 -9999.0 -9999.0 -9999.0 -9999.0 -9999.0 -9999.0 -9999.0 -9999.0 -9999.0 -9999.0
-9999.0 -9999.0 -9999.0 -9999.0 -9999.0 -9999.0 -9999.0 -9999.0 -9999.0 -9999.0 -9999.0 -9999.0 -9999.0 -9999.0 -9999.0 -9999.0 -9999.0 -9999.0 -9999.0 -9999.0 -9999.0 -9999.0 -9999.0 -9999.0 -9999.0 -9999.0 3407.2 3273.7 3151.1 3005.1 2841.0 2737.3 2647.5 2642.6 2745.1 2678.2 2522.4 2392.7 2370.8 2464.4 2570.3 2651.8 2619.3 2499.2 2366.1 2188.6 2017.1 1959.5 1930.6 1970.8 2058.4 2092.8 2262.1 2447.8 2518.8 2384.8 2232.4 2349.6 2231.4 2014.2 1801.7 1590.0 1420.9 1411.7 1583.5 1783.9 1886.2 2031.3 2183.8 2345.4 2510.1 2505.4 2385.3 2299.0 2209.5 2111.6 2070.0 2194.6 2319.7 2248.6 2285.3 2360.3 2264.9 2375.4 2287.9 2333.8 2450.5 2406.7 2298.4 2153.1 2187.6 2278.5 2210.5 2007.7 1869.8 1759.3 1616.9 1474.2 1382.0 1321.1 1208.9 1061.6 969.0 823.5 783.6 888.2 1118.6 1292.4 1325.3 1451.1 1624.6 1702.2 1741.6 1720.4 1715.1 1880.3 1972.7 1984.3 1930.8 1866.1 1815.5 1772.6 1641.8 1393.2 1220.3 1121.2 1006.2 947.0 931.3 938.5 904.6 868.9 837.9 637.2 577.8 765.3 934.5 987.9 1011.0 1023.9 1033.7 1104.8 1158.8 1209.4 1241.3 1269.8 1313.5 1362.9 1406.1 1426.0 1447.5 1391.9 1339.2 1377.9 1415.9 1462.4 1577.1 1714.6 1765.4 1860.2 2017.0 2001.4 2026.2 1989.4 1720.9 1410.0 1222.9 1079.9 837.5 622.6 552.6 514.6 486.3 466.8 461.1 461.0 461.2 420.6 268.4 364.6 488.0 513.5 541.4 609.0 767.5 836.8 895.5 949.5 983.6 1015.1 1059.4 1053.7 1099.5 1129.7 1101.5 1256.2 1439.9 1417.7 1368.2 1508.5 1665.5 1745.4 1678.6 1748.2 1876.5 1930.1 2001.0 2062.2 2103.3 2115.0 2153.2 2228.3 2305.8 2318.6 2305.8 2254.8 2231.6 2201.3 2085.2 1938.5 1900.1 2107.7 2303.9 2427.7 2469.5 2461.4 2427.5 2342.7 2261.2 2137.1 2052.8 2101.3 2150.8 2283.0 2321.4 2185.8 2069.7 2003.8 1986.9 1983.2 1901.8 1843.4 1784.9 1665.3 1333.7 1197.8 1235.0 1372.2 1532.4 1763.0 1913.7 2042.7 2185.3 2277.2 2414.0 2475.2 2493.3 2458.2 2433.0 2443.2 2427.5 2383.2 2295.5 2322.1 2422.9 2496.3 2545.3 2591.0 2590.8 2542.4 2587.5 2610.9 2538.3 2643.0 2622.9 2489.4 2466.0 2500.5 2465.3 2329.4 2235.1 2244.3 2309.7 -9999.0 -9999.0 -9999.0 -9999.0 -9999.0 -9999.0 -9999.0 -9999.0 -9999.0 -9999.0 -9999.0 -9999.0 -9999.0 -9999.0 -9999.0 -9999.0 -9999.0 -9999.0 -9999.0 -9999.0 -9999.0 -9999.0 -9999.0 -9999.0 -9999.0 -9999.0 -9999.0 -9999.0 -9999.0 -9999.0 -9999.0 -9999.0 -9999.0 -9999.0 -9999.0 -9999.0 -9999.0 -9999.0 -9999.0 -9999.0 -9999.0 -9999.0 -9999.0 -9999.0 -9999.0 -9999.0 -9999.0 -9999.0 -9999.0 -9999.0 -9999.0 -9999.0 -9999.0 -9999.0 -9999.0 -9999.0 -9999.0 -9999.0 -9999.0 -9999.0 -9999.0 -9999.0 -9999.0 -9999.0 -9999.0 -9999.0 -9999.0 -9999.0 -9999.0 -9999.0 -9999.0 -9999.0 -9999.0 -9999.0 -9999.0 -9999.0 -9999.0 -9999.0 -9999.0 -9999.0 -9999.0 -9999.0 -9999.0 -9999.0 -9999.0 -9999.0 -9999.0 -9999.0 -9999.0 -9999.0 -9999.0 -9999.0 -9999.0 -9999.0 -9999.0 -9999.0 -9999.0 -9999.0 -9999.0 -9999.0 -9999.0 -9999.0 -9999.0 -9999.0 -9999.0 -9999.0 -9999.0 -9999.0 -9999.0 -9999.0 -9999.0 -9999.0 -9999.0 -9999.0 -9999.0 -9999.0 -9999.0 -9999.0 -9999.0 -9999.0 -9999.0 -9999.0 -9999.0 -9999.0 -9999.0 -9999.0 -9999.0 -9999.0 -9999.0 -9999.0 -9999.0 -9999.0 -9999.0 -9999.0
-9999.0 -9999.0 -9999.0 -9999.0 -9999.0 -9999.0 -9999.0 -9999.0 -9999.0 -9999.0 -9999.0 -9999.0 -9999.0 -9999.0 -9999.0 -9999.0 -9999.0 -9999.0 -9999.0 -9999.0 -9999.0 -9999.0 -9999.0 -9999.0 -9999.0 -9999.0 -9999.0 -9999.0 -9999.0 3052.4 3002.5 2889.1 2812.2 2720.6 2633.4 2565.5 2492.8 2420.5 2247.2 2211.4 2258.0 2328.1 2344.3 2237.2 2127.2 2025.7 2018.5 2107.5 2183.5 2296.3 2451.9 2491.9 2499.2 2663.2 2572.6 2379.0 2302.5 2383.0 2278.0 2116.3 1943.4 1755.9 1517.9 1382.3 1440.6 1577.0 1697.9 1876.0 2035.7 2189.8 2381.8 2452.0 2326.7 2220.7 2136.0 2043.1 1926.1 2070.6 2140.8 2079.1 2195.3 2112.3 2075.6 2166.5 2052.4 2174.5 2144.4 2059.2 2104.0 1956.9 1873.6 1973.9 1889.9 1764.1 1666.4 1528.0 1390.5 1331.6 1198.2 1097.1 1011.0 898.0 805.5 806.8 921.4 1213.9 1452.8 1591.2 1593.4 1547.0 1673.1 1822.0 1950.0 1865.0 1787.8 1920.3 1992.4 2018.3 1938.4 1870.1 1802.4 1676.2 1505.7 1357.1 1179.7 1077.7 1003.4 956.6 932.8 933.5 908.1 853.3 799.5 553.2 534.8 813.0 891.9 944.1 997.0 973.7 1019.8 1101.0 1141.0 1170.7 1208.9 1252.7 1281.3 1330.2 1396.5 1443.0 1487.5 1510.2 1426.4 1456.7 1468.2 1522.9 1514.3 1540.7 1671.0 1717.1 1795.6 1884.1 2025.5 1868.4 1598.1 1350.7 1210.1 1041.6 763.6 592.9 510.8 475.5 463.6 459.5 460.0 460.3 460.9 411.5 277.4 476.2 592.1 611.2 632.4 736.9 868.3 941.9 1027.7 1123.6 1181.5 1252.8 1291.3 1246.8 1281.6 1261.1 1160.5 1158.4 1282.0 1454.1 1434.9 1388.0 1471.4 1528.4 1541.5 1671.6 1756.0 1803.6 1873.3 1980.3 2052.6 2157.4 2244.1 2327.4 2444.8 2482.5 2402.3 2236.7 2133.2 2078.9 1944.1 1834.3 1940.0 2109.5 2247.4 2152.5 2150.5 2141.7 2096.0 2010.4 1968.6 2017.9 2136.9 2252.8 2253.3 2327.1 2410.7 2267.2 2109.6 1946.3 1824.1 1763.6 1738.3 1685.5 1512.7 1250.7 1157.3 1338.2 1527.8 1685.2 1828.0 2010.0 2129.5 2233.1 2286.3 2303.1 2250.2 2356.6 2514.8 2638.3 2531.2 2351.0 2270.5 2216.1 2205.6 2243.4 2333.0 2391.3 2418.1 2466.2 2488.7 2424.5 2430.3 2453.1 2437.3 2522.2 2533.0 2487.6 2364.9 2374.5 2361.0 2302.7 2155.5 2179.0 2282.0 -9999.0 -9999.0 -9999.0 -9999.0 -9999.0 -9999.0 -9999.0 -9999.0 -9999.0 -9999.0 -9999.0 -9999.0 -9999.0 -9999.0 -9999.0 -9999.0 -9999.0 -9999.0 -9999.0 -9999.0 -9999.0 -9999.0 -9999.0 -9999.0 -9999.0 -9999.0 -9999.0 -9999.0 -9999.0 -9999.0 -9999.0 -9999.0 -9999.0 -9999.0 -9999.0 -9999.0 -9999.0 -9999.0 -9999.0 -9999.0 -9999.0 -9999.0 -9999.0 -9999.0 -9999.0 -9999.0 -9999.0 -9999.0 -9999.0 -9999.0 -9999.0 -9999.0 -9999.0 -9999.0 -9999.0 -9999.0 -9999.0 -9999.0 -9999.0 -9999.0 -9999.0 -9999.0 -9999.0 -9999.0 -9999.0 -9999.0 -9999.0 -9999.0 -9999.0 -9999.0 -9999.0 -9999.0 -9999.0 -9999.0 -9999.0 -9999.0 -9999.0 -9999.0 -9999.0 -9999.0 -9999.0 -9999.0 -9999.0 -9999.0 -9999.0 -9999.0 -9999.0 -9999.0 -9999.0 -9999.0 -9999.0 -9999.0 -9999.0 -9999.0 -9999.0 -9999.0 -9999.0 -9999.0 -9999.0 -9999.0 -9999.0 -9999.0 -9999.0 -9999.0 -9999.0 -9999.0 -9999.0 -9999.0 -9999.0 -9999.0 -9999.0 -9999.0 -9999.0 -9999.0 -9999.0 -9999.0 -9999.0 -9999.0 -9999.0 -9999.0 -9999.0 -9999.0 -9999.0 -9999.0 -9999.0 -9999.0 -9999.0 -9999.0 -9999.0 -9999.0 -9999.0 -9999.0 -9999.0 -9999.0
-9999.0 -9999.0 -9999.0 -9999.0 -9999.0 -9999.0 -9999.0 -9999.0 -9999.0 -9999.0 -9999.0 -9999.0 -9999.0 -9999.0 -9999.0 -9999.0 -9999.0 -9999.0 -9999.0 -9999.0 -9999.0 -9999.0 -9999.0 -9999.0 -9999.0 -9999.0 -9999.0 -9999.0 -9999.0 -9999.0 -9999.0 -9999.0 3029.2 3040.9 2881.0 2812.3 2718.5 2597.9 2428.3 2275.6 2157.5 2103.6 2080.3 2041.6 2044.6 2131.5 2322.8 2467.1 2411.5 2529.3 2746.9 2671.1 2642.7 2728.8 2573.5 2424.6 2437.7 2500.8 2285.2 2087.4 1928.4 1769.3 1583.3 1425.0 1372.3 1488.4 1612.2 1729.4 1875.6 1997.9 2225.3 2401.4 2314.5 2148.1 2031.3 1903.6 1803.8 1913.8 1984.2 1925.2 2026.9 1911.7 1821.2 1858.2 1907.3 1957.5 1906.7 1765.9 1834.6 1760.3 1605.5 1666.2 1535.2 1460.3 1389.9 1226.7 1088.6 995.5 874.7 834.3 810.3 801.8 851.4 1025.0 1283.5 1540.4 1768.6 1839.0 1784.7 1688.1 1716.0 1868.3 2067.2 2026.0 1873.2 1961.5 1961.0 1906.0 1800.3 1699.2 1622.6 1540.0 1391.6 1291.3 1174.7 1023.9 963.0 933.4 939.2 928.4 901.3 854.4 796.8 603.3 465.4 746.1 831.8 913.9 943.4 930.9 975.1 1028.2 1055.0 1060.8 1093.8 1125.7 1205.4 1292.1 1364.5 1433.3 1494.9 1562.9 1577.6 1541.0 1579.5 1745.1 1771.4 1678.1 1639.5 1781.5 1857.4 1984.1 1915.9 1701.0 1486.3 1305.7 1179.1 1046.9 780.6 582.1 488.0 462.7 459.9 458.8 458.8 458.0 442.9 332.5 278.6 497.4 591.7 653.9 687.8 766.4 887.4 1002.1 1160.0 1345.8 1491.4 1585.7 1691.6 1584.6 1457.4 1348.4 1256.6 1239.4 1228.8 1257.3 1317.2 1452.4 1579.9 1622.6 1667.6 1681.9 1729.5 1805.3 1867.9 1959.0 2072.1 2168.0 2304.7 2426.0 2492.7 2453.7 2378.1 2234.5 2091.9 1968.9 1839.9 1810.2 1990.2 2116.4 2105.3 1923.9 1866.5 1850.7 1834.0 1901.5 2048.2 2238.7 2367.4 2384.2 2422.1 2407.0 2418.2 2280.0 2084.0 1942.4 1808.9 1650.9 1590.4 1594.8 1242.1 1160.4 1400.4 1681.9 1830.1 1899.1 2048.6 2226.5 2225.2 2128.2 2063.2 2043.8 2153.3 2352.0 2456.7 2461.9 2302.7 2168.7 2081.9 2115.6 2133.8 2187.5 2244.9 2274.5 2307.7 2350.6 2394.1 2333.9 2276.1 2301.4 2318.2 2426.0 2417.6 2441.3 2411.0 2279.7 2199.4 2166.8 2067.1 2197.4 2390.4 -9999.0 -9999.0 -9999.0 -9999.0 -9999.0 -9999.0 -9999.0 -9999.0 -9999.0 -9999.0 -9999.0 -9999.0 -9999.0 -9999.0 -9999.0 -9999.0 -9999.0 -9999.0 -9999.0 -9999.0 -9999.0 -9999.0 -9999.0 -9999.0 -9999.0 -9999.0 -9999.0 -9999.0 -9999.0 -9999.0 -9999.0 -9999.0 -9999.0 -9999.0 -9999.0 -9999.0 -9999.0 -9999.0 -9999.0 -9999.0 -9999.0 -9999.0 -9999.0 -9999.0 -9999.0 -9999.0 -9999.0 -9999.0 -9999.0 -9999.0 -9999.0 -9999.0 -9999.0 -9999.0 -9999.0 -9999.0 -9999.0 -9999.0 -9999.0 -9999.0 -9999.0 -9999.0 -9999.0 -9999.0 -9999.0 -9999.0 -9999.0 -9999.0 -9999.0 -9999.0 -9999.0 -9999.0 -9999.0 -9999.0 -9999.0 -9999.0 -9999.0 -9999.0 -9999.0 -9999.0 -9999.0 -9999.0 -9999.0 -9999.0 -9999.0 -9999.0 -9999.0 -9999.0 -9999.0 -9999.0 -9999.0 -9999.0 -9999.0 -9999.0 -9999.0 -9999.0 -9999.0 -9999.0 -9999.0 -9999.0 -9999.0 -9999.0 -9999.0 -9999.0 -9999.0 -9999.0 -9999.0 -9999.0 -9999.0 -9999.0 -9999.0 -9999.0 -9999.0 -9999.0 -9999.0 -9999.0 -9999.0 -9999.0 -9999.0 -9999.0 -9999.0 -9999.0 -9999.0 -9999.0 -9999.0 -9999.0 -9999.0 -9999.0 -9999.0 -9999.0 -9999.0 -9999.0 -9999.0 -9999.0
-9999.0 -9999.0 -9999.0 -9999.0 -9999.0 -9999.0 -9999.0 -9999.0 -9999.0 -9999.0 -9999.0 -9999.0 -9999.0 -9999.0 -9999.0 -9999.0 -9999.0 -9999.0 -9999.0 -9999.0 -9999.0 -9999.0 -9999.0 -9999.0 -9999.0 -9999.0 -9999.0 -9999.0 -9999.0 -9999.0 -9999.0 -9999.0 -9999.0 -9999.0 3114.3 3137.7 3054.1 2908.9 2728.9 2647.9 2495.5 2302.5 2178.2 2203.6 2246.9 2360.6 2581.0 2639.2 2552.5 2608.6 2840.0 2871.0 2842.8 2820.0 2620.9 2528.0 2591.6 2550.4 2347.4 2181.2 2032.0 1860.1 1697.7 1510.7 1355.8 1372.0 1484.0 1589.9 1723.6 1906.6 2183.4 2304.4 2267.7 2144.1 1965.0 1788.5 1673.6 1816.0 1849.3 1749.8 1770.7 1746.5 1579.5 1670.1 1718.3 1723.8 1679.2 1533.9 1533.0 1509.9 1364.5 1313.3 1220.7 1154.9 957.2 870.2 845.4 837.8 836.2 869.2 918.7 994.5 1144.4 1321.2 1417.5 1657.4 1913.6 1976.9 1967.5 1866.4 1899.4 1938.5 2102.8 2098.0 1998.5 1985.3 1985.8 1945.4 1879.0 1789.4 1602.0 1396.4 1183.2 1036.1 1001.0 975.6 913.7 892.5 931.8 938.4 895.4 851.5 775.4 542.2 488.9 743.3 815.7 861.7 895.7 950.8 1010.3 1055.2 1095.9 1148.6 1188.8 1196.7 1179.8 1250.1 1367.1 1437.7 1500.2 1565.8 1630.8 1653.5 1610.0 1736.7 1839.3 1838.4 1773.1 1841.1 1904.9 1830.9 1688.7 1485.4 1308.4 1157.0 1090.8 1004.8 740.7 561.6 471.3 460.8 459.7 457.9 457.6 440.1 303.2 275.1 298.3 489.2 577.6 645.4 712.8 858.8 1010.9 1123.3 1269.3 1496.9 1628.4 1707.2 1716.9 1660.4 1505.1 1387.6 1333.4 1360.2 1428.6 1358.1 1301.3 1382.4 1589.9 1774.9 1875.8 1941.0 1983.4 2076.5 2121.7 2071.0 2127.0 2174.6 2263.3 2279.9 2249.2 2138.6 2161.6 2160.5 2172.1 2081.9 1875.6 1768.8 1872.0 1893.4 1868.0 1736.5 1704.5 1769.8 1914.8 2087.7 2278.0 2399.3 2372.2 2272.3 2369.3 2499.7 2489.4 2338.9 2127.7 1935.2 1780.6 1659.8 1477.4 1335.8 1129.4 1332.8 1650.9 1885.6 2092.9 2227.1 2270.9 2267.2 2094.0 1908.2 1850.3 2009.9 2164.6 2181.9 2134.2 2135.2 2111.7 2011.9 1983.6 2054.6 2085.6 2134.3 2191.8 2195.1 2217.4 2259.5 2275.2 2274.5 2191.3 2212.8 2234.4 2323.6 2309.6 2343.6 2302.5 2229.9 2085.9 2010.9 2044.0 2226.3 2268.4 2290.7 2388.8 2464.0 -9999.0 -9999.0 -9999.0 -9999.0 -9999.0 -9999.0 -9999.0 -9999.0 -9999.0 -9999.0 -9999.0 -9999.0 -9999.0 -9999.0 -9999.0 -9999.0 -9999.0 -9999.0 -9999.0 -9999.0 -9999.0 -9999.0 -9999.0 -9999.0 -9999.0 -9999.0 -9999.0 -9999.0 -9999.0 -9999.0 -9999.0 -9999.0 -9999.0 -9999.0 -9999.0 -9999.0 -9999.0 -9999.0 -9999.0 -9999.0 -9999.0 -9999.0 -9999.0 -9999.0 -9999.0 -9999.0 -9999.0 -9999.0 -9999.0 -9999.0 -9999.0 -9999.0 -9999.0 -9999.0 -9999.0 -9999.0 -9999.0 -9999.0 -9999.0 -9999.0 -9999.0 -9999.0 -9999.0 -9999.0 -9999.0 -9999.0 -9999.0 -9999.0 -9999.0 -9999.0 -9999.0 -9999.0 -9999.0 -9999.0 -9999.0 -9999.0 -9999.0 -9999.0 -9999.0 -9999.0 -9999.0 -9999.0 -9999.0 -9999.0 -9999.0 -9999.0 -9999.0 -9999.0 -9999.0 -9999.0 -9999.0 -9999.0 -9999.0 -9999.0 -9999.0 -9999.0 -9999.0 -9999.0 -9999.0 -9999.0 -9999.0 -9999.0 -9999.0 -9999.0 -9999.0 -9999.0 -9999.0 -9999.0 -9999.0 -9999.0 -9999.0 -9999.0 -9999.0 -9999.0 -9999.0 -9999.0 -9999.0 -9999.0 -9999.0 -9999.0 -9999.0 -9999.0 -9999.0 -9999.0 -9999.0 -9999.0 -9999.0 -9999.0 -9999.0 -9999.0 -9999.0
-9999.0 -9999.0 -9999.0 -9999.0 -9999.0 -9999.0 -9999.0 -9999.0 -9999.0 -9999.0 -9999.0 -9999.0 -9999.0 -9999.0 -9999.0 -9999.0 -9999.0 -9999.0 -9999.0 -9999.0 -9999.0 -9999.0 -9999.0 -9999.0 -9999.0 -9999.0 -9999.0 -9999.0 -9999.0 -9999.0 -9999.0 -9999.0 -9999.0 -9999.0 -9999.0 -9999.0 3054.5 3025.6 2932.3 2811.5 2662.6 2530.2 2425.2 2580.7 2620.3 2582.7 2631.1 2790.7 2735.0 2755.9 2893.2 2902.0 2852.1 2778.4 2676.8 2651.9 2728.1 2614.4 2498.3 2373.0 2172.7 1955.5 1780.3 1612.1 1457.0 1320.1 1337.4 1412.7 1571.1 1817.8 1969.5 1972.0 1983.3 1938.6 1825.6 1722.3 1573.0 1550.9 1613.2 1570.4 1552.6 1536.4 1403.4 1442.8 1372.4 1232.9 1165.1 1115.2 1097.3 1031.1 961.9 906.2 875.4 873.4 876.3 1008.4 1074.0 1055.8 1044.0 1079.8 1143.3 1242.5 1444.8 1654.9 1669.8 1770.7 1980.4 2104.5 2115.2 2037.7 2065.9 2178.9 2222.3 2167.7 2112.0 2060.3 2041.1 2008.4 1909.6 1780.2 1598.1 1401.7 1014.0 899.0 829.7 855.1 871.5 829.2 861.1 901.1 882.2 835.0 775.8 520.2 491.4 739.6 793.9 851.4 921.3 947.4 1004.7 1048.6 1081.3 1133.1 1176.7 1214.2 1260.2 1304.6 1368.2 1439.4 1501.3 1579.9 1653.9 1695.7 1688.5 1686.1 1792.2 1839.0 1876.0 1874.4 1794.4 1527.9 1326.2 1239.2 1164.9 1060.7 1015.5 870.1 639.5 512.7 461.4 458.8 458.4 457.5 431.6 299.5 276.3 331.7 457.1 505.9 604.7 675.8 817.4 980.3 1153.7 1353.5 1504.5 1601.9 1634.4 1618.0 1544.5 1432.7 1402.0 1438.3 1475.7 1475.2 1581.7 1475.3 1358.7 1313.3 1399.5 1532.4 1703.2 1810.0 1939.7 1960.4 2033.3 2136.6 2187.5 2155.2 2042.7 1949.6 1927.5 1934.5 1934.1 1889.4 1908.8 1865.6 1777.5 1708.4 1698.6 1648.8 1617.6 1622.2 1734.1 1869.2 2095.5 2317.9 2407.9 2327.7 2244.3 2127.8 2280.7 2437.9 2448.7 2349.3 2138.8 2028.7 1869.1 1693.0 1498.8 1152.8 1176.3 1560.3 1792.8 1963.7 2036.6 2014.0 2022.5 2072.5 1949.3 1745.4 1715.4 1799.0 1871.7 1939.4 1883.5 1964.4 2022.7 1908.8 1917.0 1994.1 2031.5 2105.5 2175.4 2145.2 2113.8 2154.2 2157.7 2155.1 2137.6 2164.1 2139.3 2129.6 2106.9 2071.1 2035.7 1994.8 1950.5 1966.9 2002.5 2043.3 2106.2 2204.0 2288.9 2354.2 2434.6 2477.3 -9999.0 -9999.0 -9999.0 -9999.0 -9999.0 -9999.0 -9999.0 -9999.0 -9999.0 -9999.0 -9999.0 -9999.0 -9999.0 -9999.0 -9999.0 -9999.0 -9999.0 -9999.0 -9999.0 -9999.0 -9999.0 -9999.0 -9999.0 -9999.0 -9999.0 -9999.0 -9999.0 -9999.0 -9999.0 -9999.0 -9999.0 -9999.0 -9999.0 -9999.0 -9999.0 -9999.0 -9999.0 -9999.0 -9999.0 -9999.0 -9999.0 -9999.0 -9999.0 -9999.0 -9999.0 -9999.0 -9999.0 -9999.0 -9999.0 -9999.0 -9999.0 -9999.0 -9999.0 -9999.0 -9999.0 -9999.0 -9999.0 -9999.0 -9999.0 -9999.0 -9999.0 -9999.0 -9999.0 -9999.0 -9999.0 -9999.0 -9999.0 -9999.0 -9999.0 -9999.0 -9999.0 -9999.0 -9999.0 -9999.0 -9999.0 -9999.0 -9999.0 -9999.0 -9999.0 -9999.0 -9999.0 -9999.0 -9999.0 -9999.0 -9999.0 -9999.0 -9999.0 -9999.0 -9999.0 -9999.0 -9999.0 -9999.0 -9999.0 -9999.0 -9999.0 -9999.0 -9999.0 -9999.0 -9999.0 -9999.0 -9999.0 -9999.0 -9999.0 -9999.0 -9999.0 -9999.0 -9999.0 -9999.0 -9999.0 -9999.0 -9999.0 -9999.0 -9999.0 -9999.0 -9999.0 -9999.0 -9999.0 -9999.0 -9999.0 -9999.0 -9999.0 -9999.0 -9999.0 -9999.0 -9999.0 -9999.0 -9999.0 -9999.0 -9999.0
-9999.0 -9999.0 -9999.0 -9999.0 -9999.0 -9999.0 -9999.0 -9999.0 -9999.0 -9999.0 -9999.0 -9999.0 -9999.0 -9999.0 -9999.0 -9999.0 -9999.0 -9999.0 -9999.0 -9999.0 -9999.0 -9999.0 -9999.0 -9999.0 -9999.0 -9999.0 -9999.0 -9999.0 -9999.0 -9999.0 -9999.0 -9999.0 -9999.0 -9999.0 -9999.0 -9999.0 2945.0 2890.7 2847.3 2845.6 2802.0 2706.4 2625.2 2762.6 2822.7 2761.4 2769.2 2924.9 2950.6 2950.9 2928.8 2796.5 2705.4 2688.0 2700.2 2751.0 2773.7 2645.8 2518.1 2450.1 2348.3 2233.6 2095.4 1903.4 1715.0 1512.3 1306.8 1252.9 1314.4 1480.1 1563.7 1571.6 1617.9 1598.4 1539.4 1469.9 1387.3 1291.6 1203.3 1167.2 1147.6 1087.5 1076.7 1053.9 972.2 935.9 942.6 932.3 928.8 931.4 965.5 992.4 1038.8 1081.2 1116.5 1204.2 1202.8 1149.4 1185.7 1257.8 1318.5 1362.9 1537.4 1770.2 2026.5 2112.4 2026.1 2116.5 2198.6 2140.8 2225.8 2412.9 2312.4 2232.3 2166.3 2085.9 1902.2 1903.9 1797.8 1648.8 1450.3 1162.9 933.0 1096.3 927.8 811.9 774.3 763.6 760.0 806.3 835.3 827.0 792.7 597.5 448.4 576.5 757.4 832.1 902.2 946.7 1009.5 1033.2 1072.7 1106.8 1168.4 1195.0 1262.9 1338.2 1393.4 1435.3 1497.9 1571.8 1640.9 1695.9 1705.3 1691.8 1746.9 1801.6 1872.1 1856.7 1544.8 1257.7 1101.4 989.3 929.4 851.7 759.7 650.1 521.4 464.3 459.4 457.5 457.1 425.6 286.7 271.6 324.6 467.9 509.2 560.4 648.1 713.8 818.7 967.4 1155.8 1345.9 1451.1 1459.4 1431.3 1387.3 1305.6 1329.0 1409.9 1446.3 1421.8 1445.9 1514.2 1522.5 1445.1 1358.5 1340.6 1411.5 1510.9 1594.1 1708.1 1690.1 1795.6 1887.0 1889.6 1906.9 1841.5 1782.6 1715.6 1738.8 1716.0 1692.8 1691.5 1673.2 1672.1 1707.6 1706.1 1620.5 1524.0 1594.5 1808.5 2019.2 2144.8 2356.2 2352.7 2181.5 2057.5 2051.7 2190.1 2343.7 2345.6 2364.2 2289.1 2179.3 1980.2 1747.2 1462.7 1098.2 1188.4 1477.4 1652.2 1714.9 1684.3 1713.9 1661.5 1740.7 1692.7 1563.4 1544.7 1598.3 1659.1 1716.6 1741.7 1792.6 1825.4 1820.2 1888.8 1931.1 1999.7 2059.6 2082.7 2091.3 2017.6 2053.0 2057.6 2045.5 2038.8 2053.5 2010.7 1956.3 1916.8 1957.2 1989.9 2006.9 2038.7 2090.7 2133.1 2105.4 2057.1 2072.0 2152.9 2239.8 2332.3 2464.6 2676.8 -9999.0 -9999.0 -9999.0 -9999.0 -9999.0 -9999.0 -9999.0 -9999.0 -9999.0 -9999.0 -9999.0 -9999.0 -9999.0 -9999.0 -9999.0 -9999.0 -9999.0 -9999.0 -9999.0 -9999.0 -9999.0 -9999.0 -9999.0 -9999.0 -9999.0 -9999.0 -9999.0 -9999.0 -9999.0 -9999.0 -9999.0 -9999.0 -9999.0 -9999.0 -9999.0 -9999.0 -9999.0 -9999.0 -9999.0 -9999.0 -9999.0 -9999.0 -9999.0 -9999.0 -9999.0 -9999.0 -9999.0 -9999.0 -9999.0 -9999.0 -9999.0 -9999.0 -9999.0 -9999.0 -9999.0 -9999.0 -9999.0 -9999.0 -9999.0 -9999.0 -9999.0 -9999.0 -9999.0 -9999.0 -9999.0 -9999.0 -9999.0 -9999.0 -9999.0 -9999.0 -9999.0 -9999.0 -9999.0 -9999.0 -9999.0 -9999.0 -9999.0 -9999.0 -9999.0 -9999.0 -9999.0 -9999.0 -9999.0 -9999.0 -9999.0 -9999.0 -9999.0 -9999.0 -9999.0 -9999.0 -9999.0 -9999.0 -9999.0 -9999.0 -9999.0 -9999.0 -9999.0 -9999.0 -9999.0 -9999.0 -9999.0 -9999.0 -9999.0 -9999.0 -9999.0 -9999.0 -9999.0 -9999.0 -9999.0 -9999.0 -9999.0 -9999.0 -9999.0 -9999.0 -9999.0 -9999.0 -9999.0 -9999.0 -9999.0 -9999.0 -9999.0 -9999.0 -9999.0 -9999.0 -9999.0 -9999.0 -9999.0 -9999.0
-9999.0 -9999.0 -9999.0 -9999.0 -9999.0 -9999.0 -9999.0 -9999.0 -9999.0 -9999.0 -9999.0 -9999.0 -9999.0 -9999.0 -9999.0 -9999.0 -9999.0 -9999.0 -9999.0 -9999.0 -9999.0 -9999.0 -9999.0 -9999.0 -9999.0 -9999.0 -9999.0 -9999.0 -9999.0 -9999.0 -9999.0 -9999.0 -9999.0 -9999.0 -9999.0 -9999.0 -9999.0 2837.4 2780.4 2724.7 2696.1 2686.7 2737.2 2931.5 3061.3 2997.7 2944.5 2877.8 2773.9 2720.2 2734.4 2777.7 2698.3 2528.0 2432.1 2501.7 2470.0 2413.4 2320.6 2239.0 2171.9 2142.8 2131.2 2039.6 1901.3 1769.9 1555.8 1339.0 1172.4 1106.3 1081.3 1101.2 1150.3 1108.7 1066.7 1048.7 1030.8 1012.7 987.1 1001.8 1010.7 1009.0 1001.7 1014.5 1060.8 1125.8 1245.7 1278.3 1276.0 1289.2 1304.2 1303.8 1303.2 1347.7 1323.7 1332.7 1322.5 1247.2 1235.6 1387.5 1436.7 1498.9 1592.7 1774.3 2103.7 2257.2 2194.7 2188.4 2243.0 2323.3 2376.1 2424.1 2393.8 2305.7 2178.1 2047.2 1820.2 1677.1 1498.4 1251.1 1054.6 1000.1 1131.6 1212.8 1042.0 918.3 850.8 814.9 787.7 712.6 722.9 789.2 773.3 714.4 519.7 453.2 707.5 799.5 890.4 973.0 973.9 1032.3 1111.6 1132.4 1150.1 1148.6 1194.6 1273.3 1297.9 1304.4 1385.9 1374.5 1451.9 1507.0 1600.7 1691.4 1773.8 1825.1 1843.7 1598.8 1286.4 1091.1 953.5 846.1 770.2 689.6 606.0 539.7 466.5 459.4 457.8 457.6 426.5 284.9 269.9 329.4 454.6 500.4 597.0 636.5 681.4 766.9 787.7 852.8 967.5 1074.7 1139.2 1170.2 1192.1 1239.3 1297.3 1389.4 1492.4 1594.4 1580.7 1603.6 1595.0 1592.0 1577.5 1545.3 1424.8 1376.1 1408.1 1495.9 1526.5 1526.0 1656.7 1738.7 1684.5 1665.8 1668.3 1645.6 1597.7 1599.3 1587.8 1578.5 1593.8 1622.3 1752.2 1848.6 1864.9 1691.6 1524.9 1491.0 1649.2 1902.5 2157.9 2371.1 2317.1 2147.1 1921.7 1987.5 2168.1 2328.8 2287.3 2249.7 2317.4 2151.8 1896.7 1653.0 1372.4 1092.8 1217.0 1294.4 1350.7 1366.7 1379.1 1400.9 1390.3 1407.2 1417.5 1435.0 1545.2 1595.7 1611.3 1642.5 1663.1 1675.9 1719.7 1782.9 1803.0 1840.3 1873.4 1892.4 1914.4 1952.0 1949.7 1923.3 1909.4 1918.7 1912.3 1904.8 1879.4 1871.1 1922.9 2052.7 2076.9 2120.1 2178.3 2271.9 2366.9 2370.3 2274.4 2161.6 2074.6 2097.9 2228.8 2446.3 2718.1 2883.2 -9999.0 -9999.0 -9999.0 -9999.0 -9999.0 -9999.0 -9999.0 -9999.0 -9999.0 -9999.0 -9999.0 -9999.0 -9999.0 -9999.0 -9999.0 -9999.0 -9999.0 -9999.0 -9999.0 -9999.0 -9999.0 -9999.0 -9999.0 -9999.0 -9999.0 -9999.0 -9999.0 -9999.0 -9999.0 -9999.0 -9999.0 -9999.0 -9999.0 -9999.0 -9999.0 -9999.0 -9999.0 -9999.0 -9999.0 -9999.0 -9999.0 -9999.0 -9999.0 -9999.0 -9999.0 -9999.0 -9999.0 -9999.0 -9999.0 -9999.0 -9999.0 -9999.0 -9999.0 -9999.0 -9999.0 -9999.0 -9999.0 -9999.0 -9999.0 -9999.0 -9999.0 -9999.0 -9999.0 -9999.0 -9999.0 -9999.0 -9999.0 -9999.0 -9999.0 -9999.0 -9999.0 -9999.0 -9999.0 -9999.0 -9999.0 -9999.0 -9999.0 -9999.0 -9999.0 -9999.0 -9999.0 -9999.0 -9999.0 -9999.0 -9999.0 -9999.0 -9999.0 -9999.0 -9999.0 -9999.0 -9999.0 -9999.0 -9999.0 -9999.0 -9999.0 -9999.0 -9999.0 -9999.0 -9999.0 -9999.0 -9999.0 -9999.0 -9999.0 -9999.0 -9999.0 -9999.0 -9999.0 -9999.0 -9999.0 -9999.0 -9999.0 -9999.0 -9999.0 -9999.0 -9999.0 -9999.0 -9999.0 -9999.0 -9999.0 -9999.0 -9999.0 -9999.0 -9999.0 -9999.0 -9999.0 -9999.0 -9999.0
-9999.0 -9999.0 -9999.0 -9999.0 -9999.0 -9999.0 -9999.0 -9999.0 -9999.0 -9999.0 -9999.0 -9999.0 -9999.0 -9999.0 -9999.0 -9999.0 -9999.0 -9999.0 -9999.0 -9999.0 -9999.0 -9999.0 -9999.0 -9999.0 -9999.0 -9999.0 -9999.0 -9999.0 -9999.0 -9999.0 -9999.0 -9999.0 -9999.0 -9999.0 -9999.0 -9999.0 -9999.0 -9999.0 2792.8 2821.9 2902.6 2947.6 2941.2 2917.1 2972.8 3099.4 3016.7 2866.9 2731.2 2520.4 2451.9 2485.9 2551.5 2524.5 2386.9 2256.1 2173.0 2175.9 2192.6 2057.4 1933.2 1891.3 1869.1 1770.9 1618.3 1461.0 1293.2 1157.6 1108.2 1089.0 1071.8 1050.2 1047.3 1049.9 1081.4 1144.2 1156.9 1156.1 1221.0 1315.0 1359.2 1372.1 1382.7 1389.1 1450.4 1452.9 1431.2 1491.4 1497.7 1489.7 1492.0 1458.6 1420.2 1495.4 1435.0 1479.0 1436.8 1309.7 1304.5 1450.9 1524.7 1600.4 1766.5 1967.8 2081.1 2252.0 2318.6 2312.7 2300.4 2351.3 2339.6 2304.2 2294.9 2217.4 1954.9 1781.3 1711.5 1537.0 1227.6 1018.7 1063.6 1248.7 1413.4 1287.7 1090.0 977.5 890.5 836.4 805.7 747.5 681.5 695.1 705.2 741.9 632.6 454.8 690.3 780.2 852.7 920.3 954.2 1025.2 1067.6 1097.8 1084.9 1089.0 1120.6 1118.5 1072.2 1092.7 1141.1 1270.1 1462.3 1545.9 1577.1 1613.7 1727.8 1853.4 1766.1 1458.4 1167.3 1006.3 895.0 784.5 689.0 604.5 521.1 467.3 459.8 458.0 457.4 426.5 285.8 268.7 343.0 455.0 500.7 613.5 679.1 759.2 925.6 1068.5 1024.4 930.4 1053.2 1039.6 1082.1 1151.2 1266.2 1369.0 1460.2 1493.7 1570.7 1616.0 1723.5 1726.4 1691.5 1676.0 1662.1 1681.9 1651.9 1490.4 1334.0 1338.3 1460.2 1563.3 1611.8 1593.8 1565.7 1548.0 1554.4 1553.1 1524.5 1506.1 1479.5 1473.5 1498.0 1580.4 1669.0 1766.5 1767.1 1640.0 1487.5 1427.9 1557.7 1758.3 1981.0 2176.5 2190.8 1999.9 1766.5 1912.8 2121.8 2323.3 2262.2 2025.5 2060.3 2098.0 1878.7 1564.3 1151.6 1063.4 1215.4 1349.4 1433.3 1453.4 1501.6 1523.1 1529.1 1452.7 1419.6 1462.3 1505.4 1510.2 1564.5 1641.0 1654.4 1623.5 1626.1 1671.8 1680.4 1713.4 1732.0 1789.1 1858.0 1975.0 2028.5 1962.6 1855.0 1789.0 1779.1 1782.1 1808.7 1832.5 1947.0 2063.9 2099.9 2144.0 2183.7 2251.6 2396.4 2459.9 2374.9 2353.4 2257.7 2154.5 2199.5 2381.8 2667.3 2750.3 -9999.0 -9999.0 -9999.0 -9999.0 -9999.0 -9999.0 -9999.0 -9999.0 -9999.0 -9999.0 -9999.0 -9999.0 -9999.0 -9999.0 -9999.0 -9999.0 -9999.0 -9999.0 -9999.0 -9999.0 -9999.0 -9999.0 -9999.0 -9999.0 -9999.0 -9999.0 -9999.0 -9999.0 -9999.0 -9999.0 -9999.0 -9999.0 -9999.0 -9999.0 -9999.0 -9999.0 -9999.0 -9999.0 -9999.0 -9999.0 -9999.0 -9999.0 -9999.0 -9999.0 -9999.0 -9999.0 -9999.0 -9999.0 -9999.0 -9999.0 -9999.0 -9999.0 -9999.0 -9999.0 -9999.0 -9999.0 -9999.0 -9999.0 -9999.0 -9999.0 -9999.0 -9999.0 -9999.0 -9999.0 -9999.0 -9999.0 -9999.0 -9999.0 -9999.0 -9999.0 -9999.0 -9999.0 -9999.0 -9999.0 -9999.0 -9999.0 -9999.0 -9999.0 -9999.0 -9999.0 -9999.0 -9999.0 -9999.0 -9999.0 -9999.0 -9999.0 -9999.0 -9999.0 -9999.0 -9999.0 -9999.0 -9999.0 -9999.0 -9999.0 -9999.0 -9999.0 -9999.0 -9999.0 -9999.0 -9999.0 -9999.0 -9999.0 -9999.0 -9999.0 -9999.0 -9999.0 -9999.0 -9999.0 -9999.0 -9999.0 -9999.0 -9999.0 -9999.0 -9999.0 -9999.0 -9999.0 -9999.0 -9999.0 -9999.0 -9999.0 -9999.0 -9999.0 -9999.0 -9999.0 -9999.0 -9999.0 -9999.0
-9999.0 -9999.0 -9999.0 -9999.0 -9999.0 -9999.0 -9999.0 -9999.0 -9999.0 -9999.0 -9999.0 -9999.0 -9999.0 -9999.0 -9999.0 -9999.0 -9999.0 -9999.0 -9999.0 -9999.0 -9999.0 -9999.0 -9999.0 -9999.0 -9999.0 -9999.0 -9999.0 -9999.0 -9999.0 -9999.0 -9999.0 -9999.0 -9999.0 -9999.0 -9999.0 -9999.0 -9999.0 -9999.0 3016.7 3020.0 3072.8 3001.6 2841.6 2760.2 2801.8 2866.4 2913.4 2809.3 2683.6 2573.0 2414.9 2275.1 2234.5 2232.9 2218.5 2217.4 2127.9 1954.5 1939.0 1907.3 1727.1 1638.0 1506.1 1366.4 1230.9 1171.8 1206.9 1321.5 1421.8 1400.2 1367.7 1390.5 1477.3 1449.7 1441.1 1516.6 1549.5 1570.7 1599.2 1610.0 1585.7 1654.1 1655.1 1627.6 1668.8 1635.5 1646.9 1676.4 1668.4 1660.7 1660.1 1667.7 1662.9 1616.6 1595.0 1612.7 1516.3 1374.9 1358.3 1531.2 1636.2 1687.9 1885.2 2128.0 2324.9 2261.9 2364.9 2435.7 2348.2 2310.7 2253.2 2086.2 2038.7 1912.0 1699.3 1565.1 1412.5 1239.9 1060.1 1149.1 1299.2 1458.7 1657.2 1496.0 1227.2 1084.6 968.7 874.9 830.5 797.1 755.3 733.4 673.6 701.1 559.4 460.9 699.3 746.7 793.0 854.4 953.8 1013.5 1062.3 1012.8 1017.2 1057.7 990.8 1095.1 1160.9 1263.3 1220.6 1372.3 1554.7 1669.0 1762.7 1793.4 1874.3 1900.7 1663.2 1338.3 1161.0 959.8 870.1 765.6 606.0 521.6 470.7 461.1 458.9 457.6 441.8 295.8 265.5 344.1 464.9 530.3 657.0 738.6 865.7 1036.6 1246.9 1399.7 1244.8 1096.2 1236.4 1316.1 1333.0 1275.3 1450.3 1584.6 1719.1 1747.7 1801.2 1796.0 1809.7 1800.6 1746.6 1758.7 1758.9 1723.4 1619.4 1547.6 1329.1 1274.8 1445.7 1616.6 1588.2 1510.0 1480.8 1501.6 1515.7 1490.2 1455.5 1412.2 1392.1 1404.7 1469.1 1521.9 1490.1 1523.9 1536.1 1517.9 1454.6 1372.5 1464.7 1652.4 1929.5 2026.7 1890.8 1713.7 1663.0 1939.1 2215.6 2312.3 2164.6 1862.8 1712.3 1784.1 1672.7 1325.9 1069.1 1132.3 1244.3 1397.4 1632.7 1724.9 1777.7 1795.8 1721.9 1611.2 1587.9 1706.8 1728.6 1673.3 1574.5 1567.9 1569.3 1580.1 1591.8 1620.4 1655.4 1685.1 1726.7 1722.6 1696.2 1791.9 1846.4 1862.5 1761.4 1754.8 1782.0 1826.0 1849.3 1878.4 1955.2 2084.7 2155.4 2188.0 2222.5 2160.8 2218.3 2389.6 2450.3 2449.8 2314.4 2207.6 2267.4 2461.3 2660.9 2708.1 -9999.0 -9999.0 -9999.0 -9999.0 -9999.0 -9999.0 -9999.0 -9999.0 -9999.0 -9999.0 -9999.0 -9999.0 -9999.0 -9999.0 -9999.0 -9999.0 -9999.0 -9999.0 -9999.0 -9999.0 -9999.0 -9999.0 -9999.0 -9999.0 -9999.0 -9999.0 -9999.0 -9999.0 -9999.0 -9999.0 -9999.0 -9999.0 -9999.0 -9999.0 -9999.0 -9999.0 -9999.0 -9999.0 -9999.0 -9999.0 -9999.0 -9999.0 -9999.0 -9999.0 -9999.0 -9999.0 -9999.0 -9999.0 -9999.0 -9999.0 -9999.0 -9999.0 -9999.0 -9999.0 -9999.0 -9999.0 -9999.0 -9999.0 -9999.0 -9999.0 -9999.0 -9999.0 -9999.0 -9999.0 -9999.0 -9999.0 -9999.0 -9999.0 -9999.0 -9999.0 -9999.0 -9999.0 -9999.0 -9999.0 -9999.0 -9999.0 -9999.0 -9999.0 -9999.0 -9999.0 -9999.0 -9999.0 -9999.0 -9999.0 -9999.0 -9999.0 -9999.0 -9999.0 -9999.0 -9999.0 -9999.0 -9999.0 -9999.0 -9999.0 -9999.0 -9999.0 -9999.0 -9999.0 -9999.0 -9999.0 -9999.0 -9999.0 -9999.0 -9999.0 -9999.0 -9999.0 -9999.0 -9999.0 -9999.0 -9999.0 -9999.0 -9999.0 -9999.0 -9999.0 -9999.0 -9999.0 -9999.0 -9999.0 -9999.0 -9999.0 -9999.0 -9999.0 -9999.0 -9999.0 -9999.0 -9999.0 -9999.0
-9999.0 -9999.0 -9999.0 -9999.0 -9999.0 -9999.0 -9999.0 -9999.0 -9999.0 -9999.0 -9999.0 -9999.0 -9999.0 -9999.0 -9999.0 -9999.0 -9999.0 -9999.0 -9999.0 -9999.0 -9999.0 -9999.0 -9999.0 -9999.0 -9999.0 -9999.0 -9999.0 -9999.0 -9999.0 -9999.0 -9999.0 -9999.0 -9999.0 -9999.0 -9999.0 -9999.0 -9999.0 -9999.0 3049.5 3003.6 2959.9 2882.1 2737.4 2576.3 2554.7 2593.4 2715.4 2740.4 2787.4 2755.7 2622.9 2449.6 2300.6 2174.8 2069.4 1990.1 1990.7 1881.0 1729.8 1622.1 1456.5 1289.3 1221.3 1230.0 1285.9 1438.0 1601.1 1680.2 1685.9 1650.7 1536.1 1513.5 1680.8 1689.2 1546.1 1547.3 1656.6 1725.6 1762.6 1799.4 1793.6 1833.4 1821.4 1761.6 1801.4 1811.0 1819.7 1842.2 1844.5 1849.8 1826.8 1915.2 1858.7 1778.5 1757.8 1671.9 1545.6 1482.0 1461.5 1540.4 1742.0 1778.2 1893.7 2148.8 2405.3 2352.9 2440.3 2387.7 2349.2 2344.3 2298.4 2079.9 1751.2 1626.2 1516.4 1354.4 1201.7 1078.3 1194.3 1373.5 1543.8 1725.6 1778.7 1598.4 1400.4 1162.3 986.2 892.8 847.7 813.7 809.3 805.2 783.0 690.2 458.9 498.0 711.3 730.0 745.0 818.9 903.3 971.4 979.8 932.6 954.5 968.7 1050.4 1179.2 1278.3 1369.7 1423.7 1390.0 1506.7 1716.3 1894.6 1936.7 1857.0 1734.6 1507.3 1366.0 1231.7 996.5 888.2 750.9 549.0 473.8 462.2 459.7 458.4 451.7 318.2 262.9 335.9 535.9 671.8 766.9 870.2 982.8 1099.3 1244.5 1497.2 1546.5 1343.5 1235.5 1374.9 1596.9 1689.7 1554.9 1608.1 1750.6 1829.1 1863.4 1868.4 1867.8 1835.0 1753.9 1694.3 1653.1 1626.6 1553.3 1481.5 1417.7 1306.4 1230.6 1313.8 1419.8 1391.9 1399.3 1463.1 1487.8 1448.4 1386.4 1359.9 1340.6 1322.1 1359.3 1382.3 1364.3 1343.4 1368.7 1346.1 1374.3 1390.1 1307.4 1380.1 1540.1 1693.3 1769.7 1682.2 1519.3 1559.5 1880.9 2033.3 2029.4 1921.5 1705.7 1456.9 1405.6 1195.8 1053.7 1052.5 1210.4 1269.2 1358.6 1497.3 1621.5 1684.3 1713.3 1722.0 1755.0 1744.4 1776.5 1872.3 1832.8 1818.7 1825.8 1830.4 1853.8 1756.0 1750.7 1776.7 1758.6 1773.9 1830.2 1733.6 1736.7 1771.6 1782.3 1847.3 2016.1 2015.8 1988.3 1976.3 1949.7 1972.6 2057.0 2116.3 2153.7 2199.0 2099.5 2057.3 2249.7 2418.2 2426.5 2350.8 2321.4 2460.8 2660.6 2765.9 -9999.0 -9999.0 -9999.0 -9999.0 -9999.0 -9999.0 -9999.0 -9999.0 -9999.0 -9999.0 -9999.0 -9999.0 -9999.0 -9999.0 -9999.0 -9999.0 -9999.0 -9999.0 -9999.0 -9999.0 -9999.0 -9999.0 -9999.0 -9999.0 -9999.0 -9999.0 -9999.0 -9999.0 -9999.0 -9999.0 -9999.0 -9999.0 -9999.0 -9999.0 -9999.0 -9999.0 -9999.0 -9999.0 -9999.0 -9999.0 -9999.0 -9999.0 -9999.0 -9999.0 -9999.0 -9999.0 -9999.0 -9999.0 -9999.0 -9999.0 -9999.0 -9999.0 -9999.0 -9999.0 -9999.0 -9999.0 -9999.0 -9999.0 -9999.0 -9999.0 -9999.0 -9999.0 -9999.0 -9999.0 -9999.0 -9999.0 -9999.0 -9999.0 -9999.0 -9999.0 -9999.0 -9999.0 -9999.0 -9999.0 -9999.0 -9999.0 -9999.0 -9999.0 -9999.0 -9999.0 -9999.0 -9999.0 -9999.0 -9999.0 -9999.0 -9999.0 -9999.0 -9999.0 -9999.0 -9999.0 -9999.0 -9999.0 -9999.0 -9999.0 -9999.0 -9999.0 -9999.0 -9999.0 -9999.0 -9999.0 -9999.0 -9999.0 -9999.0 -9999.0 -9999.0 -9999.0 -9999.0 -9999.0 -9999.0 -9999.0 -9999.0 -9999.0 -9999.0 -9999.0 -9999.0 -9999.0 -9999.0 -9999.0 -9999.0 -9999.0 -9999.0 -9999.0 -9999.0 -9999.0 -9999.0 -9999.0 -9999.0 -9999.0
-9999.0 -9999.0 -9999.0 -9999.0 -9999.0 -9999.0 -9999.0 -9999.0 -9999.0 -9999.0 -9999.0 -9999.0 -9999.0 -9999.0 -9999.0 -9999.0 -9999.0 -9999.0 -9999.0 -9999.0 -9999.0 -9999.0 -9999.0 -9999.0 -9999.0 -9999.0 -9999.0 -9999.0 -9999.0 -9999.0 -9999.0 -9999.0 -9999.0 -9999.0 -9999.0 -9999.0 -9999.0 2859.8 2867.0 2827.2 2932.7 2877.6 2710.8 2531.5 2394.4 2325.0 2410.2 2467.9 2557.5 2502.9 2483.0 2341.5 2299.0 2242.5 2115.1 1924.8 1760.3 1649.0 1491.9 1294.6 1269.5 1336.2 1532.6 1692.4 1731.9 1732.2 1834.3 1832.2 1876.8 1814.4 1575.7 1519.8 1751.0 1893.0 1718.5 1589.8 1627.4 1789.1 1898.5 1987.5 1988.9 2015.7 1986.9 1891.0 1974.6 2021.4 1977.4 2052.7 2046.6 1987.0 2048.5 2104.3 2017.1 1994.4 1840.9 1705.8 1556.9 1522.6 1529.5 1668.6 1882.9 1916.1 1930.2 2224.4 2517.6 2548.4 2454.4 2387.5 2357.4 2388.7 2320.0 2021.1 1765.3 1614.1 1471.2 1406.3 1250.5 1099.4 1372.8 1640.6 1815.8 1896.4 1807.8 1585.8 1426.7 1326.5 1035.2 903.1 860.0 819.0 807.9 839.0 831.7 706.2 464.2 489.2 708.9 703.0 726.0 773.6 872.3 930.5 874.7 904.9 962.8 1059.6 1165.7 1272.5 1414.2 1550.3 1659.7 1679.7 1670.0 1709.1 1838.2 1755.8 1522.8 1425.5 1367.4 1299.1 1243.7 1100.4 925.6 676.1 512.0 464.7 461.3 459.3 458.2 376.7 264.7 308.1 578.9 825.7 986.7 1115.4 1243.5 1428.1 1568.8 1604.3 1625.9 1519.1 1407.3 1420.5 1600.3 1750.6 1921.7 1891.3 1791.4 1697.3 1749.4 1812.6 1837.1 1813.0 1760.3 1721.7 1716.6 1681.7 1619.8 1574.3 1521.6 1455.8 1375.4 1289.0 1224.8 1237.9 1291.5 1349.4 1411.7 1396.9 1333.7 1306.1 1304.9 1265.7 1259.6 1286.7 1279.9 1240.0 1234.5 1243.2 1237.2 1284.2 1335.4 1269.6 1287.0 1352.2 1438.0 1510.6 1484.1 1401.3 1375.6 1547.8 1619.2 1608.8 1550.0 1409.4 1209.3 1079.4 1024.3 1057.2 1186.4 1293.6 1384.6 1462.1 1522.4 1585.0 1670.6 1745.9 1836.3 1877.5 1834.7 1837.3 1944.6 1953.1 1981.1 1995.4 1971.9 1990.4 1874.0 1931.4 1974.6 1846.6 1833.6 1909.0 1792.6 1884.0 2021.6 2091.3 2166.1 2285.5 2238.0 2162.8 2096.6 2031.5 2016.3 2064.2 2110.9 2142.1 2181.1 2177.9 2009.4 2112.4 2333.0 2349.8 2456.5 2546.4 2618.0 2720.2 2813.5 -9999.0 -9999.0 -9999.0 -9999.0 -9999.0 -9999.0 -9999.0 -9999.0 -9999.0 -9999.0 -9999.0 -9999.0 -9999.0 -9999.0 -9999.0 -9999.0 -9999.0 -9999.0 -9999.0 -9999.0 -9999.0 -9999.0 -9999.0 -9999.0 -9999.0 -9999.0 -9999.0 -9999.0 -9999.0 -9999.0 -9999.0 -9999.0 -9999.0 -9999.0 -9999.0 -9999.0 -9999.0 -9999.0 -9999.0 -9999.0 -9999.0 -9999.0 -9999.0 -9999.0 -9999.0 -9999.0 -9999.0 -9999.0 -9999.0 -9999.0 -9999.0 -9999.0 -9999.0 -9999.0 -9999.0 -9999.0 -9999.0 -9999.0 -9999.0 -9999.0 -9999.0 -9999.0 -9999.0 -9999.0 -9999.0 -9999.0 -9999.0 -9999.0 -9999.0 -9999.0 -9999.0 -9999.0 -9999.0 -9999.0 -9999.0 -9999.0 -9999.0 -9999.0 -9999.0 -9999.0 -9999.0 -9999.0 -9999.0 -9999.0 -9999.0 -9999.0 -9999.0 -9999.0 -9999.0 -9999.0 -9999.0 -9999.0 -9999.0 -9999.0 -9999.0 -9999.0 -9999.0 -9999.0 -9999.0 -9999.0 -9999.0 -9999.0 -9999.0 -9999.0 -9999.0 -9999.0 -9999.0 -9999.0 -9999.0 -9999.0 -9999.0 -9999.0 -9999.0 -9999.0 -9999.0 -9999.0 -9999.0 -9999.0 -9999.0 -9999.0 -9999.0 -9999.0 -9999.0 -9999.0 -9999.0 -9999.0 -9999.0 -9999.0
-9999.0 -9999.0 -9999.0 -9999.0 -9999.0 -9999.0 -9999.0 -9999.0 -9999.0 -9999.0 -9999.0 -9999.0 -9999.0 -9999.0 -9999.0 -9999.0 -9999.0 -9999.0 -9999.0 -9999.0 -9999.0 -9999.0 -9999.0 -9999.0 -9999.0 -9999.0 -9999.0 -9999.0 -9999.0 -9999.0 -9999.0 -9999.0 -9999.0 -9999.0 -9999.0 -9999.0 2842.5 2741.6 2679.8 2676.6 2741.3 2865.0 2766.3 2666.4 2528.0 2341.5 2209.4 2190.2 2258.5 2224.6 2257.8 2223.0 2082.7 2031.1 1876.2 1687.9 1541.4 1473.8 1437.5 1418.8 1555.8 1736.4 1931.5 2012.9 1994.5 1836.2 1933.0 1992.5 1999.0 1845.4 1598.1 1540.1 1756.7 2015.5 1925.8 1734.1 1710.2 1876.0 2000.5 2176.7 2165.7 2151.3 2112.1 2058.0 2103.2 2205.2 2114.9 2199.1 2173.9 2177.9 2270.3 2173.7 2076.6 1960.6 1840.4 1692.4 1533.4 1579.7 1770.0 1925.4 2035.8 2197.8 2315.1 2497.0 2624.2 2516.3 2474.3 2464.3 2466.9 2453.9 2236.0 1988.7 1812.9 1651.7 1526.9 1431.6 1204.1 1141.4 1465.2 1842.3 1914.5 1890.6 1753.1 1576.1 1472.7 1404.0 1071.9 928.7 868.3 827.8 811.6 814.0 795.7 614.4 431.3 584.3 690.2 700.3 731.5 756.3 835.3 818.2 893.3 1057.9 1144.2 1226.4 1302.3 1328.5 1446.5 1625.6 1799.3 1798.9 1770.2 1687.6 1697.6 1564.7 1441.5 1338.3 1288.5 1282.9 1284.9 1189.0 905.9 664.6 493.8 468.9 461.0 459.4 457.3 311.8 275.0 474.1 676.7 981.3 1150.3 1339.8 1489.7 1673.8 1774.3 1769.9 1709.2 1665.5 1653.9 1698.2 1854.7 1945.9 2021.7 1990.3 1896.4 1745.6 1601.1 1642.2 1695.2 1702.3 1677.9 1653.2 1650.0 1633.4 1579.0 1588.4 1542.9 1472.1 1387.9 1297.0 1190.1 1233.1 1262.9 1322.0 1358.8 1313.8 1260.4 1233.4 1221.6 1207.8 1184.4 1103.7 1034.6 1008.3 985.7 968.8 979.3 985.2 988.4 1011.7 1079.5 1103.0 1130.8 1132.6 1177.3 1205.0 1206.2 1215.6 1174.4 1164.5 1125.6 1051.6 1014.6 1030.9 1111.4 1261.9 1352.5 1485.2 1571.2 1630.5 1679.0 1704.0 1807.5 1883.9 1948.1 1982.6 1952.9 1885.9 1939.8 2090.9 2119.5 2120.3 2084.1 2049.6 1987.6 2103.1 2083.4 1894.6 1960.6 2063.5 1883.0 1851.6 1894.4 1971.2 2197.1 2345.6 2411.2 2385.4 2292.0 2118.3 2094.1 2136.4 2179.0 2225.0 2298.2 2343.3 2036.2 1971.6 2050.1 2218.5 2463.3 2659.6 2716.1 2743.9 2806.6 -9999.0 -9999.0 -9999.0 -9999.0 -9999.0 -9999.0 -9999.0 -9999.0 -9999.0 -9999.0 -9999.0 -9999.0 -9999.0 -9999.0 -9999.0 -9999.0 -9999.0 -9999.0 -9999.0 -9999.0 -9999.0 -9999.0 -9999.0 -9999.0 -9999.0 -9999.0 -9999.0 -9999.0 -9999.0 -9999.0 -9999.0 -9999.0 -9999.0 -9999.0 -9999.0 -9999.0 -9999.0 -9999.0 -9999.0 -9999.0 -9999.0 -9999.0 -9999.0 -9999.0 -9999.0 -9999.0 -9999.0 -9999.0 -9999.0 -9999.0 -9999.0 -9999.0 -9999.0 -9999.0 -9999.0 -9999.0 -9999.0 -9999.0 -9999.0 -9999.0 -9999.0 -9999.0 -9999.0 -9999.0 -9999.0 -9999.0 -9999.0 -9999.0 -9999.0 -9999.0 -9999.0 -9999.0 -9999.0 -9999.0 -9999.0 -9999.0 -9999.0 -9999.0 -9999.0 -9999.0 -9999.0 -9999.0 -9999.0 -9999.0 -9999.0 -9999.0 -9999.0 -9999.0 -9999.0 -9999.0 -9999.0 -9999.0 -9999.0 -9999.0 -9999.0 -9999.0 -9999.0 -9999.0 -9999.0 -9999.0 -9999.0 -9999.0 -9999.0 -9999.0 -9999.0 -9999.0 -9999.0 -9999.0 -9999.0 -9999.0 -9999.0 -9999.0 -9999.0 -9999.0 -9999.0 -9999.0 -9999.0 -9999.0 -9999.0 -9999.0 -9999.0 -9999.0 -9999.0 -9999.0 -9999.0 -9999.0 -9999.0 -9999.0
-9999.0 -9999.0 -9999.0 -9999.0 -9999.0 -9999.0 -9999.0 -9999.0 -9999.0 -9999.0 -9999.0 -9999.0 -9999.0 -9999.0 -9999.0 -9999.0 -9999.0 -9999.0 -9999.0 -9999.0 -9999.0 -9999.0 -9999.0 -9999.0 -9999.0 -9999.0 -9999.0 -9999.0 -9999.0 -9999.0 -9999.0 -9999.0 -9999.0 -9999.0 -9999.0 2802.7 2679.9 2598.0 2516.4 2505.0 2592.4 2742.5 2698.3 2609.0 2612.6 2517.9 2394.2 2214.0 2092.6 2028.7 1963.1 1956.0 1882.8 1770.5 1630.1 1509.4 1492.7 1616.4 1757.6 1892.9 1955.8 1861.1 2031.0 2167.2 2002.9 1950.8 2072.6 2186.0 2079.3 1867.8 1612.9 1593.1 1894.2 2126.2 1927.3 1826.3 1939.2 2010.3 2083.4 2323.5 2362.8 2301.3 2295.2 2275.9 2216.2 2300.9 2210.5 2222.9 2243.3 2292.6 2209.7 2101.2 2011.0 1892.0 1783.3 1630.8 1575.3 1777.6 1983.3 2202.7 2305.7 2473.6 2625.6 2694.5 2613.8 2567.0 2592.1 2562.6 2501.4 2344.0 2148.1 1942.7 1773.8 1535.1 1320.0 1236.2 1194.1 1319.6 1653.5 2000.7 1971.0 1866.9 1706.5 1580.2 1508.4 1417.6 1095.2 950.2 890.4 846.6 810.2 774.8 705.1 476.1 419.1 657.7 650.7 653.0 689.1 721.1 764.4 904.8 1036.3 1152.4 1252.9 1383.3 1490.4 1560.6 1628.1 1715.9 1709.4 1519.6 1438.5 1439.0 1609.5 1627.2 1544.1 1432.8 1431.7 1425.7 1434.0 1308.4 1055.4 784.4 488.4 460.9 458.7 457.7 440.9 276.1 328.9 580.4 790.7 1047.0 1261.7 1318.5 1377.3 1462.5 1567.0 1600.1 1657.8 1788.2 1855.2 1946.3 1976.8 1976.6 1943.5 1918.1 1861.2 1707.9 1591.6 1511.5 1542.8 1537.0 1554.8 1548.0 1518.2 1503.6 1571.7 1586.5 1520.2 1453.5 1402.7 1301.2 1161.3 1228.0 1239.9 1229.5 1227.1 1191.8 1109.2 1022.1 1007.0 988.3 941.1 919.6 940.6 956.2 959.4 990.9 1004.6 1002.9 1013.5 983.4 963.1 965.1 973.4 968.3 970.7 979.7 988.7 995.8 993.2 1017.8 1041.0 1059.3 1117.6 1294.3 1448.0 1488.5 1468.8 1531.6 1718.2 1801.0 1807.4 1771.7 1820.5 2037.9 2080.0 2072.3 2084.7 1989.5 1896.2 2170.5 2258.9 2233.5 2155.9 2165.4 2127.3 2250.1 2173.8 2054.5 2085.1 2240.0 2075.9 2041.7 2208.2 2111.6 2096.6 2391.7 2541.6 2576.2 2430.0 2240.0 2167.0 2182.5 2286.5 2374.2 2425.5 2339.4 2131.4 1931.3 1874.6 2129.4 2306.3 2497.3 2614.5 2687.6 2823.5 -9999.0 -9999.0 -9999.0 -9999.0 -9999.0 -9999.0 -9999.0 -9999.0 -9999.0 -9999.0 -9999.0 -9999.0 -9999.0 -9999.0 -9999.0 -9999.0 -9999.0 -9999.0 -9999.0 -9999.0 -9999.0 -9999.0 -9999.0 -9999.0 -9999.0 -9999.0 -9999.0 -9999.0 -9999.0 -9999.0 -9999.0 -9999.0 -9999.0 -9999.0 -9999.0 -9999.0 -9999.0 -9999.0 -9999.0 -9999.0 -9999.0 -9999.0 -9999.0 -9999.0 -9999.0 -9999.0 -9999.0 -9999.0 -9999.0 -9999.0 -9999.0 -9999.0 -9999.0 -9999.0 -9999.0 -9999.0 -9999.0 -9999.0 -9999.0 -9999.0 -9999.0 -9999.0 -9999.0 -9999.0 -9999.0 -9999.0 -9999.0 -9999.0 -9999.0 -9999.0 -9999.0 -9999.0 -9999.0 -9999.0 -9999.0 -9999.0 -9999.0 -9999.0 -9999.0 -9999.0 -9999.0 -9999.0 -9999.0 -9999.0 -9999.0 -9999.0 -9999.0 -9999.0 -9999.0 -9999.0 -9999.0 -9999.0 -9999.0 -9999.0 -9999.0 -9999.0 -9999.0 -9999.0 -9999.0 -9999.0 -9999.0 -9999.0 -9999.0 -9999.0 -9999.0 -9999.0 -9999.0 -9999.0 -9999.0 -9999.0 -9999.0 -9999.0 -9999.0 -9999.0 -9999.0 -9999.0 -9999.0 -9999.0 -9999.0 -9999.0 -9999.0 -9999.0 -9999.0 -9999.0 -9999.0 -9999.0 -9999.0 -9999.0
-9999.0 -9999.0 -9999.0 -9999.0 -9999.0 -9999.0 -9999.0 -9999.0 -9999.0 -9999.0 -9999.0 -9999.0 -9999.0 -9999.0 -9999.0 -9999.0 -9999.0 -9999.0 -9999.0 -9999.0 -9999.0 -9999.0 -9999.0 -9999.0 -9999.0 -9999.0 -9999.0 -9999.0 -9999.0 -9999.0 -9999.0 -9999.0 -9999.0 -9999.0 -9999.0 -9999.0 -9999.0 2653.1 2514.6 2411.1 2426.3 2515.2 2534.8 2406.6 2385.9 2314.6 2261.2 2192.2 2094.8 1937.1 1750.4 1670.2 1634.7 1593.8 1515.0 1511.3 1681.9 1889.6 2015.3 2118.2 2128.1 1963.2 2043.3 2172.1 2084.9 2130.8 2214.9 2338.6 2154.4 1892.6 1651.5 1733.5 2105.7 2282.4 2104.0 2167.1 2258.9 2142.2 2210.7 2386.0 2485.0 2542.8 2505.0 2378.0 2294.0 2342.1 2274.0 2305.7 2338.0 2274.0 2157.3 2062.7 1941.0 1845.5 1734.0 1632.9 1639.5 1838.3 1935.5 2069.0 2269.4 2514.7 2693.8 2744.2 2651.2 2529.8 2453.4 2345.9 2274.6 2109.1 1954.2 1825.1 1710.3 1442.9 1278.4 1309.6 1374.3 1646.0 2032.8 2079.7 1960.3 1799.8 1641.5 1546.9 1510.4 1447.5 1129.7 949.1 902.4 871.5 794.6 729.0 668.1 450.9 381.7 587.5 628.1 693.6 729.9 758.9 788.7 871.9 1058.3 1160.8 1249.8 1319.7 1323.4 1435.1 1591.5 1730.7 1719.8 1529.3 1293.7 1237.2 1455.4 1588.6 1535.7 1426.0 1419.3 1403.0 1404.8 1278.1 1072.2 777.7 481.0 458.0 456.6 457.9 392.4 261.0 382.4 588.0 834.4 1151.1 1498.7 1632.9 1606.0 1594.5 1531.0 1529.1 1641.2 1767.6 1859.9 1951.3 1954.9 1873.7 1802.6 1768.0 1685.0 1586.8 1473.3 1479.0 1459.8 1406.4 1412.2 1456.0 1431.7 1484.2 1572.8 1563.2 1504.5 1467.6 1416.0 1334.7 1157.6 1141.4 1167.3 1130.3 1025.8 943.2 901.9 928.0 960.9 975.8 1009.0 1136.0 1183.8 1200.3 1206.0 1213.5 1246.0 1282.2 1271.3 1264.4 1246.5 1238.9 1237.3 1208.0 1179.3 1208.3 1218.9 1215.8 1263.1 1312.1 1326.1 1352.8 1413.0 1471.4 1655.9 1716.6 1702.4 1648.6 1710.9 1903.3 1965.0 1917.5 1869.5 2088.8 2199.0 2190.0 2172.0 1992.5 1931.4 2106.3 2327.0 2309.7 2290.1 2301.1 2291.4 2376.4 2307.7 2308.9 2221.8 2408.3 2382.4 2237.6 2355.6 2392.8 2312.9 2300.4 2515.7 2642.9 2574.5 2455.5 2239.9 2093.8 2208.2 2330.9 2340.3 2235.9 2126.8 1780.2 1807.9 2050.9 2254.3 2375.0 2415.2 2525.5 2750.2 -9999.0 -9999.0 -9999.0 -9999.0 -9999.0 -9999.0 -9999.0 -9999.0 -9999.0 -9999.0 -9999.0 -9999.0 -9999.0 -9999.0 -9999.0 -9999.0 -9999.0 -9999.0 -9999.0 -9999.0 -9999.0 -9999.0 -9999.0 -9999.0 -9999.0 -9999.0 -9999.0 -9999.0 -9999.0 -9999.0 -9999.0 -9999.0 -9999.0 -9999.0 -9999.0 -9999.0 -9999.0 -9999.0 -9999.0 -9999.0 -9999.0 -9999.0 -9999.0 -9999.0 -9999.0 -9999.0 -9999.0 -9999.0 -9999.0 -9999.0 -9999.0 -9999.0 -9999.0 -9999.0 -9999.0 -9999.0 -9999.0 -9999.0 -9999.0 -9999.0 -9999.0 -9999.0 -9999.0 -9999.0 -9999.0 -9999.0 -9999.0 -9999.0 -9999.0 -9999.0 -9999.0 -9999.0 -9999.0 -9999.0 -9999.0 -9999.0 -9999.0 -9999.0 -9999.0 -9999.0 -9999.0 -9999.0 -9999.0 -9999.0 -9999.0 -9999.0 -9999.0 -9999.0 -9999.0 -9999.0 -9999.0 -9999.0 -9999.0 -9999.0 -9999.0 -9999.0 -9999.0 -9999.0 -9999.0 -9999.0 -9999.0 -9999.0 -9999.0 -9999.0 -9999.0 -9999.0 -9999.0 -9999.0 -9999.0 -9999.0 -9999.0 -9999.0 -9999.0 -9999.0 -9999.0 -9999.0 -9999.0 -9999.0 -9999.0 -9999.0 -9999.0 -9999.0 -9999.0 -9999.0 -9999.0 -9999.0 -9999.0 -9999.0
-9999.0 -9999.0 -9999.0 -9999.0 -9999.0 -9999.0 -9999.0 -9999.0 -9999.0 -9999.0 -9999.0 -9999.0 -9999.0 -9999.0 -9999.0 -9999.0 -9999.0 -9999.0 -9999.0 -9999.0 -9999.0 -9999.0 -9999.0 -9999.0 -9999.0 -9999.0 -9999.0 -9999.0 -9999.0 -9999.0 -9999.0 -9999.0 -9999.0 -9999.0 -9999.0 -9999.0 -9999.0 -9999.0 2505.5 2365.5 2324.0 2325.8 2310.7 2265.2 2210.0 2155.7 2092.2 2013.4 1842.3 1681.5 1654.6 1701.2 1718.4 1620.3 1527.5 1641.3 1823.3 2001.3 2143.7 2281.2 2258.8 2171.1 2242.1 2237.8 2269.8 2423.6 2446.5 2484.0 2251.8 1986.6 1831.0 2004.5 2342.5 2453.9 2266.5 2390.7 2419.4 2257.7 2379.0 2474.3 2569.5 2637.8 2501.6 2385.6 2412.2 2378.0 2309.7 2295.8 2307.5 2254.0 2147.6 2039.6 1942.5 1861.1 1773.7 1670.3 1655.7 1930.1 2083.6 2179.8 2316.5 2531.1 2700.2 2781.6 2677.8 2504.9 2247.6 2107.9 2054.7 1924.3 1721.5 1598.9 1515.5 1378.0 1327.7 1394.9 1579.1 1921.5 2001.3 1931.8 1842.7 1689.7 1551.1 1449.8 1412.3 1335.6 1118.3 952.1 908.6 862.3 789.8 703.4 671.0 551.0 381.2 434.9 613.6 686.4 733.7 783.0 818.0 871.6 937.9 992.5 1026.4 1103.7 1250.7 1381.6 1515.4 1617.0 1564.4 1350.4 1194.5 1096.4 1199.8 1308.9 1321.0 1302.8 1305.4 1311.6 1337.7 1313.3 1215.8 823.5 484.5 456.3 457.1 453.6 305.1 271.8 436.9 572.5 838.2 1158.1 1481.8 1501.5 1434.4 1411.4 1489.8 1593.4 1659.2 1762.3 1905.5 1988.5 1954.8 1813.4 1713.5 1644.5 1554.2 1434.4 1297.3 1320.4 1397.6 1319.3 1322.8 1373.8 1352.4 1410.4 1498.3 1518.2 1498.4 1426.5 1361.2 1246.5 1004.8 900.6 896.0 889.0 904.1 968.6 1098.6 1233.3 1212.8 1237.9 1266.3 1290.2 1315.8 1314.5 1342.3 1334.8 1362.5 1431.5 1368.7 1458.9 1449.2 1448.7 1453.6 1446.5 1407.2 1457.6 1434.8 1379.7 1509.8 1545.4 1544.1 1524.1 1602.1 1645.8 1781.4 1897.8 1914.5 1886.0 1751.1 1953.0 2019.0 2132.7 2082.8 2127.9 2308.2 2289.8 2160.2 2080.0 2081.3 2035.8 2231.3 2473.5 2526.7 2501.0 2407.5 2494.5 2491.7 2521.9 2374.8 2379.5 2583.7 2473.4 2522.6 2570.0 2544.6 2519.9 2573.1 2677.5 2667.0 2476.0 2282.3 2128.7 2010.7 1998.6 2032.3 2016.6 1979.5 1738.6 1703.8 1906.6 2097.7 2169.5 2219.5 2377.0 2627.2 2859.1 -9999.0 -9999.0 -9999.0 -9999.0 -9999.0 -9999.0 -9999.0 -9999.0 -9999.0 -9999.0 -9999.0 -9999.0 -9999.0 -9999.0 -9999.0 -9999.0 -9999.0 -9999.0 -9999.0 -9999.0 -9999.0 -9999.0 -9999.0 -9999.0 -9999.0 -9999.0 -9999.0 -9999.0 -9999.0 -9999.0 -9999.0 -9999.0 -9999.0 -9999.0 -9999.0 -9999.0 -9999.0 -9999.0 -9999.0 -9999.0 -9999.0 -9999.0 -9999.0 -9999.0 -9999.0 -9999.0 -9999.0 -9999.0 -9999.0 -9999.0 -9999.0 -9999.0 -9999.0 -9999.0 -9999.0 -9999.0 -9999.0 -9999.0 -9999.0 -9999.0 -9999.0 -9999.0 -9999.0 -9999.0 -9999.0 -9999.0 -9999.0 -9999.0 -9999.0 -9999.0 -9999.0 -9999.0 -9999.0 -9999.0 -9999.0 -9999.0 -9999.0 -9999.0 -9999.0 -9999.0 -9999.0 -9999.0 -9999.0 -9999.0 -9999.0 -9999.0 -9999.0 -9999.0 -9999.0 -9999.0 -9999.0 -9999.0 -9999.0 -9999.0 -9999.0 -9999.0 -9999.0 -9999.0 -9999.0 -9999.0 -9999.0 -9999.0 -9999.0 -9999.0 -9999.0 -9999.0 -9999.0 -9999.0 -9999.0 -9999.0 -9999.0 -9999.0 -9999.0 -9999.0 -9999.0 -9999.0 -9999.0 -9999.0 -9999.0 -9999.0 -9999.0 -9999.0 -9999.0 -9999.0 -9999.0 -9999.0 -9999.0
-9999.0 -9999.0 -9999.0 -9999.0 -9999.0 -9999.0 -9999.0 -9999.0 -9999.0 -9999.0 -9999.0 -9999.0 -9999.0 -9999.0 -9999.0 -9999.0 -9999.0 -9999.0 -9999.0 -9999.0 -9999.0 -9999.0 -9999.0 -9999.0 -9999.0 -9999.0 -9999.0 -9999.0 -9999.0 -9999.0 -9999.0 -9999.0 -9999.0 -9999.0 -9999.0 -9999.0 -9999.0 -9999.0 -9999.0 2271.8 2229.6 2204.9 2181.2 2155.6 2120.8 2028.2 1909.8 1793.8 1689.4 1702.2 1832.9 1928.8 1860.3 1642.6 1634.8 1845.0 2028.9 2102.3 2241.4 2388.9 2427.0 2397.1 2464.1 2424.4 2476.0 2661.4 2651.9 2430.0 2196.2 1985.9 2034.5 2325.2 2549.2 2493.8 2301.5 2476.7 2512.9 2382.3 2434.3 2540.2 2693.1 2678.0 2515.7 2423.9 2319.3 2191.0 2158.8 2121.5 2123.3 2125.3 2091.0 2019.7 1933.3 1860.2 1805.2 1691.2 1689.0 1927.1 2149.8 2321.3 2440.1 2578.5 2664.4 2744.8 2678.2 2474.2 2231.4 2091.7 1982.6 1850.2 1674.6 1534.9 1474.5 1427.6 1415.6 1591.8 1776.8 1974.7 1896.3 1792.2 1741.3 1681.5 1543.9 1407.5 1257.3 1143.3 1037.8 943.3 894.6 846.8 779.2 699.3 626.9 567.2 396.5 384.4 645.0 716.5 754.7 745.8 757.0 802.2 835.9 902.4 1044.9 1195.4 1259.5 1410.5 1608.6 1668.3 1478.1 1186.5 1047.7 955.5 983.6 1207.7 1303.9 1332.4 1350.1 1365.3 1388.4 1353.2 1153.9 768.4 483.3 455.8 456.5 386.4 262.2 304.5 468.4 661.4 892.8 1129.1 1238.4 1182.3 1200.2 1315.9 1485.7 1644.3 1747.1 1794.8 1856.0 1885.1 1841.0 1786.5 1733.4 1680.5 1592.1 1422.7 1239.0 1139.1 1061.6 932.2 933.5 995.2 1066.3 1143.0 1250.7 1225.7 1087.0 993.5 951.2 893.8 873.1 944.9 1067.0 1204.5 1228.1 1344.7 1366.2 1438.4 1304.0 1389.2 1458.0 1493.8 1500.7 1416.7 1466.3 1469.8 1494.5 1544.2 1464.2 1624.8 1686.0 1694.0 1659.8 1663.2 1584.0 1649.9 1634.6 1500.0 1575.4 1709.2 1756.5 1728.6 1772.7 1777.5 1935.1 2021.8 2080.2 1961.4 1787.4 1967.9 2108.1 2211.9 2292.8 2243.0 2358.3 2332.4 2337.8 2221.9 2259.3 2187.6 2189.5 2401.3 2596.8 2690.9 2633.1 2519.4 2621.0 2654.5 2493.1 2445.0 2612.7 2704.0 2687.3 2743.5 2725.1 2742.7 2721.8 2570.1 2474.9 2392.1 2367.4 2247.9 2065.9 1931.4 1868.0 1815.1 1825.3 1764.4 1615.5 1777.5 1920.9 2027.3 2092.0 2294.5 2630.3 2812.5 -9999.0 -9999.0 -9999.0 -9999.0 -9999.0 -9999.0 -9999.0 -9999.0 -9999.0 -9999.0 -9999.0 -9999.0 -9999.0 -9999.0 -9999.0 -9999.0 -9999.0 -9999.0 -9999.0 -9999.0 -9999.0 -9999.0 -9999.0 -9999.0 -9999.0 -9999.0 -9999.0 -9999.0 -9999.0 -9999.0 -9999.0 -9999.0 -9999.0 -9999.0 -9999.0 -9999.0 -9999.0 -9999.0 -9999.0 -9999.0 -9999.0 -9999.0 -9999.0 -9999.0 -9999.0 -9999.0 -9999.0 -9999.0 -9999.0 -9999.0 -9999.0 -9999.0 -9999.0 -9999.0 -9999.0 -9999.0 -9999.0 -9999.0 -9999.0 -9999.0 -9999.0 -9999.0 -9999.0 -9999.0 -9999.0 -9999.0 -9999.0 -9999.0 -9999.0 -9999.0 -9999.0 -9999.0 -9999.0 -9999.0 -9999.0 -9999.0 -9999.0 -9999.0 -9999.0 -9999.0 -9999.0 -9999.0 -9999.0 -9999.0 -9999.0 -9999.0 -9999.0 -9999.0 -9999.0 -9999.0 -9999.0 -9999.0 -9999.0 -9999.0 -9999.0 -9999.0 -9999.0 -9999.0 -9999.0 -9999.0 -9999.0 -9999.0 -9999.0 -9999.0 -9999.0 -9999.0 -9999.0 -9999.0 -9999.0 -9999.0 -9999.0 -9999.0 -9999.0 -9999.0 -9999.0 -9999.0 -9999.0 -9999.0 -9999.0 -9999.0 -9999.0 -9999.0 -9999.0 -9999.0 -9999.0 -9999.0 -9999.0
-9999.0 -9999.0 -9999.0 -9999.0 -9999.0 -9999.0 -9999.0 -9999.0 -9999.0 -9999.0 -9999.0 -9999.0 -9999.0 -9999.0 -9999.0 -9999.0 -9999.0 -9999.0 -9999.0 -9999.0 -9999.0 -9999.0 -9999.0 -9999.0 -9999.0 -9999.0 -9999.0 -9999.0 -9999.0 -9999.0 -9999.0 -9999.0 -9999.0 -9999.0 -9999.0 -9999.0 -9999.0 -9999.0 -9999.0 2173.2 2148.1 2123.1 2110.3 2100.8 2053.6 1924.8 1803.5 1757.9 1783.2 1895.1 2037.9 2147.9 2011.9 1773.6 1793.8 2000.0 2339.9 2436.9 2353.2 2553.2 2639.1 2604.4 2682.0 2669.4 2652.2 2693.0 2481.2 2228.4 2078.8 2025.9 2190.8 2494.7 2696.2 2608.4 2475.5 2580.0 2572.6 2453.5 2574.0 2718.8 2741.4 2630.7 2514.9 2329.2 2205.7 2209.3 2254.6 2127.8 2068.8 2040.2 1988.7 1955.7 1899.1 1828.6 1773.3 1732.6 1839.4 1942.6 2090.0 2313.9 2497.0 2605.6 2600.1 2534.0 2417.6 2284.2 2163.7 1990.8 1827.5 1642.5 1544.8 1471.8 1431.7 1443.3 1523.5 1745.1 1956.9 2002.7 1891.4 1771.7 1633.7 1534.1 1436.2 1293.8 1148.1 1025.4 966.3 882.0 828.5 795.5 752.0 701.0 670.4 535.3 353.9 430.5 670.1 706.4 679.7 688.8 755.9 875.5 968.5 1113.5 1262.1 1402.6 1490.2 1638.6 1824.6 1879.4 1589.9 1257.1 1093.2 935.6 804.5 960.4 1153.6 1311.2 1300.7 1255.0 1311.4 1230.5 950.0 654.6 480.5 453.4 392.2 269.6 273.7 405.9 476.8 661.5 917.9 1003.0 999.9 1078.8 1245.5 1430.3 1647.8 1775.6 1785.9 1753.0 1784.6 1830.4 1755.8 1627.5 1510.9 1381.9 1346.0 1281.6 1174.6 919.1 785.9 890.1 957.7 888.3 848.9 851.4 859.4 860.2 854.5 908.6 956.3 1011.1 1140.8 1139.4 1208.3 1409.6 1490.9 1535.2 1553.7 1593.8 1425.8 1381.0 1534.8 1646.2 1632.9 1533.3 1586.9 1637.5 1664.7 1641.4 1550.3 1580.1 1716.0 1838.5 1893.8 1847.6 1824.5 1870.3 1826.4 1632.4 1587.4 1764.7 1923.0 1934.8 1987.0 1946.2 2023.8 2172.9 2171.7 1945.3 1832.3 1984.4 2224.4 2359.6 2465.7 2376.6 2441.9 2519.7 2535.4 2344.5 2326.4 2377.2 2254.4 2381.6 2546.2 2737.5 2798.5 2661.0 2572.5 2583.4 2586.9 2665.5 2694.7 2771.3 2665.3 2597.1 2596.0 2629.9 2672.3 2613.7 2462.2 2283.4 2176.8 2119.7 2133.1 2062.6 1916.0 1815.5 1746.1 1673.4 1541.2 1616.5 1803.3 1991.8 2137.6 2292.6 2529.7 2694.0 2796.9 -9999.0 -9999.0 -9999.0 -9999.0 -9999.0 -9999.0 -9999.0 -9999.0 2985.3 2917.1 -9999.0 -9999.0 -9999.0 -9999.0 -9999.0 -9999.0 -9999.0 -9999.0 -9999.0 -9999.0 -9999.0 -9999.0 -9999.0 -9999.0 -9999.0 -9999.0 -9999.0 -9999.0 -9999.0 -9999.0 -9999.0 -9999.0 -9999.0 -9999.0 -9999.0 -9999.0 -9999.0 -9999.0 -9999.0 -9999.0 -9999.0 -9999.0 -9999.0 -9999.0 -9999.0 -9999.0 -9999.0 -9999.0 -9999.0 -9999.0 -9999.0 -9999.0 -9999.0 -9999.0 -9999.0 -9999.0 -9999.0 -9999.0 -9999.0 -9999.0 -9999.0 -9999.0 -9999.0 -9999.0 -9999.0 -9999.0 -9999.0 -9999.0 -9999.0 -9999.0 -9999.0 -9999.0 -9999.0 -9999.0 -9999.0 -9999.0 -9999.0 -9999.0 -9999.0 -9999.0 -9999.0 -9999.0 -9999.0 -9999.0 -9999.0 -9999.0 -9999.0 -9999.0 -9999.0 -9999.0 -9999.0 -9999.0 -9999.0 -9999.0 -9999.0 -9999.0 -9999.0 -9999.0 -9999.0 -9999.0 -9999.0 -9999.0 -9999.0 -9999.0 -9999.0 -9999.0 -9999.0 -9999.0 -9999.0 -9999.0 -9999.0 -9999.0 -9999.0 -9999.0 -9999.0 -9999.0 -9999.0 -9999.0 -9999.0 -9999.0 -9999.0 -9999.0 -9999.0 -9999.0 -9999.0 -9999.0
-9999.0 -9999.0 -9999.0 -9999.0 -9999.0 -9999.0 -9999.0 -9999.0 -9999.0 -9999.0 -9999.0 -9999.0 -9999.0 -9999.0 -9999.0 -9999.0 -9999.0 -9999.0 -9999.0 -9999.0 -9999.0 -9999.0 -9999.0 -9999.0 -9999.0 -9999.0 -9999.0 -9999.0 -9999.0 -9999.0 -9999.0 -9999.0 -9999.0 -9999.0 -9999.0 -9999.0 -9999.0 -9999.0 -9999.0 2142.2 2118.3 2108.1 2108.2 2107.1 2007.2 1872.1 1879.5 1991.7 2117.5 2143.0 2264.0 2449.2 2299.8 2087.0 2078.5 2057.3 2244.3 2532.9 2551.0 2663.9 2872.3 2906.8 2933.7 2889.3 2760.4 2502.4 2316.8 2318.4 2371.3 2287.0 2370.2 2587.5 2816.6 2734.4 2591.9 2688.8 2701.7 2574.8 2652.4 2824.1 2760.1 2575.1 2478.5 2372.3 2307.4 2349.3 2288.2 2219.0 2188.4 2151.5 2069.2 1973.7 1885.9 1807.3 1779.3 1866.1 2061.3 2232.6 2219.8 2352.4 2619.4 2678.3 2606.6 2495.6 2319.5 2106.8 1990.6 1763.8 1611.6 1585.1 1499.9 1458.5 1496.6 1572.9 1710.7 1930.5 2061.7 1967.2 1852.6 1737.3 1648.9 1517.5 1373.4 1237.6 1125.2 1035.1 920.1 830.6 788.8 779.2 758.2 728.6 680.8 535.4 349.3 533.2 659.7 634.7 664.6 764.4 895.1 1051.1 1213.8 1319.1 1420.4 1597.1 1709.9 1897.3 1966.6 1919.5 1701.6 1540.4 1421.9 1159.4 737.3 670.4 763.0 853.5 893.6 819.8 826.4 773.9 591.7 482.1 447.9 362.5 270.0 269.4 371.3 454.7 491.9 675.4 808.4 938.7 1045.0 1183.7 1374.5 1547.8 1740.3 1801.1 1750.9 1708.0 1770.6 1827.7 1734.0 1490.0 1304.0 1191.3 1108.9 1014.1 831.9 776.1 899.2 1138.6 1298.1 1293.7 1174.3 1159.5 1142.6 1076.7 1205.3 1326.6 1267.4 1341.4 1437.1 1278.1 1199.8 1374.6 1588.5 1676.6 1671.2 1670.3 1459.0 1431.7 1628.7 1814.3 1781.9 1657.1 1750.9 1880.0 1902.4 1867.1 1911.0 1810.7 1705.1 1711.0 1911.5 2035.5 2069.7 2052.1 1917.3 1735.6 1618.2 1804.2 2049.8 2161.6 2199.3 2106.6 2061.0 2254.6 2238.6 1968.1 1938.7 2135.6 2354.8 2519.9 2413.3 2378.8 2509.8 2548.2 2592.2 2488.1 2462.8 2519.7 2483.0 2432.6 2510.5 2586.5 2666.8 2571.5 2358.5 2357.5 2450.8 2524.0 2515.4 2530.3 2464.7 2421.7 2416.0 2463.1 2561.3 2585.3 2402.3 2302.8 2221.0 2075.6 2012.0 1956.9 1895.5 1802.1 1760.3 1720.0 1534.3 1516.4 1725.1 1892.0 2053.6 2068.8 2143.7 2388.6 2700.5 2931.9 3003.3 2937.8 2887.5 2865.7 2920.2 -9999.0 2965.3 2878.4 2784.2 2754.3 2680.7 -9999.0 -9999.0 -9999.0 -9999.0 -9999.0 -9999.0 -9999.0 -9999.0 -9999.0 -9999.0 -9999.0 -9999.0 -9999.0 -9999.0 -9999.0 -9999.0 -9999.0 -9999.0 -9999.0 -9999.0 -9999.0 -9999.0 -9999.0 -9999.0 -9999.0 -9999.0 -9999.0 -9999.0 -9999.0 -9999.0 -9999.0 -9999.0 -9999.0 -9999.0 -9999.0 -9999.0 -9999.0 -9999.0 -9999.0 -9999.0 -9999.0 -9999.0 -9999.0 -9999.0 -9999.0 -9999.0 -9999.0 -9999.0 -9999.0 -9999.0 -9999.0 -9999.0 -9999.0 -9999.0 -9999.0 -9999.0 -9999.0 -9999.0 -9999.0 -9999.0 -9999.0 -9999.0 -9999.0 -9999.0 -9999.0 -9999.0 -9999.0 -9999.0 -9999.0 -9999.0 -9999.0 -9999.0 -9999.0 -9999.0 -9999.0 -9999.0 -9999.0 -9999.0 -9999.0 -9999.0 -9999.0 -9999.0 -9999.0 -9999.0 -9999.0 -9999.0 -9999.0 -9999.0 -9999.0 -9999.0 -9999.0 -9999.0 -9999.0 -9999.0 -9999.0 -9999.0 -9999.0 -9999.0 -9999.0 -9999.0 -9999.0 -9999.0 -9999.0 -9999.0 -9999.0 -9999.0 -9999.0 -9999.0 -9999.0 -9999.0 -9999.0 -9999.0 -9999.0 -9999.0
-9999.0 -9999.0 -9999.0 -9999.0 -9999.0 -9999.0 -9999.0 -9999.0 -9999.0 -9999.0 -9999.0 -9999.0 -9999.0 -9999.0 -9999.0 -9999.0 -9999.0 -9999.0 -9999.0 -9999.0 -9999.0 -9999.0 -9999.0 -9999.0 -9999.0 -9999.0 -9999.0 -9999.0 -9999.0 -9999.0 -9999.0 -9999.0 -9999.0 -9999.0 -9999.0 -9999.0 -9999.0 -9999.0 -9999.0 2246.6 2295.2 2302.7 2369.8 2276.0 2073.2 1982.6 2048.0 2344.7 2441.4 2373.8 2482.5 2691.3 2596.8 2335.6 2152.3 2165.9 2361.4 2668.5 2869.0 2946.3 3041.8 2953.3 2899.7 2766.2 2523.9 2335.1 2407.3 2627.1 2583.8 2502.4 2569.9 2726.2 2908.4 2857.1 2765.5 2788.9 2743.0 2729.1 -9999.0 -9999.0 -9999.0 -9999.0 -9999.0 2494.8 2425.5 -9999.0 -9999.0 -9999.0 2177.2 2115.8 2031.8 1942.0 1872.3 1833.6 1890.4 2011.4 2210.8 2398.6 2418.4 2560.0 2881.4 2748.8 2608.0 2458.2 2281.4 2079.2 1861.4 1692.5 1640.3 1660.4 1625.8 1652.7 1689.8 1739.8 1901.2 2079.6 2074.5 2030.4 1998.7 1870.8 1664.4 1408.7 1210.9 1147.6 1016.8 984.7 934.0 842.9 783.9 725.3 695.1 690.2 654.0 514.4 342.7 546.7 613.9 671.0 781.8 911.7 1152.1 1309.9 1430.2 1589.5 1661.1 1780.0 1938.9 1975.9 1728.2 1674.1 1538.4 1497.1 1463.3 1139.6 680.1 536.1 520.1 489.9 467.5 461.5 464.2 459.0 454.5 440.3 320.1 259.2 274.1 370.6 453.8 475.5 598.6 725.2 826.2 977.0 1102.5 1301.7 1526.9 1696.6 1769.3 1702.9 1665.2 1641.0 1705.0 1729.0 1632.6 1478.6 1275.8 909.0 778.9 766.8 788.2 945.5 1148.6 1315.5 1425.5 1412.0 1360.9 1499.0 1434.8 1324.8 1485.6 1544.3 1438.7 1402.8 1381.2 1234.7 1304.9 1492.5 1595.8 1771.8 1812.3 1765.0 1556.7 1476.2 1671.0 1938.9 1960.2 1808.1 1807.0 1934.8 2083.5 2067.5 2153.9 2135.6 1885.9 1707.3 1821.4 2068.9 2210.5 2160.5 2016.4 1849.2 1713.4 1833.0 2036.5 2168.9 2302.1 2242.4 2209.7 2300.9 2237.3 1994.8 2068.3 2331.6 2508.2 2508.5 2314.6 2220.8 2236.7 2338.0 2386.4 2345.7 2333.0 2368.4 2383.9 2311.4 2348.2 2407.4 2501.1 2423.6 2225.8 2221.5 2340.2 2436.2 2334.4 2238.7 2205.7 2172.8 2164.3 2270.3 2396.0 2509.0 2553.0 2502.7 2350.7 2274.7 2167.0 2006.9 1963.4 1963.8 1899.0 1769.3 1508.4 1458.8 1686.7 1794.3 1848.0 1858.9 1928.4 2204.5 2558.0 2793.6 2818.8 2678.1 2693.3 2877.0 3012.7 3055.1 2948.4 2817.1 2860.2 2820.5 2620.3 2494.3 -9999.0 -9999.0 -9999.0 -9999.0 -9999.0 -9999.0 -9999.0 -9999.0 -9999.0 -9999.0 -9999.0 -9999.0 -9999.0 -9999.0 -9999.0 -9999.0 -9999.0 -9999.0 -9999.0 -9999.0 -9999.0 -9999.0 -9999.0 -9999.0 -9999.0 -9999.0 -9999.0 -9999.0 -9999.0 -9999.0 -9999.0 -9999.0 -9999.0 -9999.0 -9999.0 -9999.0 -9999.0 -9999.0 -9999.0 -9999.0 -9999.0 -9999.0 -9999.0 -9999.0 -9999.0 -9999.0 -9999.0 -9999.0 -9999.0 -9999.0 -9999.0 -9999.0 -9999.0 -9999.0 -9999.0 -9999.0 -9999.0 -9999.0 -9999.0 -9999.0 -9999.0 -9999.0 -9999.0 -9999.0 -9999.0 -9999.0 -9999.0 -9999.0 -9999.0 -9999.0 -9999.0 -9999.0 -9999.0 -9999.0 -9999.0 -9999.0 -9999.0 -9999.0 -9999.0 -9999.0 -9999.0 -9999.0 -9999.0 -9999.0 -9999.0 -9999.0 -9999.0 -9999.0 -9999.0 -9999.0 -9999.0 -9999.0 -9999.0 -9999.0 -9999.0 -9999.0 -9999.0 -9999.0 -9999.0 -9999.0 -9999.0 -9999.0 -9999.0 -9999.0 -9999.0 -9999.0 -9999.0 -9999.0 -9999.0 -9999.0 -9999.0 -9999.0 -9999.0
-9999.0 -9999.0 -9999.0 -9999.0 -9999.0 -9999.0 -9999.0 -9999.0 -9999.0 -9999.0 -9999.0 -9999.0 -9999.0 -9999.0 -9999.0 -9999.0 -9999.0 -9999.0 -9999.0 -9999.0 -9999.0 -9999.0 -9999.0 -9999.0 -9999.0 -9999.0 -9999.0 -9999.0 -9999.0 -9999.0 -9999.0 -9999.0 -9999.0 -9999.0 -9999.0 -9999.0 -9999.0 -9999.0 -9999.0 2509.1 2609.3 2561.3 2474.6 2279.8 2060.9 2018.8 2099.5 2371.5 2613.1 2627.8 2667.9 2771.7 2612.7 2410.9 2240.3 2273.5 2451.4 2674.4 2827.4 3019.5 3043.1 2930.1 2825.0 2681.7 2534.9 2513.6 2531.0 2766.7 2791.2 2734.0 2842.6 2916.3 -9999.0 -9999.0 -9999.0 -9999.0 -9999.0 -9999.0 -9999.0 -9999.0 -9999.0 -9999.0 -9999.0 -9999.0 -9999.0 -9999.0 -9999.0 -9999.0 -9999.0 2051.4 1980.8 1921.4 1893.9 1879.6 1953.2 2046.2 2203.7 2347.7 2456.0 2607.4 2844.8 2799.0 2624.1 2466.8 2288.8 2027.8 1804.1 1733.9 1766.8 1831.7 1912.5 1962.5 1928.8 1874.5 1980.3 2164.9 2231.8 2189.1 2009.8 1758.1 1506.7 1400.0 1402.8 1310.2 1070.8 896.4 850.5 816.0 746.6 729.2 690.1 635.0 619.8 500.4 331.5 510.4 689.0 817.0 936.2 1078.6 1312.1 1503.2 1596.9 1729.9 1814.9 1934.3 1987.3 1760.6 1431.0 1449.9 1419.4 1424.1 1229.1 773.0 498.2 472.3 470.2 459.7 454.1 452.6 448.9 424.1 361.2 282.4 259.5 291.0 413.8 454.1 481.0 626.7 742.3 820.0 941.4 1112.1 1293.2 1479.2 1652.1 1768.9 1790.5 1700.7 1566.1 1576.1 1656.5 1616.8 1383.1 1147.0 907.0 755.8 852.3 1035.5 1023.0 1168.4 1289.2 1371.3 1489.1 1558.9 1627.2 1716.1 1606.8 1498.5 1661.7 1693.2 1633.8 1474.2 1324.0 1227.9 1409.6 1676.1 1842.0 1927.1 1936.5 1863.5 1618.1 1619.9 1629.0 1736.5 1936.9 2014.1 1996.8 1977.5 2076.1 2170.4 2287.9 2307.7 2033.7 1855.2 1849.1 2044.9 2282.7 2268.5 2165.0 1930.1 1770.2 1918.8 2128.1 2280.6 2376.4 2427.2 2370.7 2362.6 2118.9 2149.3 2346.3 2460.6 2493.1 2305.4 2118.5 1988.4 2022.6 2131.1 2194.5 2185.4 2190.6 2216.0 2195.3 2183.1 2246.4 2344.4 2423.8 2335.4 2193.2 2101.8 2122.4 2261.6 2140.2 1993.7 2063.4 2146.5 2219.0 2303.1 2429.4 2528.4 2487.5 2429.5 2354.6 2309.2 2204.5 2126.2 2160.3 2119.5 2023.4 1878.9 1565.7 1370.0 1542.7 1704.7 1789.2 1919.1 2083.2 2334.2 2541.9 2616.9 2612.8 2532.4 2599.0 2757.4 2895.9 2954.4 2858.6 2755.8 2697.1 2548.2 2350.6 2240.0 2244.7 -9999.0 -9999.0 -9999.0 -9999.0 -9999.0 -9999.0 -9999.0 -9999.0 -9999.0 -9999.0 -9999.0 -9999.0 -9999.0 -9999.0 -9999.0 -9999.0 -9999.0 -9999.0 -9999.0 -9999.0 -9999.0 -9999.0 -9999.0 -9999.0 -9999.0 -9999.0 -9999.0 -9999.0 -9999.0 -9999.0 -9999.0 -9999.0 -9999.0 -9999.0 -9999.0 -9999.0 -9999.0 -9999.0 -9999.0 -9999.0 -9999.0 -9999.0 -9999.0 -9999.0 -9999.0 -9999.0 -9999.0 -9999.0 -9999.0 -9999.0 -9999.0 -9999.0 -9999.0 -9999.0 -9999.0 -9999.0 -9999.0 -9999.0 -9999.0 -9999.0 -9999.0 -9999.0 -9999.0 -9999.0 -9999.0 -9999.0 -9999.0 -9999.0 -9999.0 -9999.0 -9999.0 -9999.0 -9999.0 -9999.0 -9999.0 -9999.0 -9999.0 -9999.0 -9999.0 -9999.0 -9999.0 -9999.0 -9999.0 -9999.0 -9999.0 -9999.0 -9999.0 -9999.0 -9999.0 -9999.0 -9999.0 -9999.0 -9999.0 -9999.0 -9999.0 -9999.0 -9999.0 -9999.0 -9999.0 -9999.0 -9999.0 -9999.0 -9999.0 -9999.0 -9999.0 -9999.0 -9999.0 -9999.0 -9999.0 -9999.0 -9999.0 -9999.0
-9999.0 -9999.0 -9999.0 -9999.0 -9999.0 -9999.0 -9999.0 -9999.0 -9999.0 -9999.0 -9999.0 -9999.0 -9999.0 -9999.0 -9999.0 -9999.0 -9999.0 -9999.0 -9999.0 -9999.0 -9999.0 -9999.0 -9999.0 -9999.0 -9999.0 -9999.0 -9999.0 -9999.0 -9999.0 -9999.0 -9999.0 -9999.0 -9999.0 -9999.0 -9999.0 -9999.0 -9999.0 -9999.0 -9999.0 -9999.0 2645.1 2544.5 2424.8 2229.1 2161.8 2247.9 2321.2 2378.4 2615.2 2856.1 2948.5 2865.1 2686.0 2579.2 2504.4 2484.8 2580.9 2797.8 2929.3 3164.7 3165.9 2939.6 2878.8 2859.6 2855.9 2872.1 2747.0 2891.5 2883.4 2913.6 -9999.0 -9999.0 -9999.0 -9999.0 -9999.0 -9999.0 -9999.0 -9999.0 -9999.0 -9999.0 -9999.0 -9999.0 -9999.0 -9999.0 -9999.0 -9999.0 -9999.0 -9999.0 -9999.0 -9999.0 1931.1 1910.1 1913.1 1953.2 2036.6 2093.1 2171.2 2284.8 2476.4 2636.2 2731.3 2799.8 2630.8 2468.9 2298.5 1998.1 1840.1 1895.1 1975.0 2020.4 2070.6 2175.8 2192.9 2067.3 2081.7 2259.9 2345.1 2201.7 1886.9 1686.9 1690.4 1715.3 1617.7 1448.0 1234.2 1067.9 859.5 755.1 702.0 646.7 620.5 609.5 587.6 478.9 335.9 549.5 818.6 1026.7 1166.4 1283.5 1429.2 1536.2 1666.8 1772.9 1799.8 1777.3 1786.2 1579.1 1347.5 1264.0 1213.4 1124.9 738.6 479.6 452.1 452.2 452.8 451.4 426.2 355.0 290.0 266.6 262.3 277.1 331.1 433.9 461.0 495.7 584.6 718.6 874.9 1028.7 1231.8 1394.7 1544.3 1662.6 1706.5 1716.1 1732.5 1707.1 1517.9 1440.0 1537.2 1491.5 1269.1 867.5 737.6 891.0 1146.8 1310.9 1194.2 1165.4 1317.2 1519.2 1683.6 1756.8 1763.7 1810.7 1788.9 1750.5 1807.8 1791.7 1672.6 1523.3 1523.6 1332.2 1362.4 1548.7 1746.5 1939.0 2048.4 1945.2 1729.1 1688.2 1811.5 1764.2 1771.0 1978.1 2144.4 2178.7 2186.7 2251.7 2354.4 2378.6 2098.8 2114.6 2021.3 1993.6 2170.2 2300.6 2102.6 1921.7 1852.8 2056.9 2191.7 2399.3 2447.8 2562.1 2477.5 2322.1 2193.8 2273.6 2476.6 2431.9 2304.6 2155.5 2035.0 1910.4 1871.0 1941.2 1994.6 1994.2 1978.2 2009.3 2057.9 2140.5 2239.3 2330.0 2375.2 2316.0 2276.0 2112.8 1961.6 1995.7 1959.6 1867.8 2030.6 2207.1 2346.2 2439.4 2518.3 2414.7 2309.6 2219.3 2181.0 2241.1 2272.2 2309.0 2317.7 2187.7 2033.1 1871.3 1655.9 1354.8 1374.5 1656.1 1790.1 1952.8 2096.6 2318.4 2410.8 2457.3 2478.2 2420.0 2406.0 2412.8 2514.3 2587.9 2552.3 2412.0 2216.2 2059.4 1974.0 1989.7 2130.8 2305.8 -9999.0 -9999.0 -9999.0 -9999.0 -9999.0 -9999.0 -9999.0 -9999.0 -9999.0 -9999.0 -9999.0 -9999.0 -9999.0 -9999.0 -9999.0 -9999.0 -9999.0 -9999.0 -9999.0 -9999.0 -9999.0 -9999.0 -9999.0 -9999.0 -9999.0 -9999.0 -9999.0 -9999.0 -9999.0 -9999.0 -9999.0 -9999.0 -9999.0 -9999.0 -9999.0 -9999.0 -9999.0 -9999.0 -9999.0 -9999.0 -9999.0 -9999.0 -9999.0 -9999.0 -9999.0 -9999.0 -9999.0 -9999.0 -9999.0 -9999.0 -9999.0 -9999.0 -9999.0 -9999.0 -9999.0 -9999.0 -9999.0 -9999.0 -9999.0 -9999.0 -9999.0 -9999.0 -9999.0 -9999.0 -9999.0 -9999.0 -9999.0 -9999.0 -9999.0 -9999.0 -9999.0 -9999.0 -9999.0 -9999.0 -9999.0 -9999.0 -9999.0 -9999.0 -9999.0 -9999.0 -9999.0 -9999.0 -9999.0 -9999.0 -9999.0 -9999.0 -9999.0 -9999.0 -9999.0 -9999.0 -9999.0 -9999.0 -9999.0 -9999.0 -9999.0 -9999.0 -9999.0 -9999.0 -9999.0 -9999.0 -9999.0 -9999.0 -9999.0 -9999.0 -9999.0 -9999.0 -9999.0 -9999.0 -9999.0 -9999.0 -9999.0
-9999.0 -9999.0 -9999.0 -9999.0 -9999.0 -9999.0 -9999.0 -9999.0 -9999.0 -9999.0 -9999.0 -9999.0 -9999.0 -9999.0 -9999.0 -9999.0 -9999.0 -9999.0 -9999.0 -9999.0 -9999.0 -9999.0 -9999.0 -9999.0 -9999.0 -9999.0 -9999.0 -9999.0 -9999.0 -9999.0 -9999.0 -9999.0 -9999.0 -9999.0 -9999.0 -9999.0 -9999.0 -9999.0 -9999.0 2839.2 2739.9 2532.1 2460.2 2516.1 2457.6 2512.7 2578.9 2559.5 2614.0 2814.3 2962.7 2839.9 2782.7 2746.9 2742.2 2705.2 2830.4 3033.7 3203.7 3248.1 -9999.0 3174.9 3111.3 3038.2 2958.2 -9999.0 -9999.0 -9999.0 -9999.0 -9999.0 -9999.0 -9999.0 -9999.0 -9999.0 -9999.0 -9999.0 -9999.0 -9999.0 -9999.0 -9999.0 -9999.0 -9999.0 -9999.0 -9999.0 -9999.0 -9999.0 -9999.0 -9999.0 -9999.0 -9999.0 -9999.0 1975.1 1988.7 2011.3 2088.9 2192.7 2241.9 2280.9 2391.2 2632.9 2847.3 2896.4 2703.7 2539.6 2389.3 2119.5 1906.0 1958.9 2043.0 2101.0 2120.3 2222.9 2409.5 2320.0 2291.4 2430.6 2345.4 2128.0 1993.7 1922.0 1948.2 1850.2 1587.3 1370.4 1196.8 1047.2 912.1 833.1 787.0 715.4 656.5 593.4 569.4 476.9 330.9 508.9 806.6 1025.0 1129.4 1135.9 1141.7 1204.3 1305.2 1341.1 1381.0 1463.6 1624.3 1623.0 1378.7 1187.5 880.6 610.4 489.5 453.5 450.7 450.9 443.6 353.7 272.7 282.6 313.9 357.5 433.2 495.2 518.4 549.7 612.0 669.0 731.7 860.1 1061.9 1288.7 1467.0 1574.0 1691.0 1760.6 1757.4 1669.2 1541.9 1507.2 1405.8 1355.0 1352.3 1204.5 1026.7 741.5 826.1 1135.3 1326.9 1453.4 1389.9 1277.7 1275.6 1442.2 1642.8 1777.7 1814.4 1866.3 1941.3 1928.7 1927.5 1806.5 1709.2 1735.6 1707.4 1467.7 1362.4 1503.1 1582.5 1735.4 1986.5 1985.8 1868.2 1807.2 1852.4 1995.1 1866.0 1837.1 2028.7 2241.1 2333.3 2385.7 2391.8 2295.6 2214.5 2290.5 2296.8 2123.9 2167.8 2309.2 2264.3 2161.5 2052.0 2221.3 2310.9 2490.2 2460.7 2456.5 2367.9 2324.0 2395.9 2436.6 2429.4 2351.4 2172.8 2055.0 1952.0 1828.0 1750.6 1800.8 1858.9 1932.5 2027.9 2113.1 2184.8 2234.6 2289.3 2237.8 2169.8 2194.5 2229.6 2084.7 1930.2 1777.8 1805.9 1957.4 2085.2 2200.1 2315.9 2421.9 2400.1 2316.1 2166.3 2113.1 2179.2 2279.0 2356.7 2371.4 2257.5 2102.6 1963.9 1805.3 1678.8 1381.3 1328.0 1604.0 1696.4 1821.0 1919.5 2087.8 2233.1 2324.9 2311.3 2148.2 2015.5 2046.0 2160.4 2258.2 2269.2 2112.2 1846.0 1756.1 1808.2 1955.2 2148.0 2338.2 -9999.0 -9999.0 -9999.0 -9999.0 -9999.0 -9999.0 -9999.0 -9999.0 -9999.0 -9999.0 -9999.0 -9999.0 -9999.0 -9999.0 -9999.0 -9999.0 -9999.0 -9999.0 -9999.0 -9999.0 -9999.0 -9999.0 -9999.0 -9999.0 -9999.0 -9999.0 -9999.0 -9999.0 -9999.0 -9999.0 -9999.0 -9999.0 -9999.0 -9999.0 -9999.0 -9999.0 -9999.0 -9999.0 -9999.0 -9999.0 -9999.0 -9999.0 -9999.0 -9999.0 -9999.0 -9999.0 -9999.0 -9999.0 -9999.0 -9999.0 -9999.0 -9999.0 -9999.0 -9999.0 -9999.0 -9999.0 -9999.0 -9999.0 -9999.0 -9999.0 -9999.0 -9999.0 -9999.0 -9999.0 -9999.0 -9999.0 -9999.0 -9999.0 -9999.0 -9999.0 -9999.0 -9999.0 -9999.0 -9999.0 -9999.0 -9999.0 -9999.0 -9999.0 -9999.0 -9999.0 -9999.0 -9999.0 -9999.0 -9999.0 -9999.0 -9999.0 -9999.0 -9999.0 -9999.0 -9999.0 -9999.0 -9999.0 -9999.0 -9999.0 -9999.0 -9999.0 -9999.0 -9999.0 -9999.0 -9999.0 -9999.0 -9999.0 -9999.0 -9999.0 -9999.0 -9999.0 -9999.0 -9999.0 -9999.0 -9999.0 -9999.0
-9999.0 -9999.0 -9999.0 -9999.0 -9999.0 -9999.0 -9999.0 -9999.0 -9999.0 -9999.0 -9999.0 -9999.0 -9999.0 -9999.0 -9999.0 -9999.0 -9999.0 -9999.0 -9999.0 -9999.0 -9999.0 -9999.0 -9999.0 -9999.0 -9999.0 -9999.0 -9999.0 -9999.0 -9999.0 -9999.0 -9999.0 -9999.0 -9999.0 -9999.0 -9999.0 -9999.0 -9999.0 -9999.0 -9999.0 2869.9 2700.9 2587.3 2590.6 2760.3 2786.0 2835.2 2788.9 2711.6 2706.0 2910.6 3009.2 2907.4 2888.3 2854.5 2836.9 2878.9 2987.8 3167.2 3299.5 -9999.0 -9999.0 -9999.0 -9999.0 -9999.0 -9999.0 -9999.0 -9999.0 -9999.0 -9999.0 -9999.0 -9999.0 -9999.0 -9999.0 -9999.0 -9999.0 -9999.0 -9999.0 -9999.0 -9999.0 -9999.0 -9999.0 -9999.0 -9999.0 -9999.0 -9999.0 -9999.0 -9999.0 -9999.0 -9999.0 -9999.0 -9999.0 2071.9 2094.0 2086.4 2066.8 2165.1 2239.7 2293.3 2376.8 2515.0 2678.0 2940.0 2849.6 2628.6 2485.1 2295.8 2101.2 1999.0 2075.7 2138.5 2187.0 2400.5 2475.8 2618.7 2556.7 2455.0 2320.4 2228.6 2168.4 2143.1 2043.3 1754.9 1626.9 1474.2 1323.5 1102.9 951.7 847.0 749.3 654.5 585.5 633.3 620.4 635.6 473.3 363.3 381.5 469.8 568.0 627.9 652.8 814.4 966.9 1113.3 1250.5 1426.4 1442.4 1339.5 1236.4 905.3 549.8 460.1 442.1 428.4 423.9 399.7 299.0 269.0 401.1 798.7 929.7 792.4 858.0 862.0 765.0 730.1 800.0 886.2 994.2 1141.9 1302.5 1500.5 1592.1 1622.7 1641.2 1699.3 1772.4 1745.1 1587.8 1402.3 1237.6 1220.4 1208.6 920.6 729.8 741.6 1009.1 1181.0 1302.2 1483.3 1583.8 1458.8 1336.1 1379.8 1518.5 1629.5 1789.3 1957.6 2005.6 2007.9 1928.2 1839.3 1882.7 1910.4 1768.7 1479.9 1396.6 1573.9 1781.6 1943.8 2044.2 2105.3 2014.3 1933.3 1882.7 2075.8 2092.5 1983.5 1985.7 2025.9 2145.0 2383.3 2512.6 2426.7 2414.5 2428.2 2405.0 2199.2 2185.2 2407.1 2496.6 2319.4 2198.4 2409.9 2454.4 2486.4 2350.0 2206.1 2142.8 2207.1 2382.6 2452.2 2363.1 2228.7 2094.9 2033.1 1905.4 1760.7 1732.0 1868.7 1984.5 2088.8 2173.5 2249.0 2350.3 2335.7 2207.4 2072.9 1958.4 1978.9 1976.5 1842.7 1759.9 1755.0 1890.1 2081.3 2240.3 2319.4 2341.6 2238.7 2209.5 2147.5 2040.9 2095.8 2215.5 2314.9 2395.5 2303.7 2162.2 2027.1 1886.9 1761.6 1641.4 1373.5 1219.6 1479.0 1656.7 1828.8 2020.5 2204.2 2279.3 2311.7 2242.9 1991.5 1828.5 1848.3 1908.0 2020.0 2092.2 1959.8 1746.5 1680.6 1853.3 2011.8 2195.5 -9999.0 -9999.0 -9999.0 -9999.0 -9999.0 -9999.0 -9999.0 -9999.0 -9999.0 -9999.0 -9999.0 -9999.0 -9999.0 -9999.0 -9999.0 -9999.0 -9999.0 -9999.0 -9999.0 -9999.0 -9999.0 -9999.0 -9999.0 -9999.0 -9999.0 -9999.0 -9999.0 -9999.0 -9999.0 -9999.0 -9999.0 -9999.0 -9999.0 -9999.0 -9999.0 -9999.0 -9999.0 -9999.0 -9999.0 -9999.0 -9999.0 -9999.0 -9999.0 -9999.0 -9999.0 -9999.0 -9999.0 -9999.0 -9999.0 -9999.0 -9999.0 -9999.0 -9999.0 -9999.0 -9999.0 -9999.0 -9999.0 -9999.0 -9999.0 -9999.0 -9999.0 -9999.0 -9999.0 -9999.0 -9999.0 -9999.0 -9999.0 -9999.0 -9999.0 -9999.0 -9999.0 -9999.0 -9999.0 -9999.0 -9999.0 -9999.0 -9999.0 -9999.0 -9999.0 -9999.0 -9999.0 -9999.0 -9999.0 -9999.0 -9999.0 -9999.0 -9999.0 -9999.0 -9999.0 -9999.0 -9999.0 -9999.0 -9999.0 -9999.0 -9999.0 -9999.0 -9999.0 -9999.0 -9999.0 -9999.0 -9999.0 -9999.0 -9999.0 -9999.0 -9999.0 -9999.0 -9999.0 -9999.0 -9999.0 -9999.0 -9999.0 -9999.0
-9999.0 -9999.0 -9999.0 -9999.0 -9999.0 -9999.0 -9999.0 -9999.0 -9999.0 -9999.0 -9999.0 -9999.0 -9999.0 -9999.0 -9999.0 -9999.0 -9999.0 -9999.0 -9999.0 -9999.0 -9999.0 -9999.0 -9999.0 -9999.0 -9999.0 -9999.0 -9999.0 -9999.0 -9999.0 -9999.0 -9999.0 -9999.0 -9999.0 -9999.0 -9999.0 -9999.0 -9999.0 -9999.0 -9999.0 2956.7 2869.2 2761.2 2811.8 2973.9 3083.0 3106.7 3009.1 2951.9 3008.7 3138.3 3130.3 3039.1 3026.9 3039.2 3068.7 3151.6 3228.9 -9999.0 -9999.0 -9999.0 -9999.0 -9999.0 -9999.0 -9999.0 -9999.0 -9999.0 -9999.0 -9999.0 -9999.0 -9999.0 -9999.0 -9999.0 -9999.0 -9999.0 -9999.0 -9999.0 -9999.0 -9999.0 -9999.0 -9999.0 -9999.0 -9999.0 -9999.0 -9999.0 -9999.0 -9999.0 -9999.0 -9999.0 -9999.0 -9999.0 -9999.0 -9999.0 2221.5 2268.0 2176.6 2189.7 2249.0 2286.0 2368.9 2436.2 2560.7 2735.3 2766.2 2592.1 2544.1 2405.5 2256.2 2081.2 2107.7 2124.0 2253.7 2633.0 2752.9 2698.7 2577.5 2406.0 2335.6 2364.4 2421.4 2247.9 2043.6 1963.3 1740.4 1493.2 1349.2 1210.3 1029.1 884.6 746.8 622.8 659.4 718.8 737.5 796.4 886.7 747.0 446.9 336.7 296.6 293.7 292.7 320.4 632.0 1042.7 1194.7 1205.8 1180.6 1081.8 931.1 565.8 453.1 398.4 282.0 261.9 268.9 272.7 286.3 468.1 925.9 1254.0 1270.0 1149.4 1029.8 897.7 851.5 895.3 1034.0 1191.1 1349.4 1489.2 1562.1 1626.6 1676.6 1618.7 1489.1 1511.6 1560.3 1585.5 1569.3 1399.2 1219.1 1059.1 1019.3 752.8 768.3 1041.8 1179.5 1327.2 1484.2 1570.9 1646.2 1587.7 1470.1 1492.2 1473.5 1581.0 1838.5 2027.8 2071.1 2055.9 1952.1 1944.2 2001.1 1927.9 1711.8 1473.0 1420.5 1625.8 1806.4 2039.6 2236.8 2214.4 2129.7 2077.9 2038.3 2049.4 2268.2 2265.8 2229.9 2136.3 2036.3 2215.4 2482.5 2561.3 2519.4 2397.9 2217.5 2191.5 2319.3 2526.1 2592.0 2434.7 2374.4 2568.2 2613.8 2476.4 2238.0 2025.1 1962.9 2069.9 2180.9 2179.0 2111.3 2058.8 2000.1 1913.2 1796.8 1666.9 1718.5 1856.3 1977.2 2093.0 2170.1 2237.2 2261.4 2282.8 2191.4 2060.0 1896.2 1758.5 1728.6 1646.6 1692.0 1847.3 1984.3 2036.6 2056.9 2042.7 2029.8 1940.0 1904.4 1919.5 1967.9 2061.9 2168.9 2309.4 2384.9 2282.0 2166.8 2033.0 1883.1 1730.3 1602.3 1394.7 1135.9 1314.7 1616.0 1746.3 1926.4 2111.5 2222.7 2304.2 2295.4 2041.2 1775.9 1681.0 1712.7 1824.1 1893.7 1789.3 1646.9 1704.7 1895.4 2039.3 2230.7 -9999.0 -9999.0 -9999.0 -9999.0 -9999.0 -9999.0 -9999.0 -9999.0 -9999.0 -9999.0 -9999.0 -9999.0 -9999.0 -9999.0 -9999.0 -9999.0 -9999.0 -9999.0 -9999.0 -9999.0 -9999.0 -9999.0 -9999.0 -9999.0 -9999.0 -9999.0 -9999.0 -9999.0 -9999.0 -9999.0 -9999.0 -9999.0 -9999.0 -9999.0 -9999.0 -9999.0 -9999.0 -9999.0 -9999.0 -9999.0 -9999.0 -9999.0 -9999.0 -9999.0 -9999.0 -9999.0 -9999.0 -9999.0 -9999.0 -9999.0 -9999.0 -9999.0 -9999.0 -9999.0 -9999.0 -9999.0 -9999.0 -9999.0 -9999.0 -9999.0 -9999.0 -9999.0 -9999.0 -9999.0 -9999.0 -9999.0 -9999.0 -9999.0 -9999.0 -9999.0 -9999.0 -9999.0 -9999.0 -9999.0 -9999.0 -9999.0 -9999.0 -9999.0 -9999.0 -9999.0 -9999.0 -9999.0 -9999.0 -9999.0 -9999.0 -9999.0 -9999.0 -9999.0 -9999.0 -9999.0 -9999.0 -9999.0 -9999.0 -9999.0 -9999.0 -9999.0 -9999.0 -9999.0 -9999.0 -9999.0 -9999.0 -9999.0 -9999.0 -9999.0 -9999.0 -9999.0 -9999.0 -9999.0 -9999.0 -9999.0 -9999.0 -9999.0
-9999.0 -9999.0 -9999.0 -9999.0 -9999.0 -9999.0 -9999.0 -9999.0 -9999.0 -9999.0 -9999.0 -9999.0 -9999.0 -9999.0 -9999.0 -9999.0 -9999.0 -9999.0 -9999.0 -9999.0 -9999.0 -9999.0 -9999.0 -9999.0 -9999.0 -9999.0 -9999.0 -9999.0 -9999.0 -9999.0 -9999.0 -9999.0 -9999.0 -9999.0 -9999.0 -9999.0 -9999.0 -9999.0 -9999.0 3121.0 3013.2 2972.6 3042.3 -9999.0 -9999.0 -9999.0 -9999.0 -9999.0 -9999.0 -9999.0 3239.6 3269.9 3372.2 3466.1 3432.7 3463.1 -9999.0 -9999.0 -9999.0 -9999.0 -9999.0 -9999.0 -9999.0 -9999.0 -9999.0 -9999.0 -9999.0 -9999.0 -9999.0 -9999.0 -9999.0 -9999.0 -9999.0 -9999.0 -9999.0 -9999.0 -9999.0 -9999.0 -9999.0 -9999.0 -9999.0 -9999.0 -9999.0 -9999.0 -9999.0 -9999.0 -9999.0 -9999.0 -9999.0 -9999.0 -9999.0 -9999.0 -9999.0 2283.6 2274.3 2275.2 2326.0 2362.2 2393.2 -9999.0 -9999.0 -9999.0 2728.0 2603.7 2579.3 2536.6 2386.9 2179.2 2201.6 2171.8 2333.4 2704.2 2736.5 2635.9 2501.3 2460.3 2524.7 2517.2 2394.4 2266.7 2211.0 2095.9 1866.8 1667.5 1478.0 1229.0 1139.6 1078.7 837.2 686.3 691.9 770.5 810.1 924.1 1134.2 1071.9 738.2 644.3 573.0 440.3 366.3 290.3 284.6 528.3 781.9 783.0 746.6 691.5 572.4 456.7 448.2 295.0 256.3 343.6 540.2 611.5 658.0 850.0 1206.3 1301.0 1257.5 1152.1 1011.9 986.6 1068.1 1130.1 1178.2 1388.2 1591.0 1695.8 1662.5 1609.2 1565.9 1544.2 1425.1 1324.4 1312.2 1369.6 1363.2 1253.3 1182.1 1020.5 757.2 679.0 836.6 1078.6 1219.2 1357.1 1475.5 1632.5 1684.2 1717.5 1715.9 1782.6 1660.0 1588.6 1746.5 1937.9 2114.2 2112.8 2024.3 2050.4 2059.1 1870.8 1677.0 1529.1 1456.6 1645.2 1812.0 1995.6 2209.8 2326.9 2212.8 2223.1 2221.2 2107.4 2299.9 2493.6 2566.0 2311.2 2112.6 2123.0 2374.7 2590.3 2476.6 2280.3 2328.0 2464.1 2464.3 2485.9 2627.1 2607.2 2569.8 2614.9 2664.2 2437.0 2228.5 2088.0 1940.4 1929.9 1969.3 1954.7 1896.9 1834.0 1801.5 1742.5 1648.8 1562.7 1704.5 1855.9 1932.6 1844.6 1940.1 1995.7 1996.9 2111.3 2180.6 2088.3 1950.8 1751.5 1572.7 1620.1 1794.3 1867.7 1789.6 1742.4 1742.1 1752.4 1834.1 1916.9 1979.2 1928.6 1957.8 2108.2 2204.6 2327.2 2426.6 2357.7 2189.6 2036.0 1916.0 1777.7 1621.5 1452.4 1147.4 1170.0 1504.0 1639.5 1755.3 1873.6 2012.2 2148.2 2288.5 2133.3 1877.0 1702.5 1572.3 1587.7 1630.6 1599.0 1603.2 1859.1 2062.5 2186.6 -9999.0 -9999.0 -9999.0 -9999.0 -9999.0 -9999.0 -9999.0 -9999.0 -9999.0 -9999.0 -9999.0 -9999.0 -9999.0 -9999.0 -9999.0 -9999.0 -9999.0 -9999.0 -9999.0 -9999.0 -9999.0 -9999.0 -9999.0 -9999.0 -9999.0 -9999.0 -9999.0 -9999.0 -9999.0 -9999.0 -9999.0 -9999.0 -9999.0 -9999.0 -9999.0 -9999.0 -9999.0 -9999.0 -9999.0 -9999.0 -9999.0 -9999.0 -9999.0 -9999.0 -9999.0 -9999.0 -9999.0 -9999.0 -9999.0 -9999.0 -9999.0 -9999.0 -9999.0 -9999.0 -9999.0 -9999.0 -9999.0 -9999.0 -9999.0 -9999.0 -9999.0 -9999.0 -9999.0 -9999.0 -9999.0 -9999.0 -9999.0 -9999.0 -9999.0 -9999.0 -9999.0 -9999.0 -9999.0 -9999.0 -9999.0 -9999.0 -9999.0 -9999.0 -9999.0 -9999.0 -9999.0 -9999.0 -9999.0 -9999.0 -9999.0 -9999.0 -9999.0 -9999.0 -9999.0 -9999.0 -9999.0 -9999.0 -9999.0 -9999.0 -9999.0 -9999.0 -9999.0 -9999.0 -9999.0 -9999.0 -9999.0 -9999.0 -9999.0 -9999.0 -9999.0 -9999.0 -9999.0 -9999.0 -9999.0 -9999.0 -9999.0 -9999.0 -9999.0
-9999.0 -9999.0 -9999.0 -9999.0 -9999.0 -9999.0 -9999.0 -9999.0 -9999.0 -9999.0 -9999.0 -9999.0 -9999.0 -9999.0 -9999.0 -9999.0 -9999.0 -9999.0 -9999.0 -9999.0 -9999.0 -9999.0 -9999.0 -9999.0 -9999.0 -9999.0 -9999.0 -9999.0 -9999.0 -9999.0 -9999.0 -9999.0 -9999.0 -9999.0 -9999.0 -9999.0 -9999.0 -9999.0 -9999.0 -9999.0 -9999.0 -9999.0 -9999.0 -9999.0 -9999.0 -9999.0 -9999.0 -9999.0 -9999.0 -9999.0 -9999.0 -9999.0 -9999.0 -9999.0 -9999.0 -9999.0 -9999.0 -9999.0 -9999.0 -9999.0 -9999.0 -9999.0 -9999.0 -9999.0 -9999.0 -9999.0 -9999.0 -9999.0 -9999.0 -9999.0 -9999.0 -9999.0 -9999.0 -9999.0 -9999.0 -9999.0 -9999.0 -9999.0 -9999.0 -9999.0 -9999.0 -9999.0 -9999.0 -9999.0 -9999.0 -9999.0 -9999.0 -9999.0 -9999.0 -9999.0 -9999.0 -9999.0 -9999.0 -9999.0 -9999.0 -9999.0 -9999.0 -9999.0 -9999.0 -9999.0 -9999.0 -9999.0 -9999.0 2652.5 2616.0 2601.5 2432.6 2282.8 2292.6 2266.9 2350.8 2684.7 2742.9 2659.0 2586.4 2558.6 2644.9 2476.3 2335.8 2179.9 2035.3 1888.2 1700.9 1654.6 1532.1 1416.8 1348.4 1158.3 955.4 753.2 728.6 800.0 864.7 1009.2 1238.5 1187.0 925.4 814.5 796.8 563.5 478.1 403.0 292.9 274.1 368.6 487.5 483.2 472.6 460.6 454.3 447.0 274.5 310.9 559.4 860.7 894.6 901.6 980.8 1202.0 1300.8 1226.9 1130.8 1151.0 1117.8 1262.3 1372.3 1465.2 1536.5 1618.0 1705.6 1645.6 1490.6 1357.1 1377.3 1409.4 1254.9 1142.8 1204.2 1158.2 982.3 927.6 783.9 685.2 882.5 1005.5 991.2 1186.5 1330.8 1433.5 1601.0 1738.5 1795.0 1877.8 1930.0 1770.5 1664.1 1851.9 2035.9 2184.4 2150.5 2114.0 2160.9 2189.5 2041.9 1902.7 1673.0 1486.8 1613.5 1758.6 1912.7 2093.9 2304.4 2395.9 2400.1 2296.0 2190.3 2275.5 2415.0 2500.7 2404.3 2243.7 2108.4 2229.7 2437.9 2492.7 2428.3 2448.7 2589.7 2632.3 2586.8 2661.7 2690.2 2595.9 2496.6 2391.9 2287.8 2240.6 2171.2 2054.4 1880.5 1737.4 1699.8 1592.6 1472.5 1370.7 1322.9 1264.4 1238.6 1401.5 1621.2 1674.4 1601.1 1641.4 1681.6 1823.0 1983.6 2066.4 1993.7 1916.7 1755.7 1568.9 1515.8 1588.4 1536.5 1553.5 1625.8 1709.6 1838.1 1993.8 2099.1 2151.1 2015.9 1954.6 2108.6 2308.7 2523.5 2494.8 2350.7 2284.2 2204.7 2049.9 1941.3 1766.2 1559.5 1271.8 1051.0 1260.6 1522.5 1584.6 1673.4 1787.0 1936.5 2029.6 1979.3 1831.4 1701.5 1552.1 1448.6 1500.6 1590.0 1778.4 2059.3 2272.5 -9999.0 -9999.0 -9999.0 -9999.0 -9999.0 -9999.0 -9999.0 -9999.0 -9999.0 -9999.0 -9999.0 -9999.0 -9999.0 -9999.0 -9999.0 -9999.0 -9999.0 -9999.0 -9999.0 -9999.0 -9999.0 -9999.0 -9999.0 -9999.0 -9999.0 -9999.0 -9999.0 -9999.0 -9999.0 -9999.0 -9999.0 -9999.0 -9999.0 -9999.0 -9999.0 -9999.0 -9999.0 -9999.0 -9999.0 -9999.0 -9999.0 -9999.0 -9999.0 -9999.0 -9999.0 -9999.0 -9999.0 -9999.0 -9999.0 -9999.0 -9999.0 -9999.0 -9999.0 -9999.0 -9999.0 -9999.0 -9999.0 -9999.0 -9999.0 -9999.0 -9999.0 -9999.0 -9999.0 -9999.0 -9999.0 -9999.0 -9999.0 -9999.0 -9999.0 -9999.0 -9999.0 -9999.0 -9999.0 -9999.0 -9999.0 -9999.0 -9999.0 -9999.0 -9999.0 -9999.0 -9999.0 -9999.0 -9999.0 -9999.0 -9999.0 -9999.0 -9999.0 -9999.0 -9999.0 -9999.0 -9999.0 -9999.0 -9999.0 -9999.0 -9999.0 -9999.0 -9999.0 -9999.0 -9999.0 -9999.0 -9999.0 -9999.0 -9999.0 -9999.0 -9999.0 -9999.0 -9999.0 -9999.0 -9999.0 -9999.0 -9999.0 -9999.0 -9999.0 -9999.0
-9999.0 -9999.0 -9999.0 -9999.0 -9999.0 -9999.0 -9999.0 -9999.0 -9999.0 -9999.0 -9999.0 -9999.0 -9999.0 -9999.0 -9999.0 -9999.0 -9999.0 -9999.0 -9999.0 -9999.0 -9999.0 -9999.0 -9999.0 -9999.0 -9999.0 -9999.0 -9999.0 -9999.0 -9999.0 -9999.0 -9999.0 -9999.0 -9999.0 -9999.0 -9999.0 -9999.0 -9999.0 -9999.0 -9999.0 -9999.0 -9999.0 -9999.0 -9999.0 -9999.0 -9999.0 -9999.0 -9999.0 -9999.0 -9999.0 -9999.0 -9999.0 -9999.0 -9999.0 -9999.0 -9999.0 -9999.0 -9999.0 -9999.0 -9999.0 -9999.0 -9999.0 -9999.0 -9999.0 -9999.0 -9999.0 -9999.0 -9999.0 -9999.0 -9999.0 -9999.0 -9999.0 -9999.0 -9999.0 -9999.0 -9999.0 -9999.0 -9999.0 -9999.0 -9999.0 -9999.0 -9999.0 -9999.0 -9999.0 -9999.0 -9999.0 -9999.0 -9999.0 -9999.0 -9999.0 -9999.0 -9999.0 -9999.0 -9999.0 -9999.0 -9999.0 -9999.0 -9999.0 -9999.0 -9999.0 -9999.0 -9999.0 -9999.0 -9999.0 2724.4 2656.3 2585.0 2431.2 2385.8 2413.4 2318.2 2341.4 2597.4 2743.6 2714.4 2629.2 2543.0 2568.0 2458.3 2386.6 2253.8 2120.4 2015.3 1982.9 1843.1 1660.4 1469.7 1244.4 1044.7 896.5 769.5 788.7 868.9 975.7 1171.2 1385.0 1440.7 1272.1 1045.0 969.8 697.7 492.9 477.9 428.5 288.2 288.8 459.1 462.3 460.0 457.2 452.8 400.3 263.9 352.7 642.2 977.6 969.0 1115.5 1222.6 1201.9 1224.0 1226.1 1254.3 1276.0 1307.6 1305.6 1443.7 1526.0 1492.4 1471.3 1593.5 1556.2 1404.6 1192.2 1141.0 1267.1 1214.0 1089.9 885.1 803.8 678.4 683.0 723.5 895.7 1209.8 1195.4 1034.0 1115.5 1209.8 1385.0 1613.5 1826.5 1899.1 1966.2 2016.2 1960.0 1777.2 1832.8 2014.0 2175.3 2232.2 2207.2 2252.6 2317.4 2170.8 1956.7 1769.2 1578.5 1545.2 1742.0 1912.3 2028.5 2147.1 2305.7 2413.9 2382.2 2314.4 2344.9 2419.6 2486.4 2499.7 2389.6 2244.1 2163.1 2296.5 2567.7 2650.5 2522.8 2549.6 2689.3 2682.1 2572.4 2591.0 2467.0 2325.0 2166.1 2096.7 2062.3 2021.6 1954.3 1776.3 1534.1 1363.5 1328.3 1370.1 1450.2 1503.4 1468.5 1327.1 1204.5 1177.2 1169.8 1203.6 1246.2 1364.6 1627.9 1789.7 1792.0 1698.8 1785.7 1783.1 1617.9 1459.8 1430.8 1560.0 1699.4 1808.3 1906.0 1999.5 2052.3 2191.6 2235.0 2084.7 2036.2 2194.7 2410.2 2561.7 2456.4 2431.3 2310.4 2132.6 1976.3 1905.7 1834.8 1636.2 1450.3 1092.0 1052.4 1361.3 1486.7 1611.5 1750.3 1815.4 1775.3 1745.8 1653.7 1561.5 1446.0 1418.3 1568.9 1783.0 2006.7 2267.3 -9999.0 -9999.0 -9999.0 -9999.0 -9999.0 -9999.0 -9999.0 -9999.0 -9999.0 -9999.0 -9999.0 -9999.0 -9999.0 -9999.0 -9999.0 -9999.0 -9999.0 -9999.0 -9999.0 -9999.0 -9999.0 -9999.0 -9999.0 -9999.0 -9999.0 -9999.0 -9999.0 -9999.0 -9999.0 -9999.0 -9999.0 -9999.0 -9999.0 -9999.0 -9999.0 -9999.0 -9999.0 -9999.0 -9999.0 -9999.0 -9999.0 -9999.0 -9999.0 -9999.0 -9999.0 -9999.0 -9999.0 -9999.0 -9999.0 -9999.0 -9999.0 -9999.0 -9999.0 -9999.0 -9999.0 -9999.0 -9999.0 -9999.0 -9999.0 -9999.0 -9999.0 -9999.0 -9999.0 -9999.0 -9999.0 -9999.0 -9999.0 -9999.0 -9999.0 -9999.0 -9999.0 -9999.0 -9999.0 -9999.0 -9999.0 -9999.0 -9999.0 -9999.0 -9999.0 -9999.0 -9999.0 -9999.0 -9999.0 -9999.0 -9999.0 -9999.0 -9999.0 -9999.0 -9999.0 -9999.0 -9999.0 -9999.0 -9999.0 -9999.0 -9999.0 -9999.0 -9999.0 -9999.0 -9999.0 -9999.0 -9999.0 -9999.0 -9999.0 -9999.0 -9999.0 -9999.0 -9999.0 -9999.0 -9999.0 -9999.0 -9999.0 -9999.0 -9999.0 -9999.0 -9999.0
