ncols   395
nrows   37
xllcorner    14.9008
yllcorner    40.805364
cellsize    0.005002
NODATA_value -9999
-9999.0 510.5 478.0 467.9 459.9 457.6 465.6 492.4 488.8 523.8 437.3 323.0 328.0 406.0 451.7 488.9 486.9 479.4 467.3 498.5 504.9 431.1 374.2 379.7 387.7 380.4 379.3 391.6 410.7 455.6 488.3 524.7 560.5 598.9 603.6 576.4 602.4 634.6 618.3 608.8 603.9 593.1 625.1 664.6 709.4 747.5 789.7 832.3 848.8 829.7 835.1 814.3 774.3 733.4 728.3 725.0 681.6 631.2 624.9 617.6 585.0 584.9 609.6 621.2 654.6 696.4 696.5 689.6 685.9 669.3 690.9 710.5 765.3 831.2 867.6 869.9 874.4 867.8 840.8 847.6 876.9 897.8 928.9 941.1 956.1 958.3 943.6 921.7 900.8 858.2 841.1 825.1 819.6 805.7 801.7 777.2 777.1 839.6 826.8 831.1 870.0 896.1 877.9 860.2 868.5 854.9 878.3 858.7 811.4 814.9 873.2 842.7 807.8 790.9 793.3 796.6 769.6 746.6 679.7 613.3 560.2 515.5 452.1 424.4 491.9 584.6 592.7 636.1 609.2 532.1 464.1 393.8 320.5 296.4 330.2 362.8 427.7 468.0 538.7 634.2 677.1 636.0 631.4 629.7 630.1 617.3 605.7 588.5 575.2 550.7 525.7 481.2 463.6 534.4 523.3 520.8 517.9 526.5 486.8 435.5 394.8 327.5 313.0 386.7 400.2 400.8 412.0 422.3 422.2 417.2 395.5 386.0 368.2 371.8 356.9 361.6 329.4 331.3 374.5 381.1 368.2 361.3 368.8 364.7 356.8 337.1 311.7 346.9 359.0 371.7 382.9 387.8 392.5 402.6 411.4 420.1 419.5 432.5 442.1 442.2 437.7 432.0 429.7 429.2 427.0 426.5 427.3 428.4 430.3 429.0 452.7 453.2 448.0 442.4 432.5 437.1 428.6 435.6 439.5 435.6 413.1 431.7 433.0 434.5 439.0 434.7 430.1 431.7 423.2 371.8 332.5 330.4 395.2 431.0 419.1 410.3 369.5 341.7 331.7 339.2 390.9 395.6 383.7 420.3 431.2 446.6 469.4 474.5 480.8 492.0 502.8 520.9 548.1 580.2 574.2 629.4 644.3 620.4 626.5 653.2 664.6 664.3 674.7 681.6 677.7 681.7 681.4 680.3 680.4 676.8 678.9 682.2 680.7 672.2 677.2 671.4 661.8 656.4 650.0 649.7 649.5 653.0 651.5 645.3 643.0 635.4 632.5 637.2 642.1 642.6 638.7 638.7 626.1 614.0 598.8 592.4 583.5 576.9 564.4 556.5 549.9 544.1 535.0 524.1 528.6 522.3 501.5 481.7 462.3 479.3 488.8 485.8 502.4 499.3 487.1 482.4 474.0 444.6 442.9 451.9 429.1 420.9 413.1 404.8 399.6 401.0 394.8 389.4 385.1 380.2 380.0 379.5 373.7 368.1 371.1 374.7 375.0 371.8 366.3 367.5 367.4 366.3 355.7 354.8 361.4 357.1 352.2 354.6 353.0 345.2 336.4 341.3 332.8 317.6 305.4 305.2 300.7 296.2 290.8 287.5 283.8 280.7 276.1 277.0 274.9 271.7 263.2 265.6 267.7 268.5 269.2 269.4 266.9 258.3 249.1 245.1 240.2 239.7 238.8 232.0 221.4 213.3 226.0 229.4 229.8 228.1 226.2 223.1 214.9 211.1 223.8 224.0 217.6 216.6 -9999.0
-9999.0 519.1 487.7 463.5 508.9 510.8 502.2 539.1 527.3 539.4 445.2 347.6 308.9 354.0 409.9 438.0 409.3 374.2 373.2 375.6 414.0 377.3 440.4 479.0 493.5 495.9 445.6 398.0 393.1 408.0 439.5 471.7 503.3 540.3 533.6 546.6 572.3 604.4 590.3 570.7 556.4 576.0 595.6 631.4 666.0 707.2 756.4 790.4 828.7 863.2 874.1 855.2 815.2 799.4 793.8 754.5 709.0 695.6 697.6 660.8 635.3 628.3 651.9 697.6 696.8 750.3 780.6 767.0 756.2 733.2 759.3 764.9 797.6 850.6 896.9 907.8 905.8 895.4 867.3 886.6 906.7 902.7 907.2 926.4 924.1 915.2 926.3 904.6 875.8 859.0 864.1 873.9 883.5 876.5 858.0 820.9 769.0 757.2 771.1 798.0 843.8 854.2 845.6 835.4 838.9 840.9 843.8 822.3 816.6 802.8 785.2 767.4 756.3 751.7 813.3 844.0 806.7 769.7 757.4 679.2 621.4 569.9 499.7 423.8 444.0 491.5 538.4 581.9 567.8 493.4 436.2 374.8 314.8 297.5 334.1 371.9 421.8 502.1 563.3 618.7 680.9 680.3 658.3 660.5 664.9 653.4 633.9 620.0 602.5 583.4 596.5 526.0 447.1 454.5 444.2 433.2 422.3 450.9 488.4 412.1 347.4 331.9 376.9 423.5 442.1 445.6 484.0 496.9 487.2 488.6 444.1 402.7 397.6 387.9 375.1 382.4 354.2 334.2 385.0 382.0 372.0 381.4 376.5 369.8 356.6 352.3 346.0 321.8 327.2 363.8 388.2 397.1 401.6 394.7 393.2 389.9 395.5 402.1 415.1 433.9 444.6 439.5 439.9 440.5 441.4 441.1 440.1 441.8 440.9 437.6 448.7 459.3 456.6 452.0 450.0 449.3 447.0 450.5 449.6 444.9 424.5 448.4 448.9 439.9 429.9 421.7 413.4 389.7 366.3 382.8 392.3 391.8 347.4 421.8 457.0 433.4 392.7 391.9 385.6 362.2 353.9 375.3 416.1 439.2 463.1 464.8 477.3 486.6 484.3 481.0 480.5 485.3 496.6 511.3 526.2 562.5 577.1 568.3 608.2 632.3 667.8 675.9 678.6 684.8 682.7 681.3 683.6 690.7 687.6 674.8 674.8 674.9 677.0 672.3 672.6 679.2 668.0 656.6 652.3 648.9 647.3 650.7 650.1 644.9 642.6 638.7 633.7 632.0 633.9 635.4 634.5 634.2 624.0 614.5 607.7 598.8 592.0 582.2 572.2 569.2 558.5 548.1 542.6 538.0 535.5 528.9 509.2 473.8 498.0 504.3 510.9 509.6 515.4 515.2 500.3 483.0 470.5 466.5 455.9 465.1 453.7 451.9 446.0 417.5 421.6 427.4 411.9 400.0 391.9 387.5 388.2 388.7 381.6 374.0 371.8 375.8 378.6 376.2 372.8 374.0 371.8 367.3 363.4 367.8 361.7 356.9 360.6 359.8 355.5 352.8 353.2 351.9 340.5 337.5 318.8 325.6 318.0 312.0 304.8 298.0 288.8 283.2 284.7 282.7 278.9 275.1 270.4 275.5 274.1 270.7 271.9 273.3 271.2 262.4 252.4 246.4 248.9 248.3 246.7 228.8 237.4 234.7 236.2 238.2 237.4 236.4 235.0 230.3 218.8 222.8 231.0 230.5 224.8 227.0 -9999.0
-9999.0 501.2 472.3 504.8 552.7 550.4 527.5 510.4 481.3 492.6 452.2 391.9 327.5 307.8 326.4 335.9 333.7 335.8 387.8 390.4 365.9 390.6 519.0 545.7 525.9 516.3 514.6 524.1 452.1 398.9 395.6 426.6 465.3 503.2 487.1 517.7 527.6 571.0 582.4 534.4 532.2 556.3 585.5 607.4 645.7 677.8 706.6 731.0 760.4 785.8 815.6 865.5 871.3 869.2 848.5 796.9 782.0 772.9 754.1 708.5 695.0 692.3 697.1 747.0 766.0 777.7 815.8 818.9 826.1 802.9 815.6 824.3 857.5 888.3 917.2 927.1 918.9 906.7 895.6 903.1 878.3 880.1 893.2 913.9 912.4 899.8 891.3 878.5 885.3 887.4 878.2 887.0 881.1 880.1 880.8 857.1 818.4 768.7 734.9 767.0 815.6 823.7 821.9 808.4 815.9 835.5 861.9 868.9 884.3 879.5 848.1 821.8 769.1 710.3 733.3 793.5 810.5 773.8 784.0 722.5 648.6 587.2 521.0 440.0 405.1 412.5 462.5 526.1 552.8 485.2 419.9 359.2 314.2 299.7 332.8 368.9 403.8 453.8 514.4 595.6 665.3 693.5 689.6 694.7 708.6 699.9 672.6 663.1 630.5 619.7 620.2 553.0 507.4 482.3 442.2 414.3 397.0 386.9 379.0 406.8 374.3 355.5 423.1 450.5 486.0 474.9 529.2 573.2 557.6 530.8 472.0 449.5 437.9 407.9 401.3 385.9 367.1 343.0 393.2 391.0 388.6 390.3 375.8 377.5 376.3 373.1 381.0 345.1 343.9 331.5 329.7 336.8 350.1 343.8 341.7 344.4 367.3 360.4 371.0 373.5 393.7 403.7 420.2 425.6 436.6 444.5 450.1 451.0 452.6 451.1 450.4 461.0 466.0 463.5 462.0 459.5 459.8 458.2 458.5 450.0 446.8 456.8 449.2 452.9 453.6 451.8 445.3 436.4 403.1 436.7 437.7 443.6 385.2 387.3 449.4 469.3 454.9 439.7 412.5 397.3 384.1 382.3 406.2 426.5 450.6 478.2 489.1 497.2 494.4 489.6 486.5 476.9 477.1 487.0 488.9 493.0 507.6 520.7 555.5 596.4 600.5 625.1 661.9 678.7 674.6 685.4 687.4 691.8 694.7 681.3 655.4 670.1 675.7 667.4 666.5 674.5 673.0 663.8 657.6 656.0 648.6 650.6 644.9 645.0 643.7 637.8 637.6 637.6 636.7 643.1 644.7 644.5 644.5 629.7 621.2 611.7 603.5 592.3 579.0 569.9 569.9 562.2 555.2 544.6 533.6 515.7 494.2 496.2 520.6 523.5 522.8 529.1 535.1 534.7 525.8 510.0 494.5 482.6 489.3 485.1 483.3 480.8 459.6 434.1 456.1 458.9 440.8 421.2 401.5 398.7 396.2 390.2 382.6 379.2 380.6 383.3 385.1 380.8 380.2 380.4 378.3 374.9 374.9 373.7 369.5 367.5 368.6 369.2 365.6 363.3 362.2 356.9 352.6 341.5 338.1 340.5 336.1 329.7 311.2 299.3 292.0 289.6 288.1 284.6 280.4 276.6 277.9 279.6 277.7 274.4 274.5 276.1 275.9 270.9 263.2 256.8 255.7 257.3 249.0 240.3 253.7 250.3 246.6 247.5 246.6 243.9 241.0 239.8 223.6 234.2 238.4 238.4 233.6 237.7 -9999.0
-9999.0 497.7 484.6 538.6 602.4 579.7 492.5 438.7 416.4 399.4 399.4 362.8 325.6 351.2 345.5 339.7 334.0 386.0 463.5 492.9 439.3 367.2 439.6 500.5 492.9 503.0 534.0 549.3 498.2 441.4 417.3 397.9 431.8 450.7 477.5 519.0 564.3 596.7 560.0 521.1 530.6 573.7 585.1 588.6 620.3 648.6 664.7 690.0 722.6 759.5 806.4 858.5 904.0 927.1 893.3 859.0 851.0 837.3 800.7 772.3 768.5 770.0 763.4 798.7 831.9 843.4 853.5 856.4 857.4 833.9 808.2 799.4 837.3 863.0 902.4 922.5 920.5 908.3 903.2 885.8 853.7 897.3 923.8 915.3 900.6 893.6 883.2 874.0 860.6 852.1 856.0 855.7 841.9 858.1 886.1 879.2 855.8 817.3 750.8 732.3 792.1 812.3 801.7 807.2 835.6 867.4 895.8 923.7 929.8 925.2 902.8 851.0 789.0 710.7 646.2 648.4 669.8 705.1 747.7 742.0 681.9 618.0 552.8 500.0 441.8 387.4 389.5 449.1 510.7 525.5 465.0 373.2 311.7 312.8 356.9 401.3 429.3 471.1 539.8 628.2 717.0 734.6 735.7 741.5 754.2 748.9 731.1 705.0 677.8 642.8 607.8 574.0 544.3 519.3 501.7 477.8 473.8 477.7 462.3 428.2 368.6 352.2 428.4 485.9 524.5 520.1 546.5 600.4 596.5 550.1 521.3 514.7 486.6 462.3 435.9 406.6 390.2 351.8 394.1 419.4 403.1 409.4 425.3 419.9 400.6 402.6 366.3 389.2 376.0 413.2 392.6 374.8 369.0 377.4 377.8 389.4 373.9 397.2 405.0 387.9 397.0 389.1 375.2 384.6 382.2 398.6 420.0 430.4 447.0 456.2 458.1 458.0 469.2 471.1 469.7 469.3 469.1 468.2 468.0 466.1 465.2 464.2 465.0 467.4 465.6 457.1 447.3 428.9 438.6 454.4 450.2 434.0 425.3 386.4 423.2 455.9 478.7 450.3 444.1 453.7 425.1 409.3 390.4 403.2 435.1 455.7 473.6 494.3 497.5 496.1 493.8 487.8 482.0 470.6 469.2 475.5 482.7 485.8 493.4 508.7 518.6 529.0 548.1 568.1 586.4 628.6 670.1 683.5 664.8 674.5 642.0 674.0 670.2 641.1 654.6 673.0 669.0 658.0 646.9 648.7 650.7 649.7 645.9 650.6 647.0 649.2 648.1 646.3 644.9 646.8 653.5 658.9 660.3 646.1 631.7 621.0 611.7 596.4 586.4 572.4 563.2 555.0 546.2 535.0 514.3 518.8 522.7 517.9 539.2 537.9 536.9 536.4 530.4 527.5 521.1 509.4 505.3 505.5 503.9 503.1 508.7 501.6 474.3 455.8 481.0 488.3 471.0 450.6 432.0 415.6 407.3 397.5 392.1 392.9 392.0 393.7 392.3 387.5 386.2 388.0 387.7 383.6 381.4 385.1 383.5 385.3 386.9 386.4 383.7 379.2 377.5 366.5 354.0 360.2 359.3 355.1 350.8 346.6 326.5 308.5 301.7 297.8 295.5 290.2 288.7 286.3 284.7 286.4 285.3 283.0 284.0 286.0 287.5 287.2 278.9 269.2 263.8 265.2 258.8 246.6 261.9 262.3 259.3 253.9 255.7 251.5 249.0 246.8 231.5 241.7 246.6 244.9 241.9 246.2 -9999.0
-9999.0 527.9 504.7 531.3 587.6 585.6 538.0 496.3 471.7 435.7 366.8 370.9 388.5 388.4 446.2 424.1 382.0 456.5 497.6 456.7 399.4 381.4 425.1 437.8 461.7 478.9 511.5 526.3 481.5 479.7 461.7 416.8 404.8 435.1 494.9 541.2 583.7 587.9 540.0 490.1 517.1 529.3 541.3 596.7 652.1 705.5 744.2 765.4 789.9 797.1 799.4 831.6 860.6 894.2 914.2 923.2 921.4 889.3 851.9 843.4 844.6 849.9 844.7 865.0 886.5 895.2 875.6 835.1 796.8 779.0 766.8 762.2 784.3 811.3 862.5 911.8 914.7 897.0 879.7 850.1 835.0 883.4 916.0 901.6 885.9 890.9 889.1 892.0 872.5 819.4 800.5 803.1 781.7 810.1 846.7 876.9 854.0 804.4 732.8 736.3 788.0 790.2 801.1 836.1 873.8 916.1 939.8 949.8 944.4 916.8 877.4 828.0 769.8 714.1 693.8 674.4 609.7 600.5 649.4 704.4 703.9 662.0 602.6 539.4 498.1 451.6 379.2 369.1 444.1 527.7 513.7 391.0 312.8 352.6 412.0 436.0 465.6 520.2 581.6 671.9 729.6 787.9 795.9 820.9 824.0 824.8 805.2 788.2 741.8 687.1 648.4 622.2 578.9 568.1 539.1 519.4 503.0 476.7 449.8 428.1 379.4 367.7 414.0 448.4 510.9 574.1 608.6 614.7 583.7 543.2 506.5 489.8 465.8 456.8 426.0 391.1 378.7 382.9 419.2 431.4 416.8 454.3 455.8 429.8 448.7 410.9 416.9 422.1 411.5 442.2 434.8 427.0 417.2 419.4 411.7 410.8 412.8 413.0 411.4 403.3 413.5 411.1 383.3 406.0 415.5 400.9 399.2 390.4 396.5 412.0 435.5 437.2 452.2 467.7 466.0 472.3 468.8 465.2 462.5 464.6 463.9 469.5 471.7 475.4 475.0 471.1 465.6 463.7 463.6 453.4 452.9 449.4 433.7 436.6 435.8 427.2 457.1 481.9 490.0 466.8 434.1 417.5 413.9 405.4 406.2 424.0 458.0 471.3 463.2 464.0 464.1 466.6 469.5 471.0 462.2 460.6 466.7 472.3 475.7 482.6 486.9 491.0 500.3 509.4 519.7 534.0 558.3 594.0 622.1 629.0 650.9 660.4 635.9 649.5 665.6 657.9 639.3 628.2 652.0 662.1 662.2 657.4 654.0 653.6 658.2 669.6 670.6 662.0 658.2 653.7 653.9 664.1 663.3 652.6 638.0 624.0 621.8 610.0 603.2 590.1 574.2 559.2 559.9 540.6 535.5 541.7 529.4 538.3 549.4 546.0 545.3 541.6 533.8 526.4 518.0 513.4 519.3 521.0 521.4 522.5 522.7 514.4 498.2 463.4 486.0 494.9 476.1 459.3 440.6 442.8 433.8 425.6 412.9 410.0 412.3 404.6 398.9 396.0 393.5 392.7 395.8 392.7 387.8 389.4 394.3 402.8 412.1 413.0 410.1 403.5 396.5 388.6 371.2 385.0 393.0 380.4 363.7 350.3 333.9 318.4 314.8 310.0 303.4 300.4 298.7 296.1 292.5 290.9 291.5 289.3 291.7 296.9 299.3 294.2 284.0 273.5 268.6 271.9 261.2 255.0 268.5 266.2 265.5 262.2 262.1 258.8 257.7 253.8 237.0 249.6 252.1 249.5 247.4 249.5 -9999.0
-9999.0 586.5 548.5 570.8 592.9 535.7 502.1 438.0 419.8 400.1 429.1 445.2 478.6 432.2 478.7 471.0 475.2 504.8 484.8 407.7 385.1 460.7 496.8 487.1 470.8 488.5 494.2 505.2 496.8 491.5 463.0 443.8 435.2 427.3 443.1 488.7 496.5 480.7 467.0 473.5 489.2 505.1 561.2 637.0 673.8 731.0 758.5 773.0 793.3 759.9 735.0 783.6 820.8 840.4 874.6 916.3 942.6 939.1 916.5 913.7 922.4 927.6 919.5 918.4 923.5 906.1 880.9 843.5 804.4 766.4 729.0 729.1 762.0 804.2 853.8 898.5 898.1 880.3 847.0 817.7 808.8 842.1 851.5 852.8 887.2 913.9 919.7 911.0 878.3 832.1 775.4 735.0 727.2 763.8 795.0 809.8 808.1 766.6 707.5 734.0 769.9 780.7 795.2 815.2 854.2 894.0 911.6 888.8 876.1 855.2 826.9 788.7 762.3 762.4 774.2 746.9 683.9 594.9 586.9 674.6 723.3 681.2 647.0 582.0 521.2 471.3 415.5 347.9 405.3 462.7 413.2 331.8 354.6 431.7 522.4 541.6 527.1 555.7 621.4 728.6 799.0 852.0 899.2 933.0 939.9 931.0 902.1 899.9 812.5 754.2 725.4 658.0 634.3 599.7 570.2 542.0 512.9 491.2 471.6 449.5 398.7 394.4 474.3 503.0 517.0 556.8 620.3 649.3 623.5 574.3 548.5 529.8 484.1 426.5 418.0 439.4 458.3 456.7 460.6 455.0 457.3 465.1 468.1 442.5 424.9 435.1 452.4 450.6 460.0 458.2 455.1 448.7 440.0 436.2 428.7 449.5 443.6 429.2 441.4 450.1 437.1 435.3 416.0 388.0 421.3 424.8 421.7 409.7 417.5 408.3 397.3 417.9 427.8 435.5 440.5 453.7 465.7 474.9 470.9 463.6 453.5 450.0 453.6 460.5 479.4 479.9 482.7 484.1 480.6 473.1 463.7 460.4 454.7 463.6 458.7 474.3 464.9 471.2 497.4 489.1 464.8 476.4 448.3 424.1 414.2 409.4 428.0 439.6 437.2 436.4 442.9 454.4 455.2 455.2 446.2 461.0 470.3 474.3 475.8 489.5 496.8 494.0 492.3 493.8 497.4 504.2 517.1 537.0 559.5 580.9 637.1 675.3 616.9 669.2 673.2 664.1 608.9 644.1 660.7 665.5 668.4 661.4 659.9 660.2 665.1 681.2 700.0 688.2 677.5 668.8 666.3 667.1 670.3 660.9 647.4 638.4 642.3 628.6 624.9 601.5 582.4 570.9 575.9 561.5 552.8 549.1 539.2 547.3 552.0 547.9 545.5 544.8 542.9 539.2 533.3 525.3 527.9 525.8 528.6 531.3 529.9 519.5 501.2 485.3 479.3 489.1 479.2 465.6 464.6 464.1 470.4 453.0 446.7 440.2 424.2 419.7 412.7 407.8 405.8 402.1 400.2 400.7 396.1 394.0 395.8 402.4 413.7 413.4 410.8 403.8 400.3 390.7 395.9 400.7 393.1 380.8 360.8 343.9 333.1 328.5 324.7 316.2 313.4 312.8 307.0 303.6 298.2 295.0 293.6 293.0 292.9 296.4 298.2 291.0 284.4 280.5 278.0 272.3 259.6 272.8 278.9 275.8 275.5 273.4 269.3 266.8 255.7 245.9 243.1 257.6 258.6 260.7 258.5 257.9 -9999.0
-9999.0 647.9 616.8 605.0 554.6 484.1 453.4 445.2 486.5 484.5 529.2 532.4 533.5 535.8 539.8 536.2 568.8 543.5 482.4 419.3 384.3 430.5 469.1 495.1 487.5 501.2 518.9 529.6 545.1 528.1 519.8 494.1 484.6 503.5 458.8 449.6 464.9 484.2 493.2 503.3 500.8 489.6 549.3 630.3 657.0 661.7 672.9 716.8 746.0 709.0 714.0 745.7 753.1 802.1 853.1 881.1 907.2 925.4 928.1 954.8 984.6 955.0 902.3 862.4 852.3 850.6 830.2 795.3 780.7 744.3 701.5 739.0 789.1 833.3 872.6 893.0 886.9 888.9 872.1 845.4 802.4 776.5 796.6 850.9 903.2 931.3 906.9 895.4 883.3 845.9 793.2 750.6 695.2 710.0 743.1 738.7 728.7 698.8 693.0 733.7 763.2 778.6 780.4 795.7 797.4 818.5 837.4 828.7 800.8 795.6 786.5 772.2 783.5 799.3 798.1 777.8 714.8 632.0 558.2 643.6 692.4 695.8 672.4 637.1 573.3 505.2 447.1 369.1 350.6 383.9 324.7 363.9 394.7 434.1 490.0 586.3 623.5 653.4 721.6 775.8 864.4 947.4 996.0 1088.7 1114.7 1092.4 1040.0 1011.2 885.8 863.7 770.5 741.0 679.3 629.4 595.2 557.7 523.7 499.4 471.5 451.7 405.1 417.4 485.3 542.7 596.3 626.8 643.3 658.9 630.6 608.2 575.8 548.9 493.1 438.5 490.1 538.5 524.7 496.8 489.0 487.2 479.2 469.3 454.8 448.0 470.4 468.6 467.4 466.7 461.9 459.5 462.9 463.0 458.0 454.8 459.0 459.3 451.4 457.4 469.0 462.2 457.9 440.0 422.6 398.5 437.2 444.8 430.8 425.3 420.2 430.1 412.8 409.9 434.4 434.8 434.7 435.2 438.2 445.2 451.6 461.6 469.8 469.4 445.5 443.0 465.8 463.7 470.8 484.6 474.6 476.7 482.9 478.6 467.0 481.5 475.9 476.5 484.0 484.8 489.5 503.7 503.9 489.3 479.9 470.6 435.3 423.9 424.2 418.4 417.6 419.0 432.5 434.9 444.1 431.0 443.8 460.7 479.3 496.3 491.9 490.2 502.3 507.1 504.1 502.8 500.6 500.1 506.2 518.4 533.1 546.7 592.9 626.7 596.8 635.8 633.7 615.5 626.7 666.1 668.4 666.1 667.0 664.5 665.0 670.6 673.3 684.5 707.8 711.9 707.1 692.4 684.6 680.8 677.7 667.2 658.9 655.6 657.0 641.2 619.9 592.7 581.3 583.7 579.4 573.4 566.6 556.2 551.8 556.6 553.2 547.6 545.8 545.9 546.4 540.8 542.4 537.8 534.0 530.8 532.2 534.5 533.4 522.6 510.1 502.4 499.4 500.4 498.2 482.5 502.4 492.6 493.9 471.0 483.5 471.3 438.4 449.1 440.1 427.2 437.6 427.4 409.5 406.4 404.4 401.5 398.6 402.3 407.1 406.8 404.2 402.6 400.0 401.1 409.3 405.6 387.6 370.1 358.9 351.5 344.3 343.2 334.0 337.2 332.3 324.5 318.4 308.3 302.1 299.2 298.0 296.7 296.6 296.1 295.7 293.3 289.6 289.0 286.1 285.0 276.7 270.0 276.1 285.8 289.7 289.7 279.4 262.8 263.8 265.5 256.1 265.4 268.4 270.2 274.6 274.3 -9999.0
-9999.0 654.3 617.8 552.9 509.9 518.8 543.9 532.1 520.2 557.3 591.4 596.4 614.4 638.0 618.0 605.7 604.7 543.0 516.2 478.2 448.6 406.3 393.7 419.8 443.2 490.0 519.6 543.1 570.3 579.3 557.2 519.6 538.0 558.3 516.5 515.2 539.6 553.1 559.5 585.0 568.8 537.1 510.0 570.0 605.5 600.3 612.8 658.9 714.3 684.6 664.4 688.6 745.9 795.2 836.1 854.8 862.4 879.9 893.5 954.6 998.7 1027.7 983.7 898.0 804.7 774.0 748.8 724.1 706.7 685.2 682.8 736.7 796.5 836.1 853.2 860.5 881.7 894.5 889.1 867.4 817.4 756.1 810.3 881.6 920.5 916.7 879.5 873.3 867.7 829.5 794.9 763.7 712.9 658.3 651.4 650.5 667.1 695.8 737.5 755.5 773.8 764.8 791.5 802.7 783.2 776.6 771.9 761.7 750.6 766.8 770.9 762.6 767.9 753.3 743.2 735.0 685.1 615.2 530.3 590.2 640.3 644.1 675.8 658.2 576.1 518.9 452.3 404.2 331.0 325.3 370.3 427.7 462.5 496.7 522.4 582.5 615.7 679.2 715.7 751.4 806.5 876.2 946.0 1004.3 1151.6 1248.3 1244.6 1153.7 1035.3 922.5 854.6 774.6 719.0 645.1 614.9 578.3 534.1 507.9 491.4 476.5 423.1 393.4 475.2 549.1 626.3 675.3 697.8 668.9 629.9 590.1 542.9 511.0 483.3 455.7 524.7 571.1 552.9 534.2 519.3 504.9 486.2 465.9 466.5 471.6 471.0 466.9 462.1 458.9 458.8 456.4 449.6 452.8 453.3 456.5 460.4 461.2 469.8 472.2 457.5 424.4 416.9 436.4 445.2 474.2 479.9 471.0 459.7 439.8 435.8 436.6 420.6 412.0 435.3 437.6 436.4 433.6 433.8 432.9 433.3 434.4 437.8 443.4 440.8 435.8 438.1 444.8 450.6 465.4 455.6 463.5 487.7 490.3 490.8 492.2 493.9 489.3 491.7 495.3 496.0 498.8 507.4 511.5 508.6 489.1 472.7 449.4 442.4 428.5 418.1 412.4 412.5 415.4 430.6 418.7 434.6 455.7 472.1 498.6 506.4 498.5 503.2 510.9 511.7 508.3 505.7 503.6 503.8 509.8 516.4 519.6 530.5 583.0 580.6 596.8 579.8 616.6 655.4 665.0 656.2 675.9 673.6 674.6 677.7 680.6 682.4 686.6 693.0 709.6 714.3 708.4 704.6 692.8 681.4 672.5 669.5 666.9 662.1 647.5 623.7 608.2 601.7 601.9 596.7 585.2 575.6 570.6 564.6 560.7 555.8 549.2 546.7 545.6 544.4 543.6 541.4 545.0 543.8 538.5 531.9 529.5 533.9 532.4 521.8 520.0 515.5 518.9 508.6 499.0 521.3 518.0 518.0 505.8 490.4 470.5 450.7 469.0 467.5 455.3 447.4 448.1 426.8 413.8 410.3 404.2 404.3 410.4 410.9 408.0 406.1 405.0 403.6 403.1 408.2 410.1 395.0 381.3 370.1 360.0 350.4 347.7 343.4 351.4 350.5 343.6 327.7 313.8 306.5 305.5 305.1 305.5 304.1 302.1 300.0 296.2 294.4 293.3 293.7 291.8 289.8 288.4 275.1 288.0 290.0 290.6 285.6 272.5 280.2 279.5 265.4 274.1 284.5 283.1 284.6 286.2 -9999.0
-9999.0 626.4 627.9 563.6 587.1 614.3 637.6 635.7 626.0 636.4 663.5 691.3 708.2 718.9 683.9 668.8 619.0 601.5 578.0 524.2 464.4 417.4 423.0 422.8 401.7 402.7 434.8 486.4 537.6 575.5 580.4 538.9 588.9 586.2 549.1 560.7 602.2 622.4 622.0 650.3 657.0 610.0 559.7 540.5 557.1 567.7 567.5 616.8 665.5 660.6 635.9 683.6 757.1 793.8 826.1 812.8 819.1 847.6 925.3 997.1 1011.3 1011.0 1009.3 946.4 867.3 809.5 775.9 776.8 753.7 699.2 649.1 691.7 757.9 807.5 837.0 865.4 881.3 879.4 869.8 841.1 783.5 728.2 785.3 826.2 863.5 864.2 840.1 817.0 791.4 758.6 748.5 742.5 717.6 674.9 631.1 673.7 725.1 767.4 793.6 790.5 785.3 751.0 792.1 788.7 767.4 782.8 778.7 750.2 721.2 721.4 723.1 727.8 721.1 702.2 735.0 741.4 699.7 636.8 543.9 501.0 534.3 580.1 613.5 624.9 601.0 543.3 467.4 382.2 321.5 367.4 436.0 479.7 513.4 565.2 627.6 669.3 656.5 672.7 703.6 746.0 825.0 866.9 890.3 907.1 1007.8 1111.9 1242.0 1139.5 1049.8 1011.6 923.2 828.8 749.7 668.7 617.4 577.4 560.3 544.9 528.3 483.3 440.2 399.5 462.9 532.4 586.9 599.7 637.6 655.6 663.4 630.1 573.0 512.6 465.3 505.0 546.5 584.8 605.4 575.5 535.2 516.8 498.0 493.0 495.3 488.6 485.0 475.4 470.7 472.0 470.6 462.1 460.4 458.2 454.3 451.1 447.8 446.7 444.7 438.7 424.2 438.9 467.1 484.7 484.9 481.3 475.1 480.7 475.2 465.7 467.5 442.4 414.0 433.2 442.2 440.8 437.2 435.1 433.2 432.7 431.8 430.6 429.4 429.5 430.2 431.4 431.5 434.2 438.5 443.5 442.1 452.6 468.3 473.7 481.6 489.4 498.1 491.8 484.3 484.1 492.8 489.0 495.7 500.9 513.6 515.1 504.6 491.8 469.7 444.6 437.8 430.5 417.6 406.8 412.0 403.3 431.7 441.6 451.0 466.4 501.8 512.8 512.2 511.9 512.9 508.6 505.7 503.4 502.1 502.5 504.5 505.9 514.5 531.1 544.8 559.8 575.4 617.9 631.7 658.2 621.2 644.5 680.1 684.8 684.9 683.9 687.2 693.1 693.3 698.8 697.6 694.7 694.0 694.2 682.4 668.9 661.3 658.5 653.5 645.0 627.2 618.7 610.4 604.2 594.3 583.6 582.6 577.3 570.7 562.1 553.2 549.7 546.9 545.1 543.1 543.3 543.1 540.9 540.2 536.4 529.9 528.2 529.6 532.0 533.4 528.9 532.8 533.9 529.1 519.2 529.8 525.2 516.5 510.3 509.0 491.8 463.0 471.0 477.2 480.0 473.1 461.1 450.4 428.3 413.4 413.2 410.5 412.6 415.1 411.3 408.4 407.0 407.8 409.6 423.7 429.9 428.5 410.3 381.8 368.9 362.7 357.2 352.6 351.5 357.5 356.7 342.6 329.3 321.8 318.7 319.4 319.4 314.7 312.6 307.1 302.4 301.5 299.5 299.6 296.8 296.2 295.2 280.6 291.8 295.4 293.8 289.3 287.1 287.9 290.1 286.0 272.5 291.4 293.8 292.8 296.2 -9999.0
-9999.0 605.4 643.7 617.6 667.9 705.2 745.4 757.1 761.8 758.9 800.0 816.0 802.3 800.2 768.9 738.7 681.0 632.0 574.2 531.9 522.5 485.1 490.9 483.9 476.4 456.6 410.2 415.5 491.3 561.3 595.8 554.7 594.2 600.5 562.4 590.5 626.8 645.9 664.8 683.8 715.5 692.5 660.2 647.6 640.5 647.7 619.8 606.2 593.1 610.9 688.7 737.8 715.1 782.5 814.6 791.6 807.5 885.1 922.8 918.5 942.6 980.1 1007.4 988.3 910.5 851.5 843.7 866.1 843.4 734.0 647.5 654.9 717.1 763.9 800.2 846.3 886.3 886.7 862.8 828.8 783.2 712.5 735.7 796.5 838.4 844.2 820.5 784.9 745.2 707.5 690.7 679.6 671.6 656.1 608.0 663.6 716.8 759.9 797.3 777.9 754.9 746.2 783.6 768.6 735.9 768.6 773.0 759.0 741.3 715.0 674.8 677.8 677.3 669.5 707.8 714.0 719.7 681.1 610.4 537.1 471.2 463.2 493.6 515.9 528.8 515.4 428.2 354.1 343.8 409.2 434.7 496.6 567.4 624.4 645.5 672.9 698.5 727.0 763.6 806.4 868.6 929.9 945.2 964.8 1017.7 1157.3 1143.8 1031.6 947.6 928.1 918.1 836.2 759.1 708.4 663.4 650.7 605.5 557.2 511.5 471.1 464.7 419.4 432.6 479.4 515.1 525.9 579.0 640.6 633.9 593.8 547.3 492.2 506.2 553.9 589.8 642.9 665.7 625.1 595.0 556.4 525.3 516.4 506.3 501.5 496.8 497.0 495.3 490.2 488.5 482.1 476.9 471.4 465.9 464.9 465.0 461.4 456.9 438.7 436.8 477.5 491.3 494.3 496.5 497.0 498.8 499.2 496.4 479.0 448.4 426.9 465.6 475.2 460.7 455.8 446.2 441.2 436.8 435.4 434.5 434.1 432.5 432.2 430.8 429.2 427.9 428.1 428.9 431.2 432.4 442.2 449.0 457.7 464.3 472.4 482.8 496.1 499.5 488.5 473.5 485.9 477.0 491.6 513.1 514.9 501.8 487.8 485.7 485.4 486.4 468.1 438.0 416.5 403.7 391.9 406.2 423.0 431.3 446.5 467.5 482.1 489.2 476.6 480.3 501.7 508.4 504.2 501.3 499.0 499.6 503.4 510.4 520.0 521.5 530.8 557.6 582.7 610.0 617.3 612.7 660.7 671.0 687.8 698.7 687.5 686.5 690.0 686.6 684.7 685.4 681.7 683.1 685.7 683.6 682.3 667.8 650.7 641.3 637.1 624.1 616.5 607.9 604.2 595.6 582.0 576.0 577.4 576.6 569.9 562.3 558.9 554.8 548.5 545.5 546.0 550.1 548.9 547.4 540.5 532.9 529.8 530.5 529.9 530.9 531.6 536.8 537.8 537.5 538.2 531.8 524.7 521.4 528.9 527.1 510.0 477.0 484.3 488.7 486.6 482.3 471.5 452.7 434.8 420.9 419.0 418.4 415.6 417.6 414.7 410.2 409.9 411.4 416.7 438.7 445.6 443.2 428.8 406.6 389.2 377.6 370.7 365.0 365.4 361.1 361.6 362.9 356.9 343.2 340.7 338.7 333.7 327.0 326.4 320.4 314.5 309.9 308.4 305.6 305.5 306.9 303.5 290.5 289.4 300.3 297.3 293.9 297.4 295.9 296.6 293.9 280.9 290.2 298.3 296.3 297.6 -9999.0
-9999.0 631.2 683.5 686.3 747.1 893.2 1061.1 1137.3 1100.3 1054.0 1059.4 999.4 917.1 890.6 837.6 775.4 716.0 660.6 640.4 630.4 595.9 556.0 570.3 548.8 552.6 520.0 476.7 427.3 472.0 575.6 627.1 591.9 604.2 629.5 579.2 610.9 653.3 661.7 677.9 712.7 734.5 734.1 721.4 712.9 713.7 715.9 710.3 675.7 639.0 695.8 778.9 788.6 734.9 756.3 767.1 787.2 859.5 897.3 913.9 936.3 942.6 935.2 939.9 914.6 881.6 828.3 777.0 831.5 895.9 777.0 649.9 638.2 717.2 778.1 830.0 879.0 905.1 883.9 857.7 831.3 793.8 723.4 701.9 791.2 848.5 849.0 817.0 786.7 757.6 731.8 687.2 652.1 626.4 609.3 599.1 650.9 690.9 739.7 758.9 734.4 720.1 761.2 786.8 747.0 712.6 756.2 764.4 749.4 728.9 696.5 647.9 627.6 656.3 618.9 623.6 636.5 661.8 668.3 632.4 613.3 563.5 499.6 433.0 403.5 434.3 434.5 378.0 330.6 377.0 447.8 501.9 514.7 585.7 624.9 646.2 657.1 682.9 732.7 765.7 785.9 760.1 779.7 823.5 977.2 1102.3 1179.0 1128.5 985.7 910.3 878.7 838.9 832.6 791.5 750.9 702.3 641.6 581.6 529.4 510.9 491.2 463.9 431.3 458.3 502.6 492.9 538.1 557.0 609.0 630.0 581.4 526.3 505.7 552.5 595.8 643.2 672.8 703.1 671.6 638.5 594.5 570.4 543.3 520.7 531.4 530.5 522.3 512.9 506.8 500.8 499.9 493.5 487.4 481.2 467.3 464.4 453.0 438.9 451.2 475.4 486.4 493.1 494.1 491.0 489.2 479.5 476.5 481.5 474.1 428.7 484.6 503.6 485.9 493.4 502.1 491.4 475.5 458.8 447.2 442.6 440.6 439.6 437.0 434.7 434.6 432.9 430.5 427.9 425.4 425.8 428.8 435.0 447.5 447.5 452.9 463.1 473.7 486.5 488.2 483.1 459.8 458.0 487.0 506.2 507.7 502.5 487.8 471.8 464.7 467.6 479.4 472.8 430.0 405.6 391.2 380.3 381.7 404.6 407.4 424.5 432.8 435.7 435.7 459.5 501.0 511.5 507.9 504.8 502.2 497.3 499.6 505.0 505.7 509.1 519.3 522.2 531.4 545.9 572.4 607.6 633.9 642.7 654.6 688.2 694.6 691.8 690.1 687.8 685.3 679.9 677.7 677.5 677.6 678.8 681.3 676.3 660.3 646.5 637.6 628.3 625.2 614.4 600.3 594.6 583.2 582.5 581.0 579.4 583.1 577.6 570.2 563.9 554.4 550.3 547.6 544.4 543.1 544.6 546.3 541.5 536.0 540.5 538.4 537.3 538.7 538.4 542.6 543.1 538.9 528.9 522.8 521.5 519.1 513.0 510.5 490.7 490.5 496.9 501.4 495.1 479.7 454.2 436.9 426.4 424.5 423.4 421.1 421.2 420.5 418.6 415.3 413.3 416.0 427.5 426.4 419.7 419.8 422.3 402.8 388.7 377.8 375.2 373.4 370.8 373.2 374.8 366.5 361.9 359.6 355.5 346.6 343.4 340.6 334.7 331.1 325.9 324.4 319.9 318.2 319.8 305.4 297.1 305.7 305.3 306.1 302.8 306.5 305.2 303.7 300.1 289.8 299.7 305.1 306.9 307.0 -9999.0
-9999.0 668.5 717.8 752.6 799.6 925.2 1120.3 1262.9 1294.5 1336.6 1386.7 1286.9 1151.9 966.6 871.5 822.3 792.8 750.4 730.8 714.1 665.2 635.2 639.1 627.9 593.0 552.6 494.6 431.0 499.2 566.1 631.6 631.4 641.7 638.3 592.4 627.9 685.9 688.2 705.3 725.7 741.2 750.9 747.7 748.2 751.9 758.7 771.8 726.9 674.2 717.1 740.3 776.2 767.9 775.4 812.3 868.7 908.8 924.7 921.5 918.9 915.9 873.4 864.3 884.0 869.4 796.1 737.7 812.8 881.7 754.2 613.3 644.0 704.9 763.9 824.5 867.8 860.4 839.7 803.7 787.5 757.0 697.2 695.9 816.7 861.0 892.8 862.1 810.8 771.1 732.4 685.4 634.3 579.8 573.6 594.8 632.1 673.0 705.6 713.0 695.5 733.7 773.3 770.2 743.5 691.1 708.8 730.1 726.5 711.9 701.1 662.6 611.0 584.3 604.7 574.3 546.2 593.1 612.2 611.9 613.2 613.5 582.8 520.0 509.4 441.9 390.2 348.6 342.4 448.5 499.0 529.6 581.4 585.9 611.7 632.3 669.3 696.7 730.3 731.5 722.5 717.3 721.2 744.9 967.0 1163.3 1126.1 1053.9 979.6 878.1 828.2 789.8 771.3 758.8 734.4 707.7 641.9 607.4 585.8 532.4 483.1 470.7 438.3 450.4 547.0 568.2 562.9 602.3 627.9 613.2 565.2 524.4 547.8 599.7 638.1 695.7 721.8 725.1 688.5 658.8 620.9 591.1 571.8 547.3 531.5 524.7 520.4 516.2 513.7 514.5 510.2 504.2 496.2 475.4 457.2 455.4 465.0 470.2 476.5 483.9 487.0 491.6 494.3 493.5 492.4 486.9 473.2 446.3 437.9 434.6 487.6 519.8 511.9 520.1 525.0 527.5 518.3 509.9 484.8 472.6 455.5 448.0 443.6 441.7 440.6 437.7 434.4 430.7 428.4 426.4 423.0 423.4 427.8 430.7 434.6 443.2 456.7 469.0 470.3 474.2 457.4 445.4 479.7 492.7 494.4 493.5 499.5 497.0 484.8 453.2 436.1 442.1 429.0 405.6 394.3 383.2 368.7 380.6 380.8 391.1 386.4 393.3 412.3 439.3 489.8 512.9 510.7 508.7 505.6 500.6 494.7 495.4 492.7 501.8 505.7 506.6 513.7 522.1 530.3 545.6 566.1 592.0 629.0 676.6 702.8 703.2 699.9 702.8 693.3 684.0 678.6 677.3 678.5 681.8 681.6 673.1 665.8 652.7 637.1 621.4 617.1 611.3 602.3 592.6 581.5 579.8 569.0 568.9 574.6 580.3 574.1 564.6 563.4 559.6 546.6 537.8 537.2 537.3 538.4 537.4 540.8 544.4 546.2 551.2 552.2 548.0 552.5 551.9 542.6 535.2 532.8 538.6 539.7 527.9 521.9 522.1 515.6 504.1 501.6 498.4 484.8 458.6 437.0 432.7 436.3 432.3 430.2 429.9 434.2 427.5 421.5 416.8 415.2 413.5 407.6 402.0 399.3 400.0 395.4 390.7 383.8 380.7 378.3 377.5 378.7 379.4 378.7 374.0 369.7 367.4 362.2 354.2 350.9 345.9 347.7 346.6 344.3 337.6 332.1 326.1 308.0 311.3 314.8 312.0 311.8 311.1 311.1 310.9 309.7 307.2 293.3 303.6 307.4 310.5 314.5 -9999.0
-9999.0 858.4 848.1 879.6 1015.7 1003.8 1060.2 1114.9 1222.9 1320.0 1320.8 1297.8 1256.4 1108.9 1004.4 904.8 861.7 828.7 786.6 741.0 687.6 711.7 710.2 666.7 634.1 578.0 487.0 449.2 523.8 599.7 652.6 676.8 688.3 668.9 640.7 624.0 667.0 705.0 702.2 696.2 708.3 733.5 752.4 762.4 762.4 787.0 797.3 762.6 725.6 735.4 781.1 770.7 748.5 790.3 865.5 907.8 893.7 868.4 886.2 867.2 878.6 846.4 810.5 858.5 814.5 745.0 702.7 764.1 852.7 736.7 598.1 642.4 715.9 781.0 830.3 825.4 791.3 775.1 744.7 699.6 665.6 649.6 702.6 758.9 822.5 877.1 889.2 838.2 787.2 728.2 647.1 601.6 540.9 551.5 574.8 596.4 617.1 638.8 664.2 711.4 744.6 748.6 733.6 708.7 677.9 657.3 679.7 685.4 684.3 681.5 661.6 639.0 589.3 544.4 526.5 497.7 535.0 555.5 567.8 593.4 608.9 590.4 575.6 591.4 506.9 416.8 345.3 359.9 454.3 550.4 659.0 609.5 632.9 652.5 661.5 684.1 707.6 733.1 771.6 751.6 721.9 734.5 843.2 985.0 1024.2 984.0 907.9 857.8 808.0 760.3 737.3 722.9 724.4 715.5 698.9 651.9 587.6 540.5 531.9 537.1 499.9 466.5 426.6 491.8 554.8 564.3 578.8 639.5 644.3 583.0 557.8 566.6 611.9 665.4 727.7 781.0 763.5 739.4 706.4 662.2 633.5 602.7 575.0 564.2 553.1 533.3 517.4 505.1 504.3 496.1 490.7 481.1 472.3 486.0 492.1 489.8 486.5 486.8 485.3 485.1 484.2 483.8 485.1 487.4 482.6 464.5 448.1 498.4 475.2 460.0 502.8 521.2 533.3 530.2 515.1 513.0 508.0 501.5 491.7 484.1 473.6 460.6 449.9 446.3 442.0 438.3 434.9 431.4 429.7 427.5 424.1 421.0 420.8 420.9 426.0 436.9 453.5 457.1 449.6 445.7 436.8 480.4 488.5 479.8 480.2 489.3 508.1 510.3 504.2 479.5 438.1 413.1 405.5 398.2 391.9 386.6 372.5 359.4 362.9 372.6 386.7 396.4 410.9 446.3 505.9 513.7 511.8 512.6 508.3 504.0 494.5 479.6 483.6 492.2 497.2 498.3 503.1 505.9 518.6 535.9 555.9 616.0 649.8 686.7 690.2 703.3 710.7 708.2 696.8 687.8 680.8 676.2 682.5 682.8 672.0 663.3 656.1 651.0 635.2 618.3 602.3 591.6 582.8 572.6 568.9 563.6 559.5 561.3 563.4 564.4 567.0 571.7 568.0 551.9 539.6 537.3 540.0 537.6 531.7 537.7 540.1 542.9 543.6 552.5 548.9 549.3 544.3 546.3 544.8 548.2 553.4 553.3 550.0 538.8 528.4 514.6 499.3 490.0 484.5 483.5 462.0 444.8 453.8 471.1 460.4 451.6 447.5 449.6 440.0 427.1 420.9 418.3 414.2 407.7 402.4 398.9 393.1 390.4 389.3 387.7 384.9 384.2 382.6 381.8 380.5 380.7 379.4 376.7 374.4 370.4 366.4 361.9 359.8 357.2 356.5 353.6 345.1 334.0 326.8 314.9 308.6 322.2 324.3 319.2 315.4 315.1 316.1 314.5 313.3 307.4 297.3 312.5 311.6 312.6 -9999.0
-9999.0 901.8 917.4 950.1 1037.5 1061.7 1089.8 1119.3 1122.1 1154.0 1202.4 1188.4 1153.3 1106.3 1008.8 954.0 928.4 888.1 838.3 787.6 771.3 780.8 765.3 715.7 655.0 597.1 523.0 456.9 509.2 611.0 666.9 691.0 672.9 676.0 697.4 674.6 705.8 708.4 693.3 675.9 691.8 707.5 714.4 719.1 736.8 758.7 760.1 766.2 770.3 789.0 781.2 735.3 709.6 754.0 802.0 842.5 853.0 832.7 813.4 808.3 785.0 758.2 729.2 763.4 759.4 712.5 659.2 710.2 769.7 685.3 585.2 607.7 686.1 745.6 791.9 767.4 723.4 696.1 672.7 625.4 638.9 693.1 754.9 813.7 808.8 777.0 764.7 722.7 697.6 685.9 680.2 591.2 545.7 612.6 638.8 663.2 672.0 687.5 707.7 721.3 733.6 725.0 698.3 658.9 629.8 612.5 644.3 651.1 649.7 656.0 641.1 630.2 617.7 596.0 563.3 522.8 468.7 506.8 534.2 556.3 578.4 572.2 541.7 543.4 478.4 359.5 332.5 366.8 469.5 568.6 670.9 647.6 632.0 660.9 671.9 688.1 715.2 749.4 790.8 845.2 835.7 871.4 939.2 914.4 922.6 878.0 834.0 788.6 743.7 708.7 689.4 686.2 684.5 680.5 684.6 669.8 611.0 621.9 596.1 551.8 510.3 479.2 455.6 450.3 490.6 539.3 560.7 590.3 648.1 624.6 591.2 579.5 652.4 711.4 756.4 811.7 811.8 800.5 754.3 704.3 667.6 643.5 627.2 611.8 593.8 568.2 549.8 544.3 538.6 520.9 502.4 492.4 506.4 509.9 504.1 497.4 490.8 486.4 482.9 482.6 481.5 482.3 477.5 460.6 451.0 457.5 490.0 514.0 471.2 487.6 506.9 521.0 534.7 528.4 528.7 526.1 525.1 529.9 538.0 527.6 505.0 479.4 459.7 466.7 460.6 448.4 440.4 439.0 437.9 433.8 428.4 424.9 424.7 423.8 420.5 415.9 407.9 412.6 421.8 430.6 431.4 464.0 474.0 480.7 463.6 469.3 483.3 479.6 497.5 510.8 458.4 440.3 425.3 406.3 388.9 380.3 377.1 367.5 350.0 359.9 373.1 386.8 386.8 433.1 469.1 499.9 510.1 509.8 508.5 512.5 507.6 500.6 489.0 474.8 478.8 486.8 488.1 491.5 503.0 513.2 515.7 524.0 537.8 577.8 635.2 665.0 699.4 681.7 668.4 675.1 682.1 671.0 675.6 685.2 680.9 671.3 653.4 644.6 642.3 641.8 631.8 597.6 574.1 571.6 566.0 562.4 560.1 557.0 560.1 558.8 561.0 557.2 564.6 557.1 549.6 543.6 544.8 541.8 527.9 524.5 530.0 529.2 531.3 541.2 536.7 527.2 533.6 547.4 553.1 556.3 556.8 552.8 549.5 543.4 525.0 504.0 492.4 484.8 474.8 468.7 461.4 453.2 463.8 490.4 486.6 469.7 456.8 450.6 443.4 431.7 425.8 419.2 415.7 410.1 403.4 398.4 395.3 390.4 386.0 384.4 383.6 382.2 381.1 383.6 382.7 379.7 379.1 376.8 374.1 371.5 369.5 367.7 364.3 362.0 360.3 357.2 347.9 334.3 318.5 317.8 323.2 328.3 331.4 325.1 319.3 317.1 319.3 318.3 316.9 315.1 296.2 306.9 315.7 314.8 -9999.0
-9999.0 864.5 901.6 971.0 989.6 1025.1 1077.7 1107.9 1109.9 1131.9 1159.3 1153.6 1034.8 971.8 967.6 970.7 947.9 897.2 859.2 860.1 867.4 849.2 797.4 730.7 677.2 624.2 548.3 476.4 505.2 579.9 604.8 604.6 613.6 661.7 702.9 716.9 749.4 728.6 722.3 701.4 667.7 665.2 671.2 697.9 726.4 738.2 725.1 702.0 692.5 703.1 708.6 685.5 695.3 732.9 747.9 756.9 747.3 752.4 756.6 734.0 699.8 673.3 656.7 712.9 730.7 674.3 620.3 663.8 657.3 639.3 580.2 580.1 649.7 711.2 745.5 721.3 682.4 634.9 597.9 626.7 700.4 747.0 786.2 797.4 747.1 707.4 684.7 674.2 625.6 590.6 596.1 556.6 532.1 613.8 660.6 692.6 710.2 707.6 674.0 655.0 691.2 702.8 678.0 645.5 606.9 588.2 626.3 625.4 619.0 625.8 622.2 603.4 610.6 596.2 559.8 522.5 463.1 479.9 527.7 548.5 549.2 532.2 510.9 490.5 428.2 340.9 337.2 381.0 425.0 481.7 572.8 607.4 642.1 684.4 701.5 715.6 740.3 776.7 798.0 824.8 841.1 876.9 880.4 847.8 859.7 808.2 769.2 739.1 716.6 688.5 663.5 654.6 654.1 648.1 677.1 695.1 650.8 588.3 544.4 549.1 541.3 511.7 461.3 491.0 533.8 577.5 646.3 636.0 694.7 681.9 613.2 580.6 639.9 710.7 771.4 817.8 812.2 772.3 739.2 714.6 699.3 668.7 642.7 619.3 598.7 573.1 549.9 535.8 527.0 525.2 525.3 531.4 530.9 519.7 507.9 501.8 499.8 491.5 483.9 479.6 481.7 479.1 462.7 462.3 483.5 502.7 507.9 507.0 473.4 494.1 517.1 529.7 539.1 539.0 536.1 528.4 520.8 515.3 512.4 496.5 484.1 488.2 491.9 524.8 510.4 489.0 459.8 451.7 444.4 438.1 433.1 432.6 430.7 431.5 430.8 428.7 424.5 417.6 401.4 405.0 419.3 446.6 455.1 467.4 474.0 453.7 446.3 479.4 503.1 508.3 502.1 489.8 450.7 425.5 403.3 391.8 387.4 376.1 363.2 345.9 353.1 367.7 374.7 384.4 397.6 415.2 434.5 436.5 449.3 504.9 511.7 506.1 500.4 495.2 475.9 465.7 469.4 481.6 486.8 497.0 501.0 498.4 500.8 517.3 549.4 611.4 660.8 647.1 647.8 676.1 645.5 641.3 647.3 657.6 677.4 662.0 637.9 618.7 633.2 631.9 635.4 614.0 603.5 594.1 584.5 579.9 573.9 569.8 548.1 538.8 546.9 537.8 550.0 549.0 543.8 543.0 534.0 523.9 511.7 511.8 518.0 528.0 533.7 524.0 513.2 525.0 540.7 550.6 538.7 538.4 543.8 542.2 541.5 528.2 510.3 499.6 497.5 494.3 489.7 489.8 489.1 475.3 472.5 497.7 503.4 486.5 466.5 464.5 461.7 462.9 451.6 434.0 426.6 420.8 412.9 403.1 396.5 393.9 393.2 389.9 388.3 384.8 382.2 379.4 377.3 374.4 373.8 376.4 375.1 375.0 370.4 364.7 361.5 360.5 359.7 356.9 341.6 322.0 335.4 337.3 331.9 333.6 334.4 330.6 325.4 325.9 326.2 324.2 322.8 320.6 310.4 305.8 319.2 317.7 -9999.0
-9999.0 881.4 877.7 903.1 953.0 993.0 1022.7 1095.7 1141.8 1109.2 1068.9 1038.4 938.2 889.9 896.8 895.8 887.2 889.4 901.6 907.0 880.6 857.7 797.1 723.9 657.4 595.4 550.5 488.5 531.1 595.5 641.2 667.1 660.3 638.6 646.4 685.3 750.6 744.4 722.7 687.6 656.7 647.7 671.3 676.7 684.2 700.4 698.2 703.9 652.6 651.8 659.9 665.8 704.1 724.7 702.1 714.5 685.8 676.3 700.0 699.3 673.9 655.4 625.1 648.6 661.5 634.4 600.7 610.7 589.9 584.9 545.6 576.2 645.4 698.7 672.5 654.8 643.8 594.1 572.5 648.8 719.7 765.8 788.1 777.2 747.3 703.3 658.8 618.8 627.6 583.2 547.3 528.0 494.0 555.8 598.8 619.6 632.9 636.2 578.6 594.1 682.9 696.5 668.6 647.4 582.1 536.8 553.1 578.8 611.5 606.3 587.2 554.7 535.4 523.2 535.9 560.9 478.9 436.1 507.5 520.5 486.7 488.6 463.6 421.7 361.2 338.9 340.3 390.7 553.9 607.2 545.8 555.1 617.3 665.7 693.5 715.4 719.7 738.3 777.0 786.3 816.7 831.4 841.8 806.0 804.3 756.4 716.3 692.5 678.4 663.3 643.0 630.4 627.8 623.8 651.5 677.4 663.9 641.9 582.7 628.5 570.4 513.8 470.9 576.2 609.1 586.9 616.9 660.5 664.6 699.3 695.7 628.1 610.4 668.7 715.6 738.5 777.9 795.2 802.5 784.3 746.4 693.1 649.5 619.6 601.2 589.6 589.9 577.7 560.2 555.5 541.7 528.4 518.0 513.2 524.7 523.9 514.3 509.7 504.7 493.3 484.7 465.4 475.6 500.7 494.4 506.5 516.4 511.8 486.5 491.9 522.4 522.6 525.7 537.1 545.9 546.4 543.4 535.6 518.3 502.0 541.6 529.4 531.3 545.6 527.3 506.1 487.1 481.8 480.9 460.8 445.5 441.7 437.6 437.0 436.2 431.2 425.7 421.8 417.6 399.3 405.4 428.9 440.1 448.9 453.9 446.1 439.3 491.8 492.5 476.1 473.7 487.7 487.0 458.7 399.3 382.4 385.4 384.4 389.4 366.9 344.3 345.8 356.3 361.8 369.4 381.9 386.4 391.5 410.7 461.1 494.9 481.8 498.7 500.1 490.9 478.6 462.6 456.7 467.1 478.9 485.5 492.3 489.6 497.6 512.8 528.8 554.8 576.2 596.2 596.4 616.4 611.8 599.9 607.2 626.1 631.9 633.0 596.8 586.3 612.9 606.9 608.9 600.8 595.6 581.3 576.9 575.6 587.9 581.3 569.8 549.0 535.7 517.5 534.7 544.6 543.1 521.2 505.5 497.1 503.7 518.3 530.1 529.6 514.5 503.5 517.4 528.7 531.7 522.7 540.9 548.0 548.2 542.7 535.2 520.9 521.8 531.3 518.5 514.0 523.4 521.4 507.7 489.6 496.8 505.5 498.3 486.3 490.5 504.4 499.9 480.2 464.2 451.0 433.6 420.2 410.4 405.1 400.5 396.1 394.6 390.0 387.4 385.4 383.3 380.3 381.0 377.4 368.2 365.4 362.5 363.1 359.4 361.9 360.5 354.7 354.1 345.8 329.0 339.9 341.8 339.5 342.5 339.7 335.6 331.5 333.2 333.2 331.0 327.2 326.4 321.3 321.8 323.7 324.0 -9999.0
-9999.0 888.2 878.8 819.9 852.0 913.5 963.2 959.8 963.2 975.2 917.5 855.4 822.4 815.3 852.8 855.6 876.5 899.8 918.7 875.3 829.6 797.7 771.0 737.3 697.4 629.1 557.3 497.2 506.4 568.4 621.5 673.7 710.5 712.7 684.9 692.9 744.1 732.2 724.5 713.5 681.6 635.6 638.7 636.2 642.9 652.2 656.1 673.9 652.0 626.2 630.9 639.2 663.3 674.4 677.2 698.1 667.7 636.9 628.2 644.8 669.3 678.5 659.4 615.7 594.9 579.8 589.3 576.2 588.1 558.4 529.3 590.0 643.8 667.8 648.6 600.3 564.8 544.8 563.2 616.2 644.6 681.0 686.9 671.9 669.6 657.8 627.3 587.7 620.4 607.4 594.1 545.4 497.7 482.3 492.8 509.7 532.9 544.7 517.5 592.9 660.1 639.4 639.7 674.4 653.2 615.8 531.1 537.1 557.5 567.5 533.8 512.0 466.7 451.6 487.8 509.9 475.8 410.7 462.5 469.8 404.9 401.2 386.1 350.5 350.1 391.7 358.7 386.5 541.7 679.0 708.6 633.0 603.6 637.2 653.6 673.2 698.2 722.8 755.0 777.8 790.4 803.2 811.0 769.7 761.0 725.2 681.4 663.1 644.0 633.5 620.3 610.2 606.4 601.8 608.3 652.0 698.3 681.2 656.3 628.4 557.9 580.2 506.1 520.0 563.8 551.0 613.2 618.1 613.6 656.3 718.5 669.2 629.4 657.9 665.4 712.3 768.2 822.5 822.3 772.7 717.6 659.1 655.6 672.6 655.2 651.7 630.6 593.1 563.0 561.1 549.5 534.7 538.1 542.1 547.7 547.2 542.6 530.0 515.2 501.7 488.4 476.3 504.9 506.1 502.2 514.1 520.5 519.9 494.4 507.3 530.6 536.3 542.6 538.0 540.4 548.4 543.8 532.0 513.4 532.8 549.6 550.1 569.8 562.7 550.6 552.2 549.9 548.6 539.3 500.6 468.7 452.5 445.1 443.5 437.6 430.5 430.6 426.8 420.1 414.1 394.8 406.7 421.4 429.3 435.0 426.3 429.2 458.7 491.9 470.6 439.5 428.6 423.0 411.1 383.7 373.3 362.0 365.9 387.4 385.5 365.3 341.5 340.6 356.1 368.5 377.7 373.5 371.9 383.6 403.9 430.5 438.7 474.4 498.0 500.6 500.1 497.4 469.9 450.6 446.8 451.0 472.0 476.1 485.2 496.9 506.1 521.9 532.1 536.9 534.3 541.9 545.6 541.4 552.3 553.0 555.5 578.6 545.1 518.0 529.4 554.3 574.9 598.7 586.9 582.7 582.0 577.8 599.7 597.7 592.1 574.3 562.4 530.7 508.1 523.6 535.1 522.6 508.9 489.4 492.4 507.8 529.1 521.5 495.8 512.2 520.1 509.6 510.6 524.7 543.7 556.6 559.8 555.7 554.3 555.0 552.7 551.7 542.0 532.9 545.0 547.8 535.4 512.1 504.5 517.1 522.0 510.1 510.3 512.1 502.4 501.0 491.9 476.2 454.8 434.1 420.6 415.5 412.5 408.3 402.7 395.6 393.8 391.5 390.5 386.9 388.0 382.9 376.1 364.2 360.0 356.4 358.2 348.0 347.8 342.6 337.6 336.2 339.0 347.2 349.9 348.3 344.2 342.0 340.2 340.1 339.3 340.1 337.1 335.2 333.6 327.5 330.3 328.8 330.0 -9999.0
-9999.0 838.7 839.3 783.5 818.7 845.2 847.8 809.2 780.9 783.5 778.0 766.6 746.1 765.1 839.7 863.9 926.4 980.8 948.5 912.1 888.1 780.4 726.0 679.7 645.1 605.8 570.1 513.6 511.0 595.1 624.5 633.7 659.3 678.5 714.0 753.6 764.1 753.3 731.0 708.5 688.7 646.7 623.5 615.1 617.9 618.2 626.1 630.9 623.5 618.3 615.5 618.2 641.7 669.7 709.0 697.7 672.1 662.8 673.2 623.3 587.8 622.1 634.6 628.0 589.9 542.4 545.9 551.6 566.1 563.5 519.1 576.4 605.6 619.4 592.3 558.8 525.4 548.2 547.2 565.4 569.1 619.2 616.2 591.6 597.2 568.6 565.1 556.1 555.3 539.8 583.9 570.1 589.3 565.5 525.2 496.7 468.8 459.9 461.6 499.8 557.9 619.0 698.2 686.5 652.3 631.0 591.2 549.2 501.6 471.5 458.0 459.3 452.0 416.8 405.9 468.5 462.9 406.6 376.6 365.2 362.0 369.2 369.9 386.1 439.3 509.4 457.5 364.8 475.7 601.4 711.6 692.9 662.7 672.1 657.7 633.2 678.3 710.0 742.0 761.0 771.2 765.5 739.7 697.3 733.7 699.0 645.4 639.9 627.0 612.7 600.9 591.9 589.6 583.4 596.6 614.9 660.6 709.1 695.8 620.5 607.9 643.2 571.7 500.2 536.7 551.0 549.9 588.0 638.8 679.5 731.1 734.4 673.7 701.1 740.2 736.4 792.3 793.1 769.9 719.7 687.2 709.5 731.1 736.4 703.3 679.7 657.9 620.9 577.3 575.4 563.5 565.9 568.9 565.0 559.2 541.2 529.2 522.1 510.3 499.5 488.4 487.1 514.8 511.8 516.7 522.4 527.7 515.3 503.4 505.7 520.7 532.6 543.1 548.4 549.0 548.2 553.3 545.9 542.6 534.6 549.9 562.0 568.1 573.4 551.1 529.8 544.8 546.0 537.1 510.9 483.6 464.8 452.9 446.1 439.0 443.1 438.7 433.1 429.8 423.4 415.4 399.5 387.9 404.4 412.4 424.2 438.7 448.5 464.4 479.5 447.5 417.4 413.7 412.6 384.0 367.7 360.9 352.8 356.7 379.7 378.0 355.6 334.7 347.3 352.0 359.1 360.4 370.7 386.8 415.1 460.6 484.7 500.0 509.8 511.7 514.3 506.1 488.4 478.3 469.8 449.9 444.1 457.7 476.2 485.7 496.3 502.9 508.7 511.5 509.1 501.9 502.9 509.1 511.6 510.1 508.2 501.4 489.9 486.5 488.8 501.1 512.3 543.9 576.4 597.6 591.5 596.3 587.3 581.7 589.0 568.1 544.0 537.9 533.1 512.3 508.9 533.5 532.1 516.1 493.2 500.9 503.8 503.9 503.8 527.6 532.2 504.3 512.1 525.7 543.7 547.2 551.1 548.7 552.2 552.8 545.4 542.5 540.8 548.3 549.4 545.1 543.3 533.9 526.3 527.8 520.6 519.2 520.9 506.9 497.4 483.4 478.3 468.6 458.4 445.2 430.9 422.1 417.3 411.4 408.4 405.4 403.6 401.9 399.0 394.7 392.5 384.9 371.6 370.1 377.3 372.4 373.9 369.8 361.4 355.6 355.1 355.7 357.0 358.1 358.7 355.7 349.7 348.3 350.4 347.6 345.6 346.9 347.0 344.9 339.3 333.4 334.3 332.5 334.0 -9999.0
-9999.0 886.9 805.4 763.7 750.4 741.3 734.4 730.0 733.4 736.2 737.3 737.4 733.9 813.1 929.6 881.3 906.4 951.1 938.3 929.1 889.9 781.9 737.7 678.2 616.7 566.9 529.9 492.5 505.5 537.8 552.4 567.7 592.6 621.8 663.6 709.5 758.2 813.0 813.2 767.2 747.6 725.6 672.4 627.3 610.1 605.8 602.3 605.2 602.4 597.8 599.8 607.1 638.4 687.5 730.4 743.0 743.2 708.6 664.8 617.3 571.3 554.2 556.2 567.3 575.7 544.8 515.8 525.0 533.1 547.9 512.1 544.0 563.4 571.5 543.0 511.4 533.9 514.7 542.8 526.2 537.5 558.8 538.9 548.8 536.6 520.6 529.0 542.0 516.0 516.8 567.1 617.7 697.2 718.2 693.4 643.5 580.3 573.2 507.0 441.5 482.7 548.2 649.3 613.6 551.4 555.0 565.0 564.0 570.5 547.0 524.1 502.6 461.0 415.6 382.9 385.6 373.4 362.6 362.6 379.2 430.8 507.9 542.7 564.3 563.2 565.8 499.9 401.3 381.6 501.9 567.8 632.3 688.0 625.3 593.7 646.5 697.3 730.2 754.9 730.2 683.9 673.4 647.3 686.5 724.1 668.7 618.7 615.9 610.7 600.4 589.7 579.9 574.7 568.8 578.7 585.5 626.7 676.7 719.9 678.1 676.3 687.2 625.8 535.3 591.2 638.5 614.0 581.2 622.6 655.3 700.1 747.3 719.1 750.9 773.5 809.9 797.1 768.1 750.1 760.7 751.9 779.0 802.2 794.7 746.7 711.3 684.1 626.7 610.7 601.2 603.5 593.8 578.7 567.0 537.4 529.4 554.9 542.0 531.0 520.9 491.9 513.1 526.6 523.1 524.4 528.4 518.6 524.6 530.5 519.0 544.5 548.2 539.3 545.3 549.1 556.0 554.7 559.4 561.8 562.4 560.3 556.1 563.6 551.0 539.2 529.0 506.4 495.5 490.0 482.3 473.2 464.1 455.8 465.1 467.1 468.0 457.0 448.1 440.8 431.6 427.0 421.0 401.7 380.8 409.0 420.1 426.4 438.8 443.9 447.9 431.4 414.9 402.9 424.5 391.6 375.3 370.6 365.4 356.3 347.1 360.4 362.4 330.4 341.6 344.8 352.3 366.5 378.1 428.2 465.7 502.0 521.2 518.4 516.6 517.1 514.4 511.8 509.3 505.7 498.8 480.0 447.3 438.9 450.2 480.9 496.9 499.4 497.3 494.8 494.2 492.7 492.0 487.2 491.5 489.8 485.8 478.6 472.7 471.0 472.4 477.8 480.3 500.7 547.3 575.2 606.2 615.2 590.6 566.3 558.8 567.6 566.3 558.5 544.2 535.3 497.4 512.2 503.3 511.2 488.2 485.8 480.6 486.3 501.3 512.4 519.8 494.4 519.3 543.6 543.0 545.4 539.6 540.9 534.9 532.8 530.5 530.5 537.7 548.7 546.3 531.6 529.5 530.0 527.7 522.3 520.3 509.6 508.6 506.3 494.5 484.9 484.2 482.8 469.8 450.2 433.9 434.1 433.4 430.8 425.9 420.4 419.0 415.3 413.9 408.5 403.6 398.0 389.2 390.3 388.2 381.6 376.0 369.5 368.3 366.3 362.2 366.0 366.9 366.6 360.4 357.3 352.8 353.9 353.5 350.3 348.8 352.7 353.5 350.9 345.0 338.6 339.5 339.4 341.0 -9999.0
-9999.0 883.5 859.2 791.3 740.8 723.6 725.9 724.0 724.5 727.0 729.7 728.3 733.8 862.1 951.4 888.0 925.5 933.4 900.7 894.6 849.7 771.1 719.2 638.5 592.5 550.5 514.3 498.8 537.8 566.5 596.5 606.4 615.3 651.1 708.1 776.0 826.4 869.0 858.7 805.8 802.4 797.1 731.8 680.5 669.5 654.3 610.0 600.2 588.6 585.7 580.4 590.8 610.8 646.3 683.8 697.9 708.1 702.6 676.2 639.9 613.6 572.0 537.5 523.6 527.9 510.3 499.4 501.1 498.6 511.8 515.3 508.2 532.1 535.3 499.8 518.1 525.1 498.5 526.9 500.6 516.8 505.8 518.7 501.2 511.1 500.7 503.9 513.1 514.4 485.4 519.8 578.7 638.3 639.5 683.1 642.8 610.4 598.9 539.7 444.6 459.4 505.6 604.7 553.3 465.3 446.3 462.7 451.0 430.6 414.2 402.3 393.8 382.7 373.3 369.9 367.5 370.2 376.2 371.6 438.2 487.5 529.4 666.8 691.7 649.1 617.4 583.7 513.3 402.4 389.6 476.2 599.1 639.9 558.7 643.8 667.9 656.7 678.1 724.4 731.5 622.4 583.4 640.4 669.2 686.6 660.9 606.0 584.0 596.4 588.3 580.5 575.3 560.7 549.4 575.4 613.3 634.3 654.7 696.0 718.9 734.5 733.9 660.5 574.0 581.3 656.0 650.0 637.3 673.5 699.8 741.0 782.9 791.9 826.5 814.7 779.0 791.3 812.8 815.0 847.7 856.0 831.7 803.1 774.9 732.5 701.6 668.9 656.9 648.0 625.8 601.6 577.3 565.9 554.1 554.9 567.5 574.1 561.0 538.3 510.2 528.3 548.1 540.4 538.4 537.5 535.5 533.0 544.1 535.9 543.8 543.8 552.3 555.4 545.3 555.6 554.6 561.6 564.6 566.2 570.2 574.6 572.9 568.2 577.4 571.4 556.8 522.6 504.3 492.6 501.4 494.6 477.7 483.4 491.8 512.1 527.2 489.5 473.8 453.7 443.1 435.3 426.4 425.5 402.5 379.0 376.9 400.6 414.1 421.8 432.3 415.1 390.9 391.3 403.3 432.3 425.8 390.2 373.2 366.1 352.3 343.8 351.5 338.3 329.9 345.7 359.1 387.5 396.2 436.3 488.5 518.8 526.1 524.0 519.6 516.2 514.5 512.3 509.9 506.5 498.6 478.5 487.0 466.4 436.2 443.3 476.6 494.6 498.5 492.9 486.8 483.9 490.3 479.0 483.5 482.7 480.8 476.2 471.8 469.3 468.2 468.7 472.3 488.2 542.4 577.4 626.6 618.2 607.5 599.9 576.1 548.3 560.4 552.6 549.6 533.5 510.5 497.0 483.0 470.5 475.6 471.0 477.3 474.5 474.0 486.8 478.8 491.4 525.3 537.6 544.5 542.7 534.3 525.6 523.8 530.9 529.5 531.1 532.2 526.4 527.6 523.2 516.5 514.0 512.4 511.0 507.7 503.8 500.6 500.3 499.0 491.0 480.5 477.0 476.6 470.4 447.8 459.3 467.6 458.0 453.9 451.3 460.4 459.9 455.1 446.8 441.5 433.9 417.0 412.4 406.5 393.9 384.7 384.1 384.5 376.1 369.7 373.6 372.5 368.8 367.1 362.2 356.2 363.3 358.9 357.0 355.4 354.1 357.5 354.9 346.3 344.6 345.6 346.8 346.5 -9999.0
-9999.0 750.4 734.5 723.0 722.0 724.0 722.3 722.0 721.0 721.8 725.6 721.1 741.1 846.3 918.5 910.2 966.9 925.1 862.6 861.8 847.6 750.8 690.3 611.3 562.7 529.6 497.3 523.1 545.3 551.9 564.1 599.1 642.6 688.8 738.3 807.7 896.6 888.2 862.6 839.1 820.6 812.9 793.9 776.7 706.6 658.1 620.0 606.7 602.1 612.2 589.7 576.1 588.1 605.5 629.0 643.5 661.1 654.9 658.8 653.3 640.0 602.0 545.7 515.3 525.2 573.0 557.4 518.7 502.3 487.2 484.2 485.2 495.8 488.4 478.1 484.9 476.0 465.3 467.7 469.3 478.4 481.5 495.8 484.4 511.5 493.1 480.8 498.8 489.5 463.1 477.5 494.2 484.9 475.2 503.2 574.2 529.8 526.0 508.0 465.8 427.3 483.7 542.4 466.0 398.9 398.0 395.9 390.0 386.8 388.5 384.5 385.5 388.0 393.5 418.8 419.0 427.7 435.6 393.2 427.3 512.5 567.2 656.2 760.7 723.7 675.8 634.7 599.1 533.5 410.3 397.6 506.5 512.5 574.9 637.0 595.6 593.4 630.0 639.4 695.1 599.8 569.3 582.0 577.6 606.7 613.8 574.8 549.3 576.1 575.2 568.2 566.7 562.7 531.8 599.8 593.9 596.6 626.6 649.3 670.0 673.7 695.9 734.8 651.0 565.3 578.6 582.7 599.1 641.5 685.5 694.4 732.6 761.2 811.2 781.2 758.4 754.0 771.4 797.3 850.8 880.7 861.2 837.9 794.2 760.6 740.9 726.0 704.7 650.7 624.7 625.1 613.7 597.2 584.5 594.5 578.3 555.2 532.6 524.3 526.6 554.5 565.4 558.3 555.9 553.3 548.7 545.8 555.8 552.4 549.5 558.1 555.3 560.8 556.6 558.5 562.9 563.9 568.6 560.5 566.5 576.5 582.6 583.7 583.6 583.7 555.1 558.9 529.5 521.4 551.8 515.5 507.1 528.5 567.7 585.3 587.5 553.1 512.3 479.2 458.8 445.9 440.4 436.2 424.6 417.1 400.6 377.3 367.2 380.2 402.1 409.8 381.9 397.6 417.5 455.4 440.1 401.4 395.0 378.7 360.8 353.1 355.4 343.7 319.7 337.9 353.2 376.4 431.3 480.6 511.3 519.1 523.0 521.6 519.2 515.9 512.7 508.3 506.5 504.8 496.2 499.1 505.6 489.4 459.7 430.9 440.7 455.7 471.8 487.9 489.7 479.2 480.1 482.5 471.2 469.0 473.7 477.4 475.3 471.3 468.2 468.1 468.2 471.6 490.7 538.0 623.3 610.7 605.3 607.0 609.9 558.5 523.1 536.0 536.8 522.9 501.1 483.6 475.7 472.9 460.5 461.5 465.5 462.7 463.5 462.9 466.8 481.0 511.5 524.1 530.2 518.5 532.4 523.2 521.3 523.8 531.4 531.5 531.4 524.2 516.1 515.3 511.2 510.3 509.4 511.0 515.5 512.1 510.7 516.8 518.9 516.2 505.8 493.4 487.9 473.0 460.6 483.2 487.0 475.8 469.6 473.4 485.0 485.9 487.6 490.4 483.4 458.0 460.1 442.9 465.0 431.9 411.2 396.5 395.4 384.4 380.2 382.3 377.3 374.0 367.5 361.3 364.6 368.9 367.9 364.5 364.0 358.8 356.2 352.2 352.8 352.5 354.4 354.9 353.2 -9999.0
-9999.0 783.6 730.5 730.1 727.6 723.5 719.3 715.4 719.0 721.8 721.4 720.8 738.1 818.6 900.3 898.6 924.0 878.1 863.8 879.8 868.9 723.6 628.4 574.8 541.7 513.6 506.9 513.2 537.5 556.6 571.6 594.4 633.9 681.7 722.5 771.6 827.0 818.1 829.4 843.2 862.6 841.3 818.5 771.3 706.0 656.8 626.9 605.4 626.9 638.8 608.2 583.0 573.6 573.2 589.6 602.5 612.8 614.3 612.5 622.3 633.8 599.7 550.8 576.1 591.9 609.7 635.7 581.2 544.4 523.4 490.8 499.2 520.4 516.1 486.2 475.6 475.1 458.9 459.9 454.2 452.8 450.4 463.4 465.6 477.8 469.3 461.1 457.2 444.9 434.2 429.3 429.3 434.4 484.6 475.5 480.9 493.7 481.6 469.2 428.1 408.9 417.0 420.6 403.3 439.0 417.5 433.8 423.9 433.3 428.1 448.5 434.9 433.7 427.2 489.4 496.5 487.4 469.2 435.2 403.5 453.9 523.3 621.8 722.8 781.5 766.2 734.7 665.5 624.7 519.0 414.7 408.0 445.9 498.0 542.8 525.4 530.4 585.1 566.3 598.8 563.2 511.5 490.5 493.3 523.7 555.7 555.4 522.2 550.5 555.2 548.2 564.4 554.3 516.2 553.5 588.7 596.9 614.8 621.7 631.8 625.5 663.6 721.5 734.6 638.9 606.3 636.3 658.4 653.7 668.8 668.8 718.2 752.3 801.0 824.3 777.2 741.5 733.2 791.5 784.2 810.4 851.9 891.8 863.5 835.0 809.3 767.9 728.6 689.8 678.9 647.6 634.3 623.7 595.3 568.3 559.8 548.0 555.6 570.7 554.4 593.3 587.9 584.1 573.3 567.2 568.8 557.0 567.2 563.5 568.5 574.2 566.3 570.6 568.2 570.2 571.1 568.2 563.9 558.0 566.5 577.4 583.3 588.0 592.7 592.0 587.8 581.2 557.9 567.3 594.1 575.2 568.6 591.1 608.5 598.0 586.9 578.0 562.5 519.5 482.3 463.1 458.7 445.8 440.9 433.5 426.8 415.1 397.6 374.4 361.9 361.4 368.9 400.2 394.9 398.3 409.1 410.7 453.8 423.2 386.8 365.1 352.3 348.8 327.5 320.7 346.4 386.5 459.7 517.4 520.0 515.7 514.6 514.9 517.1 515.7 511.1 504.7 498.1 508.1 509.4 509.3 508.0 490.9 466.7 441.9 425.4 430.9 449.7 458.9 475.7 478.7 469.6 482.4 482.1 474.1 455.5 471.2 472.8 471.1 470.1 468.6 468.1 468.2 470.7 487.5 535.3 582.5 564.6 570.6 595.1 572.4 511.8 505.0 499.6 507.1 484.6 470.2 460.8 463.9 464.1 450.4 456.9 454.5 454.7 459.4 462.3 478.1 490.8 495.1 492.3 508.7 519.0 527.9 522.9 520.5 518.7 514.6 510.5 511.5 511.3 512.2 514.2 515.9 515.7 520.2 519.5 518.2 516.3 516.0 517.8 518.0 507.6 499.1 498.7 501.9 489.0 483.1 486.8 495.7 485.6 492.8 491.0 494.7 494.4 491.6 486.0 489.6 476.8 458.5 480.9 478.5 449.5 432.8 416.2 404.2 397.4 393.0 387.7 381.7 373.3 369.4 368.8 373.2 370.6 367.1 363.7 362.8 357.9 362.6 359.4 357.2 357.7 360.9 362.0 -9999.0
-9999.0 958.0 803.8 769.5 820.9 843.2 806.9 759.9 741.1 741.8 743.9 747.0 734.0 743.5 766.8 781.6 842.5 894.7 900.4 892.7 852.6 794.8 741.0 651.5 574.7 521.8 512.6 551.1 570.8 546.7 562.0 593.4 631.7 663.9 683.1 690.1 732.3 731.9 756.5 793.7 833.5 799.4 744.0 699.3 656.0 633.7 619.2 630.7 665.8 668.4 634.6 600.2 587.6 572.7 567.1 574.3 587.2 598.7 595.5 611.9 586.3 567.6 615.6 672.9 689.5 693.1 683.0 629.5 583.6 547.4 508.5 543.1 596.6 601.1 578.1 546.9 532.2 506.1 490.6 483.1 471.2 454.7 446.7 447.2 442.6 443.5 439.7 438.7 434.7 443.0 455.7 478.6 506.5 565.6 589.1 493.7 432.3 421.0 415.4 411.8 459.5 512.2 508.2 441.7 484.0 437.7 528.2 534.8 485.6 509.6 516.0 519.4 490.3 443.8 489.3 561.1 562.6 533.3 490.8 447.3 424.9 463.9 511.9 585.0 667.5 741.1 784.4 760.6 692.5 587.1 488.4 440.2 416.0 403.5 409.8 437.7 455.7 474.8 470.6 475.0 459.6 431.3 423.2 432.1 449.3 465.9 494.2 499.6 529.0 538.0 533.1 527.1 520.1 512.3 563.2 584.3 594.8 599.9 599.0 608.5 620.8 656.0 705.4 730.3 670.6 697.0 657.2 744.3 742.3 719.5 685.7 722.4 804.2 852.5 869.2 825.6 782.6 732.7 730.4 731.6 779.4 828.2 864.8 900.6 891.2 867.6 815.1 764.2 742.8 719.7 711.1 692.2 658.2 625.0 592.3 581.9 566.0 603.3 614.8 577.8 601.8 613.4 597.0 592.8 589.0 572.6 579.3 583.2 583.0 588.0 581.8 584.4 581.9 582.1 581.2 580.4 581.7 580.8 569.9 547.8 560.9 582.7 589.8 584.5 598.0 595.4 599.6 597.8 591.5 612.0 610.4 599.6 602.2 590.3 580.2 595.8 571.9 533.6 541.4 527.8 489.4 483.9 469.1 457.0 447.5 437.0 430.4 419.5 422.9 412.6 394.4 357.8 355.2 359.2 374.2 383.3 412.6 438.2 431.4 396.1 385.2 365.5 356.5 331.2 313.8 342.8 398.3 479.8 511.8 501.5 509.4 510.4 506.5 509.3 513.3 513.7 507.6 499.9 486.2 489.5 502.6 508.3 500.9 475.1 462.2 443.3 432.6 421.2 439.3 466.7 486.2 481.5 466.1 467.3 468.2 452.8 452.5 468.1 467.7 470.5 469.9 468.4 468.1 468.1 470.4 487.1 517.6 534.2 538.8 552.3 522.3 494.4 485.7 478.0 474.8 467.7 464.2 458.9 458.5 461.6 452.7 445.5 450.2 450.0 454.7 454.0 463.5 462.2 474.8 506.3 514.3 526.6 533.6 532.3 536.7 534.3 524.0 507.0 522.7 538.3 533.9 520.2 515.0 521.1 528.7 527.0 518.9 516.4 515.9 516.2 517.7 509.2 512.7 524.2 521.3 516.5 506.8 494.9 505.9 510.1 506.1 516.1 517.2 498.8 490.8 490.8 493.9 486.2 480.7 484.1 482.4 468.4 477.4 470.3 438.1 415.4 406.4 400.4 393.5 392.0 388.0 384.0 378.7 373.4 366.0 360.3 359.4 358.5 361.8 365.1 363.0 361.1 361.7 363.6 -9999.0
-9999.0 904.5 852.7 861.1 985.3 1126.0 1102.1 947.4 836.5 815.8 804.6 854.4 827.2 779.4 770.6 773.1 824.2 929.8 997.2 987.1 1006.4 980.9 876.5 743.1 591.8 541.3 509.2 531.2 619.6 624.8 604.0 593.3 603.1 622.9 641.3 664.5 686.2 701.4 726.0 735.7 731.4 708.7 688.1 659.5 644.0 663.7 661.4 678.3 698.3 668.0 622.9 599.8 601.2 588.1 582.3 570.8 563.0 563.0 570.6 575.4 559.6 578.9 639.1 695.4 713.7 681.2 640.6 609.2 569.8 531.8 521.2 555.6 610.1 672.3 677.2 651.2 624.1 587.0 555.2 520.6 491.0 477.2 464.8 461.7 467.7 552.2 513.4 474.5 486.9 489.6 496.5 495.2 482.1 490.8 520.8 523.6 488.6 450.5 429.8 455.3 489.8 546.9 489.8 456.6 481.0 448.9 497.7 544.2 541.7 604.6 626.0 606.0 547.2 507.7 504.5 612.0 635.0 595.5 549.3 511.6 496.8 462.8 467.4 484.8 536.6 603.4 689.5 735.2 709.3 635.8 577.9 561.2 531.4 491.3 472.8 439.2 414.6 418.5 422.3 419.8 427.5 454.4 433.5 450.1 438.4 432.0 432.4 446.6 483.2 511.3 502.8 483.2 494.9 542.9 561.6 558.0 558.6 567.3 589.7 587.6 639.0 676.1 723.4 757.1 750.6 754.3 703.8 777.9 842.5 767.5 753.6 719.2 791.8 856.7 826.0 793.8 808.3 781.8 735.4 690.1 727.7 758.5 797.1 830.2 829.9 862.3 859.0 829.0 810.2 791.9 771.1 759.0 720.6 672.9 619.8 593.7 589.9 642.3 637.0 616.7 631.7 628.5 614.5 608.2 600.5 611.1 605.0 604.9 604.7 607.2 603.4 602.9 600.2 598.3 593.7 593.5 588.7 581.7 584.5 578.5 546.5 549.4 550.3 564.7 567.0 595.5 588.3 585.5 612.5 616.3 619.5 615.0 580.7 557.0 537.4 529.3 533.2 515.0 497.2 515.2 506.1 521.1 482.1 451.8 443.4 444.2 440.2 440.9 440.9 437.9 434.3 413.2 396.7 375.9 342.3 363.2 385.0 376.8 390.0 401.6 396.5 380.1 370.8 329.1 303.3 350.8 391.3 475.0 478.9 429.4 444.3 503.0 513.1 499.8 501.8 509.4 507.7 512.9 508.2 490.8 473.2 480.8 501.8 497.8 473.2 453.4 442.2 428.5 420.5 466.6 487.4 483.5 478.2 468.9 452.7 446.2 443.2 465.5 468.1 469.2 470.5 470.7 469.8 468.3 468.1 469.3 478.8 500.1 520.3 499.4 487.6 475.4 470.8 467.2 460.2 455.2 452.2 450.0 449.2 451.4 451.0 440.3 447.1 448.1 446.0 445.4 451.2 456.6 475.3 508.2 531.6 547.5 552.0 549.5 547.3 552.0 505.4 512.8 533.3 531.1 524.3 523.6 506.6 519.6 523.3 527.4 525.7 526.2 527.3 525.5 531.1 526.6 522.4 536.2 534.5 522.7 508.6 502.7 514.0 521.8 524.1 529.0 522.5 505.2 494.1 489.5 497.5 494.8 493.1 485.9 479.1 469.2 470.6 458.1 453.9 445.9 429.3 411.7 402.2 406.4 401.4 393.6 387.3 381.1 374.6 370.1 368.6 362.2 362.6 368.7 366.5 367.1 364.7 367.8 -9999.0
-9999.0 926.3 912.2 888.1 928.5 1094.2 1110.4 1021.7 1047.7 1022.5 942.3 911.3 978.5 946.9 964.6 978.0 964.2 965.8 1102.7 1179.7 1050.3 934.1 859.9 758.8 627.4 560.8 528.7 521.8 546.6 577.7 625.7 675.4 684.2 692.7 703.9 720.0 710.1 724.1 765.9 756.7 716.5 717.3 701.8 687.5 690.7 704.6 706.8 713.4 720.8 661.5 618.9 654.3 639.9 622.2 610.1 592.2 587.5 583.7 570.2 560.9 591.2 623.1 627.4 644.7 628.0 628.4 579.0 551.1 538.1 531.1 548.3 590.6 637.0 698.1 752.0 742.7 719.6 688.7 642.4 580.4 525.3 492.1 473.9 468.8 462.1 533.5 530.0 542.5 557.3 523.8 511.1 515.0 515.0 522.9 474.0 454.7 442.9 451.9 502.2 548.2 550.0 524.7 481.2 498.3 484.9 486.7 548.7 544.8 608.0 686.1 721.0 669.2 622.0 578.6 535.1 627.7 696.7 652.8 607.2 598.6 571.4 533.5 530.3 525.3 491.8 546.0 568.9 637.2 716.5 759.3 719.2 677.6 622.5 563.0 533.2 490.2 463.5 509.0 538.2 457.5 522.8 544.6 451.6 524.9 509.7 497.7 491.3 455.1 443.1 451.4 459.5 505.8 526.0 533.6 523.7 531.3 552.2 556.1 558.6 597.0 625.8 684.1 713.9 736.2 775.9 804.5 800.4 824.2 880.3 862.2 819.0 793.7 811.7 843.9 821.0 756.5 761.0 769.6 774.4 719.9 664.7 720.2 777.0 743.2 757.6 784.5 830.9 844.6 835.0 786.8 746.8 720.2 686.3 663.5 638.6 630.2 625.4 601.9 583.4 584.6 583.4 589.3 558.9 548.8 585.8 622.7 611.8 616.4 619.7 615.1 611.7 607.8 604.6 604.4 604.1 603.4 602.7 590.3 562.2 553.8 545.8 531.5 541.1 507.6 509.6 557.0 589.4 561.3 566.8 586.2 623.3 616.9 615.9 611.9 560.2 516.2 479.6 476.8 460.5 453.8 451.2 463.6 475.7 445.5 422.9 424.9 449.4 454.3 448.9 441.6 433.9 431.4 425.2 410.6 376.4 343.2 337.0 368.9 364.9 379.9 381.7 360.4 348.3 328.6 299.9 326.7 365.4 408.4 414.5 390.1 460.5 519.9 515.7 507.1 494.3 489.1 498.8 509.2 506.8 503.3 494.9 468.9 468.1 487.8 492.2 486.5 462.4 439.7 420.3 454.7 483.6 480.2 476.0 469.7 464.4 437.4 442.7 463.4 452.3 455.7 469.6 472.8 473.5 471.0 468.5 468.1 470.7 482.5 492.3 482.7 476.6 467.2 458.6 455.5 452.9 447.9 445.4 444.8 446.1 447.0 443.4 436.1 443.9 443.6 443.2 443.5 453.8 474.6 487.7 507.3 541.0 543.6 524.7 526.5 536.0 507.2 491.9 517.7 517.6 507.5 505.5 514.2 499.4 510.0 509.3 526.0 530.4 535.3 534.2 536.8 540.3 545.5 536.8 535.4 532.8 535.2 527.4 513.5 509.2 516.7 527.1 528.5 518.1 505.4 504.8 489.6 495.0 504.1 501.3 498.5 489.3 489.2 488.2 472.2 445.4 437.5 427.5 424.4 420.9 415.9 406.5 407.4 406.3 400.8 390.6 386.4 381.2 372.4 377.7 373.1 371.8 369.1 369.3 370.5 -9999.0
-9999.0 825.6 989.8 1017.2 957.1 1006.6 1077.5 1187.5 1331.7 1243.3 1146.4 1056.5 1216.2 1163.7 1119.3 1118.7 1080.3 1078.9 1032.6 1023.6 931.4 845.3 768.8 736.8 681.9 609.9 540.3 539.4 525.9 581.1 608.8 641.3 665.6 699.9 687.8 657.1 644.5 683.1 731.4 785.9 788.8 829.9 861.5 789.6 765.3 757.3 774.2 773.3 743.3 676.4 667.2 689.4 651.8 631.6 633.6 632.9 605.7 592.2 578.0 603.3 668.0 713.9 677.2 656.9 618.8 582.7 585.2 594.9 581.2 569.2 561.5 591.0 632.1 688.8 751.7 792.1 787.5 737.2 677.5 617.5 567.6 529.8 498.9 483.6 482.0 495.0 521.8 536.1 536.8 518.6 535.4 522.5 573.4 573.9 515.3 533.6 509.3 496.5 517.7 568.6 571.8 558.6 523.7 520.8 500.1 519.4 581.6 618.3 693.9 735.4 780.0 753.0 729.9 664.9 626.1 628.3 737.2 711.2 685.4 664.5 616.2 599.5 575.2 592.7 551.2 506.8 544.4 606.4 659.7 738.3 789.2 787.5 722.5 658.0 607.0 549.1 523.0 513.7 508.2 448.7 547.0 501.6 491.1 559.9 535.3 512.5 494.4 488.4 476.5 454.3 456.1 485.0 503.4 509.5 505.9 527.0 531.4 530.3 555.0 573.7 615.7 676.7 673.8 725.0 766.6 805.2 815.1 855.9 920.2 945.1 948.8 917.6 859.1 826.7 786.0 762.4 763.6 705.5 697.8 711.1 664.1 685.4 715.9 679.8 703.2 754.0 788.8 801.0 787.1 779.4 797.2 765.8 731.8 730.5 711.0 687.5 669.5 635.7 600.3 567.9 547.2 531.2 519.5 504.3 502.9 535.4 551.4 558.4 604.1 610.4 627.6 623.9 616.9 614.6 604.9 588.8 581.9 573.5 570.1 598.5 588.7 600.7 606.4 576.9 527.6 486.9 511.2 521.2 504.7 530.1 567.3 616.4 629.1 620.7 596.6 542.7 501.6 493.0 483.2 483.7 447.1 416.7 407.6 412.9 417.3 412.7 452.3 451.1 435.5 431.2 426.7 411.7 398.0 390.0 388.6 395.9 350.5 329.6 336.2 381.1 364.5 341.4 339.5 339.2 310.0 307.3 335.7 345.1 354.6 379.2 450.2 520.8 518.7 511.0 508.7 498.2 479.2 497.3 502.3 499.1 495.6 485.6 463.8 458.8 480.7 489.3 485.7 454.7 424.6 433.9 478.2 475.0 474.1 462.2 460.4 436.7 430.4 453.5 439.9 462.4 469.3 473.1 476.7 476.2 471.9 469.8 469.2 478.4 486.2 467.7 464.3 460.0 452.5 449.7 447.5 445.9 443.4 442.6 444.6 445.6 444.7 438.0 437.5 445.3 446.0 450.7 465.6 482.4 492.9 499.5 503.5 499.6 490.6 491.1 486.8 467.5 482.8 490.2 492.2 487.4 483.5 483.9 481.2 480.8 497.5 516.0 526.3 530.7 521.1 520.7 523.2 522.3 522.6 531.4 537.5 546.9 537.0 519.1 513.1 510.5 513.5 520.4 510.3 504.0 500.7 489.5 495.7 509.9 515.4 515.9 515.6 516.8 496.8 477.6 474.5 459.0 459.0 469.7 450.2 429.3 418.3 415.6 413.0 411.7 401.8 395.9 388.0 384.4 380.8 387.5 384.3 377.4 371.8 368.3 -9999.0
-9999.0 933.7 1062.7 1121.2 1100.4 1172.6 1246.2 1235.3 1353.3 1330.7 1201.7 1181.5 1230.4 1264.7 1191.5 1117.6 1130.9 1050.7 949.6 833.7 826.9 765.5 740.3 799.1 677.8 571.2 552.9 548.8 539.2 542.4 568.2 585.9 608.8 604.1 602.3 630.7 678.1 726.3 760.6 796.6 863.5 994.0 1131.0 1028.0 1003.4 873.7 922.6 918.4 805.8 739.6 731.3 711.2 715.7 683.1 649.3 617.9 600.8 606.5 588.3 612.3 651.3 695.0 643.6 618.6 608.2 606.4 671.1 693.2 659.1 617.5 624.8 641.5 673.9 708.6 738.0 767.9 786.4 735.8 675.1 616.5 567.3 525.8 519.5 521.5 517.9 517.7 533.1 534.4 533.1 535.3 544.4 544.4 572.1 575.5 572.9 603.4 614.4 596.0 601.6 613.2 629.2 587.7 633.7 645.4 575.2 547.4 623.8 672.0 711.0 769.0 820.8 839.2 818.2 768.8 681.9 708.5 794.4 793.1 759.1 721.3 695.6 680.9 638.8 650.2 598.0 534.3 544.6 565.0 600.9 656.4 680.2 719.4 714.3 718.4 704.8 665.4 624.2 578.4 512.2 465.7 526.3 485.1 559.7 571.7 542.0 531.7 523.4 511.6 500.6 484.5 452.9 453.7 457.2 465.0 478.1 502.4 506.1 522.8 545.3 564.8 575.3 585.2 645.0 703.4 714.7 731.0 759.8 823.4 876.3 917.1 969.4 955.4 928.6 881.3 807.0 822.0 793.7 767.0 731.3 683.4 671.6 658.4 646.0 626.1 673.8 731.9 740.0 768.1 784.7 779.4 805.8 793.2 801.4 839.2 799.2 754.5 712.1 679.1 646.6 623.1 607.6 576.3 551.5 531.5 498.7 489.0 470.7 497.1 518.7 532.3 582.3 593.0 632.2 632.2 626.9 618.0 611.0 613.0 599.5 606.9 610.5 587.2 566.2 550.7 526.0 499.4 485.7 471.9 465.4 481.9 520.8 578.4 618.6 618.4 614.3 587.6 596.9 592.4 579.9 585.6 537.0 461.4 414.8 389.4 396.0 428.9 446.1 451.3 467.7 501.7 492.6 452.6 420.2 425.3 419.6 414.4 392.0 367.7 332.6 322.1 321.0 316.4 313.7 331.7 325.1 300.5 322.4 343.5 363.2 414.6 479.9 526.7 522.8 515.6 505.9 495.0 490.0 469.8 491.1 493.6 489.4 481.9 466.2 449.4 462.0 480.6 477.5 463.2 431.8 415.7 462.4 476.0 469.8 461.1 443.5 430.1 412.8 444.4 429.9 451.9 448.8 464.0 474.6 479.9 477.1 474.6 472.1 474.2 470.5 459.4 455.7 457.4 452.5 447.5 444.6 442.8 444.0 441.3 441.0 442.3 442.9 436.4 441.0 454.7 458.3 458.4 468.5 483.9 487.8 496.3 490.1 488.8 477.5 480.2 480.0 461.7 484.2 482.7 482.7 481.7 474.1 467.1 466.0 471.6 482.9 491.5 503.2 517.8 510.5 524.6 529.1 524.0 510.4 516.7 524.7 535.7 534.7 516.9 510.4 508.6 504.1 504.2 500.3 499.7 499.9 495.0 500.7 519.4 515.4 509.7 513.7 516.6 507.1 501.6 496.8 479.7 481.6 481.3 467.8 444.5 431.5 423.9 419.2 414.0 408.4 401.5 398.7 394.7 385.3 396.2 394.7 385.6 380.8 376.7 -9999.0
-9999.0 927.9 1067.2 1189.7 1267.7 1301.4 1384.5 1342.3 1341.4 1383.9 1339.6 1291.0 1263.1 1224.2 1125.7 1069.3 1070.2 1009.9 926.0 828.5 833.8 806.0 725.6 647.9 623.2 563.6 560.4 556.4 554.1 534.2 551.9 552.1 572.7 614.9 652.9 696.4 760.0 791.4 838.5 882.6 1008.3 1200.6 1244.7 1248.5 1198.8 1044.8 1071.8 1165.6 1013.8 931.1 820.6 782.0 733.4 670.2 646.6 648.4 638.7 606.0 598.0 649.3 671.5 698.1 646.8 610.5 623.5 628.2 682.8 747.2 727.4 679.0 708.1 758.5 790.5 790.3 808.3 807.2 795.2 733.6 662.0 602.3 570.6 579.0 581.1 571.2 577.7 560.1 570.5 592.7 592.1 579.8 580.6 581.4 603.5 624.8 638.6 651.8 672.8 679.3 687.5 683.3 651.4 699.8 762.9 753.3 612.6 624.3 672.8 733.9 766.5 793.3 840.5 882.4 885.0 814.8 771.5 770.1 839.8 854.0 831.8 811.1 787.8 739.7 706.4 680.8 612.3 579.9 615.7 610.8 638.0 633.7 617.4 634.6 641.3 611.6 626.0 634.6 593.4 540.1 465.1 497.5 488.7 573.2 617.2 583.0 561.0 574.5 581.8 528.2 510.4 474.0 476.0 485.9 483.3 487.0 477.1 472.1 487.5 513.1 533.6 529.8 539.5 555.2 579.6 604.5 629.6 707.2 784.7 835.1 867.5 912.1 948.2 993.3 966.2 918.6 867.4 901.2 843.0 851.6 803.6 764.4 757.2 741.6 717.7 663.2 622.3 664.3 705.1 705.1 701.1 704.3 740.4 791.4 829.3 853.8 851.2 837.4 782.7 748.0 707.9 672.0 629.6 610.5 574.6 533.7 538.2 518.7 476.9 456.8 468.3 471.0 500.4 523.5 556.4 589.1 644.5 638.6 635.2 627.7 627.9 628.2 606.8 580.8 582.1 600.8 569.0 586.9 592.0 541.5 477.9 451.3 475.6 518.7 571.9 611.2 561.2 543.7 549.4 554.7 556.0 521.6 482.4 451.0 416.7 385.6 385.1 413.5 430.1 469.0 483.5 513.0 517.3 468.2 434.4 443.9 437.4 426.0 425.0 418.9 395.1 351.6 327.1 321.1 307.8 302.3 328.3 305.1 302.0 315.3 362.3 450.8 520.2 528.1 520.3 511.5 502.4 491.3 472.6 468.5 463.2 487.2 485.3 479.5 470.8 444.1 455.3 466.2 465.2 469.8 455.2 419.2 419.1 434.4 453.8 460.7 438.8 422.1 405.0 414.6 420.2 413.3 428.8 446.2 470.4 481.3 479.3 480.3 484.6 483.3 473.9 464.4 456.5 453.3 451.7 446.8 442.9 440.3 439.8 439.2 439.4 443.1 441.8 434.5 445.5 460.0 464.9 466.5 471.0 482.1 483.4 486.5 480.3 470.5 466.0 463.8 462.1 453.5 464.0 467.2 464.5 462.9 464.6 463.3 458.5 463.7 473.4 480.6 486.1 491.4 496.7 511.0 514.8 525.8 512.3 504.9 513.0 527.0 538.6 535.5 520.7 517.7 510.2 500.1 499.2 501.8 503.5 502.8 502.2 514.9 513.2 509.1 509.3 515.9 518.9 518.2 511.9 498.3 486.4 486.3 481.9 465.4 447.4 434.8 426.9 421.0 415.2 409.5 402.7 398.3 391.2 397.3 401.0 397.3 392.0 389.7 -9999.0
-9999.0 1182.3 1274.1 1304.8 1359.2 1419.2 1482.2 1486.4 1497.8 1465.6 1415.4 1326.8 1212.7 1162.2 1140.9 1151.9 1132.3 1011.3 971.6 933.4 807.4 756.6 699.2 644.7 591.9 576.1 569.1 562.8 556.9 537.4 558.1 573.6 593.7 630.3 678.1 740.3 819.5 878.2 981.1 1103.2 1195.9 1281.0 1325.5 1358.8 1253.5 1101.4 1188.8 1254.5 1196.4 1081.9 936.9 813.5 738.2 697.7 712.2 678.6 636.4 626.9 617.7 633.1 698.2 721.3 643.5 652.7 666.9 657.9 706.8 768.2 794.7 762.1 762.8 814.7 869.7 882.5 874.6 844.1 785.1 719.3 663.0 632.0 636.6 658.5 644.6 643.9 649.4 609.5 630.6 680.0 633.1 632.8 623.6 618.9 654.6 682.0 696.4 718.7 744.4 745.2 747.3 728.9 749.9 799.0 814.8 786.6 691.2 693.5 736.8 766.4 806.4 835.8 877.1 926.4 924.9 871.7 849.4 829.8 900.6 903.2 897.6 867.0 830.4 767.4 768.8 721.4 643.6 641.6 679.3 682.2 670.0 604.4 570.3 561.5 585.9 555.6 547.4 556.1 507.8 473.6 514.5 523.1 520.2 643.3 636.1 599.0 582.6 599.7 571.1 521.2 486.3 499.6 503.0 495.5 495.0 503.3 502.4 498.8 486.1 484.9 501.3 522.9 579.8 602.3 623.2 631.0 637.9 656.4 691.4 750.3 834.8 856.0 891.4 949.0 1007.3 979.4 943.8 987.1 937.6 906.7 839.5 802.6 793.3 809.2 760.1 714.9 637.6 615.2 632.2 633.3 646.0 715.0 756.9 763.3 786.7 795.9 811.5 829.4 837.8 789.5 726.4 680.8 640.6 600.5 589.1 591.8 555.3 500.9 477.0 469.7 472.0 440.4 453.7 463.7 482.2 529.8 584.9 651.9 654.8 653.7 650.4 632.6 620.8 634.6 635.5 605.6 624.5 640.6 609.0 568.1 515.5 478.8 451.7 461.6 511.5 538.7 523.3 491.0 481.0 479.6 478.7 450.1 419.2 406.6 395.5 384.4 377.6 389.7 407.1 458.6 477.8 441.2 476.5 472.0 431.2 416.4 431.9 433.6 407.4 390.3 374.1 372.3 390.1 359.5 335.3 311.1 299.2 299.7 297.1 303.8 339.9 399.0 442.5 505.2 524.6 508.5 497.1 484.7 473.7 464.5 450.2 455.4 477.4 472.5 463.5 450.1 431.8 442.4 448.0 468.5 473.7 457.6 428.7 403.5 410.4 438.5 441.6 420.2 404.0 394.8 403.8 397.9 402.0 419.7 446.3 456.9 473.4 489.7 503.5 513.1 500.1 486.6 470.0 463.6 458.2 452.0 443.9 438.9 437.7 437.9 439.4 442.9 441.2 434.0 443.5 465.7 471.1 467.6 471.1 474.4 481.3 478.7 475.7 470.9 461.8 456.3 454.2 448.5 447.6 456.6 457.8 455.0 453.0 452.2 450.9 456.0 467.2 473.3 479.7 485.7 488.7 491.1 496.5 506.0 500.1 505.7 523.3 536.0 542.7 535.4 522.0 516.3 510.3 503.2 505.6 513.6 519.9 518.0 514.3 513.8 513.2 509.5 511.0 509.2 506.7 500.3 501.3 491.6 476.2 474.1 471.1 472.7 461.7 444.2 433.1 424.6 416.7 411.5 408.8 403.0 396.8 395.8 398.3 396.2 396.6 395.4 -9999.0
-9999.0 1121.7 1344.9 1464.5 1411.2 1460.5 1662.2 1741.2 1672.8 1565.8 1463.7 1338.8 1284.1 1228.8 1211.2 1185.3 1185.4 1088.9 932.8 925.9 769.7 704.7 652.1 628.1 606.3 590.4 576.7 565.5 553.3 538.0 556.3 569.1 588.7 616.7 677.0 752.9 844.3 1021.1 1234.6 1335.2 1309.3 1347.8 1429.6 1449.9 1324.9 1275.2 1354.8 1353.7 1326.4 1168.4 1002.3 937.0 852.3 766.2 760.9 702.5 656.5 629.7 646.8 681.2 688.1 723.5 694.9 712.6 707.4 685.6 733.3 786.8 807.6 764.5 762.8 840.7 908.1 906.0 851.7 811.0 785.4 769.7 746.8 725.5 692.1 724.9 721.8 720.6 700.0 679.5 696.1 725.8 698.4 691.0 689.1 685.1 679.5 732.4 770.6 834.2 847.3 835.8 839.8 813.3 831.6 876.9 878.4 814.2 767.5 747.3 768.5 811.0 855.2 893.3 922.8 955.9 959.1 935.0 924.5 906.0 944.9 946.2 924.6 888.9 846.8 840.6 813.8 765.3 718.0 690.3 755.4 744.9 709.8 628.6 583.5 529.3 524.6 519.1 502.8 492.8 501.0 556.3 605.7 526.8 536.7 635.2 653.7 630.3 607.9 606.2 575.3 509.8 536.4 575.1 534.5 505.0 503.4 508.2 508.6 510.5 510.4 500.3 494.0 531.7 564.1 594.7 637.1 698.0 730.9 734.9 731.9 740.6 773.2 810.6 856.4 912.6 985.7 1049.9 1043.5 1004.8 952.8 914.8 885.3 820.8 753.1 782.2 795.6 719.2 698.8 673.3 635.6 602.6 598.4 668.7 666.0 702.6 770.9 775.2 726.4 738.5 757.7 769.3 724.4 676.3 645.3 621.2 593.1 561.5 550.2 531.3 503.0 490.8 495.7 468.3 438.6 422.7 446.6 477.1 524.8 600.6 646.9 666.3 652.6 660.2 659.8 656.7 646.8 645.7 652.0 630.9 643.3 615.2 550.8 505.5 481.8 458.7 442.2 468.5 461.7 458.3 447.0 434.7 420.7 401.4 386.8 381.5 376.1 372.3 366.0 380.3 389.2 406.7 432.9 416.8 422.4 464.1 450.1 421.4 407.3 414.7 396.7 404.2 435.2 432.9 416.1 395.0 375.8 352.9 338.3 329.2 308.3 295.7 318.7 345.1 372.0 437.0 460.9 452.8 455.2 474.4 495.5 493.6 485.6 457.8 440.5 445.2 441.8 435.2 418.5 418.7 465.4 470.8 468.6 467.4 456.0 432.5 406.7 392.9 394.5 398.0 395.5 387.4 387.8 402.7 420.4 430.5 439.2 446.5 462.3 478.0 486.7 497.0 502.8 494.2 484.1 478.8 477.5 467.2 447.2 438.7 438.9 440.2 440.9 443.9 439.5 432.3 447.9 458.2 462.7 464.5 470.0 475.9 478.8 482.6 474.2 471.1 469.5 464.5 454.8 442.8 440.7 448.7 449.5 450.6 448.0 444.4 447.3 454.4 460.7 475.0 480.2 483.8 483.2 486.9 488.8 490.4 491.5 517.0 542.8 538.3 532.7 526.2 523.8 521.3 509.2 506.7 521.0 525.4 525.2 521.3 513.9 514.5 513.8 518.7 520.5 505.6 498.1 488.7 484.0 477.6 467.8 463.5 459.7 460.7 461.2 451.6 435.6 426.9 421.1 417.5 415.0 408.6 402.9 399.1 400.7 397.3 397.6 395.2 -9999.0
-9999.0 985.2 1094.9 1143.2 1120.6 1321.0 1536.9 1740.8 1684.1 1559.3 1489.1 1462.8 1426.1 1343.7 1274.9 1252.0 1262.9 1189.7 1089.8 931.6 901.3 849.3 778.2 680.2 615.4 581.5 566.1 554.5 551.2 549.5 570.3 581.9 615.2 653.5 703.9 766.3 889.9 1122.0 1320.5 1377.1 1369.4 1432.4 1429.2 1425.7 1392.2 1360.3 1323.7 1258.3 1256.2 1219.7 1166.7 1064.9 1002.2 945.3 848.1 755.3 696.4 693.0 709.1 746.5 758.2 719.8 740.4 765.2 746.4 729.8 734.7 739.9 734.2 712.7 727.2 802.6 860.6 836.0 783.3 736.3 744.9 748.9 756.4 761.1 729.7 731.3 739.8 758.4 766.0 758.8 768.2 783.7 773.1 766.0 755.0 745.9 728.0 766.2 831.9 904.8 934.5 953.3 946.3 935.0 968.3 1016.9 1013.6 966.8 914.7 873.2 810.4 872.0 885.1 909.8 952.9 1014.4 1020.1 1014.7 995.2 996.7 1013.0 1002.4 956.7 932.0 923.6 897.0 853.7 832.1 782.9 752.4 755.8 716.1 617.7 575.3 546.6 553.3 603.9 595.9 584.3 558.3 561.3 618.3 570.3 535.6 521.6 601.5 680.3 667.1 642.5 613.9 581.4 518.2 574.3 599.4 558.5 532.6 529.0 525.9 523.1 523.4 520.6 506.9 507.9 513.3 553.6 593.7 638.8 705.3 756.2 795.8 813.6 820.8 813.7 831.4 869.3 922.9 972.1 992.8 1042.9 990.2 924.8 923.0 890.1 834.1 773.1 728.0 771.0 772.1 751.5 767.9 733.3 681.7 627.0 586.0 665.6 715.5 749.9 756.8 723.1 652.2 666.9 686.1 687.5 646.5 624.1 621.3 623.0 574.5 533.7 523.4 505.5 515.3 503.8 474.6 455.9 442.2 416.3 435.0 472.3 499.5 536.9 560.2 550.5 615.2 665.8 667.7 653.5 638.1 620.4 590.5 593.8 598.8 587.0 578.0 541.1 485.4 429.6 415.8 428.8 439.6 428.6 432.0 411.8 392.7 380.3 369.2 365.4 357.4 358.6 368.2 371.2 387.0 393.2 396.3 392.9 415.0 424.8 428.3 442.6 440.1 413.7 417.2 449.3 443.0 431.6 407.2 391.0 376.7 367.4 353.6 321.2 290.6 295.5 315.8 335.5 362.3 379.7 387.1 407.4 428.2 456.4 489.5 473.5 460.0 453.5 455.9 453.8 457.1 450.8 412.8 417.3 436.4 460.1 461.4 464.4 460.0 436.5 420.6 404.1 391.8 388.1 385.9 389.1 412.1 420.6 429.0 440.2 453.8 466.8 478.9 473.4 472.9 476.6 476.2 475.6 467.0 462.5 453.3 443.5 438.7 439.5 443.1 441.7 442.5 438.1 437.1 446.9 452.4 459.9 467.4 474.8 480.2 484.7 487.3 481.5 481.4 478.7 472.3 463.0 449.3 434.9 441.5 444.7 450.9 449.8 442.1 443.6 451.9 460.6 464.9 469.9 477.1 481.7 484.2 486.7 488.2 487.5 520.2 553.6 538.8 525.1 518.0 532.5 539.7 523.2 507.1 519.9 520.9 524.4 523.9 524.2 520.7 516.0 522.8 531.1 507.9 495.2 500.2 489.8 479.7 480.5 477.5 468.0 459.2 451.7 446.0 439.9 435.4 426.7 420.8 415.4 410.0 406.1 403.5 403.7 402.8 401.4 400.6 -9999.0
-9999.0 747.9 789.2 845.7 929.0 1124.6 1311.0 1593.9 1670.3 1592.8 1449.5 1453.1 1419.1 1332.1 1340.8 1295.0 1303.0 1318.2 1361.4 1240.1 1119.9 1010.1 899.0 808.4 686.2 605.9 616.9 596.2 582.3 562.4 578.9 594.3 622.4 689.2 732.8 794.2 951.9 1148.1 1280.3 1262.8 1269.0 1334.5 1337.4 1384.7 1406.6 1422.9 1413.4 1332.1 1270.0 1189.6 1105.8 1109.9 1121.2 1120.5 1023.2 886.4 839.2 783.8 788.5 760.0 711.0 663.0 687.6 721.6 672.9 675.2 690.5 650.8 633.2 624.0 739.5 774.2 788.1 751.6 710.2 663.6 669.2 674.2 681.8 705.0 656.9 652.9 669.1 719.9 780.1 821.4 849.2 898.5 896.4 869.4 831.5 815.2 796.0 807.3 898.7 946.1 997.6 1037.7 1039.6 1025.4 1025.7 1088.5 1079.6 1017.7 991.2 959.5 891.1 983.4 1033.2 1017.8 1029.7 1074.3 1097.7 1086.7 1081.0 1095.8 1081.0 1052.5 1038.6 1022.5 1007.5 966.6 926.8 900.0 853.2 810.8 747.3 670.0 595.9 624.5 612.2 584.1 609.8 670.4 669.4 626.7 612.6 585.7 596.4 593.1 540.3 552.9 612.1 647.4 646.0 608.9 576.5 522.9 563.2 611.5 593.8 583.4 569.9 561.6 547.9 543.9 530.2 522.0 528.1 521.5 525.9 567.8 604.2 654.4 720.5 804.1 854.1 861.5 852.6 829.9 839.2 884.8 914.5 913.0 956.5 936.3 892.4 815.7 830.9 857.9 807.3 724.4 704.3 793.3 817.5 790.1 757.1 753.7 682.1 601.1 569.7 612.4 665.3 677.8 676.4 632.6 576.8 582.6 563.2 566.9 558.6 560.8 569.0 571.6 581.2 557.9 501.0 526.3 542.0 525.7 495.2 474.7 453.6 411.8 417.4 436.1 451.9 465.4 488.3 547.7 613.1 655.5 656.2 655.5 642.5 612.2 560.4 525.9 524.6 558.1 540.4 486.3 454.2 423.3 400.2 412.2 414.8 415.2 401.9 382.0 372.0 368.3 361.8 347.7 361.2 359.7 354.3 371.9 372.8 375.3 375.6 385.6 384.1 401.0 444.6 447.7 412.9 421.6 454.2 447.9 430.6 426.4 427.2 406.2 376.4 354.0 337.1 301.2 286.8 312.8 329.5 330.5 339.2 356.7 385.3 403.7 433.8 476.0 504.0 497.8 506.7 491.5 498.6 491.9 477.9 448.4 419.5 396.8 401.1 440.3 442.1 457.2 459.9 456.9 444.3 424.2 416.4 404.8 391.5 395.1 415.4 431.8 444.8 460.0 464.6 467.2 468.1 464.2 462.3 463.0 460.9 458.5 453.6 447.0 440.3 428.5 440.2 443.2 441.7 442.8 435.1 440.2 452.2 462.4 472.5 480.3 491.8 493.2 501.0 502.9 493.4 477.8 463.7 458.3 465.7 459.6 445.0 433.1 441.6 451.1 444.0 440.4 441.2 450.2 455.1 464.0 478.8 490.2 490.1 488.5 489.6 484.2 485.2 497.5 530.4 542.5 528.8 514.8 528.7 536.9 528.4 507.8 511.3 516.4 515.4 522.2 525.4 527.5 517.0 518.9 528.6 514.4 506.0 503.8 488.8 483.7 484.7 478.7 470.9 465.8 459.1 457.5 455.8 448.4 434.8 425.4 420.0 417.9 412.9 412.0 408.7 403.0 400.9 400.3 -9999.0
-9999.0 682.7 813.3 1063.8 1177.2 1310.0 1369.7 1413.2 1499.8 1535.7 1442.8 1308.4 1292.9 1326.1 1296.8 1259.1 1264.9 1259.5 1297.8 1323.5 1288.6 1094.9 945.0 761.9 654.4 813.2 739.1 658.4 609.8 571.5 581.6 608.2 667.8 715.8 774.3 895.8 1086.9 1236.9 1244.0 1184.7 1179.0 1254.3 1310.8 1365.6 1381.9 1435.5 1407.6 1321.7 1327.4 1235.4 1105.7 1068.7 1068.4 1077.3 1018.0 971.7 1011.6 907.8 770.5 709.2 660.0 606.1 606.3 617.1 597.9 611.8 631.7 582.4 531.3 581.6 636.6 683.6 729.2 667.4 631.0 603.2 583.1 580.4 617.6 624.3 590.2 599.3 650.7 709.3 760.4 824.2 907.7 981.3 1013.3 1008.3 944.0 899.3 884.9 853.1 904.3 966.9 1025.1 1078.5 1091.3 1054.2 1034.0 1092.3 1111.9 1079.4 1069.3 1030.4 960.0 993.4 1042.0 1086.7 1098.1 1145.2 1181.5 1153.2 1165.6 1186.1 1161.5 1143.1 1138.8 1139.8 1129.7 1040.4 993.8 945.3 892.1 839.5 768.6 668.9 663.3 699.1 713.7 712.8 667.7 697.2 746.6 711.2 697.8 688.0 677.5 651.2 608.8 589.5 556.1 607.7 613.8 591.9 587.3 554.1 532.0 593.2 623.1 628.8 622.7 611.0 586.3 575.5 543.6 557.0 548.6 543.6 538.2 542.2 573.4 613.0 672.8 728.1 770.0 802.3 820.2 816.5 824.4 868.7 854.9 835.3 859.5 868.1 860.2 779.3 718.7 746.1 760.2 728.2 662.5 721.5 801.7 804.2 723.3 730.3 730.0 655.2 613.9 572.4 552.1 571.7 582.0 556.8 522.5 527.4 524.5 516.6 488.5 483.1 477.5 500.8 517.1 501.0 470.8 493.3 492.0 481.7 458.5 448.7 450.5 432.0 408.3 396.8 406.4 432.3 436.5 470.4 513.7 556.2 578.5 583.9 556.7 564.7 538.2 497.3 468.2 485.5 486.9 457.1 426.9 424.7 410.8 392.0 388.1 401.9 406.6 387.2 370.1 357.5 356.3 346.5 339.6 344.9 346.0 353.6 360.6 359.6 362.1 364.0 368.4 388.8 419.5 429.6 418.3 415.7 423.2 439.2 441.8 445.5 437.5 420.6 416.3 390.0 352.1 319.9 284.9 294.5 311.8 311.8 320.7 339.7 375.6 411.3 455.5 503.0 530.6 534.1 533.7 526.0 516.1 498.1 479.9 459.4 437.9 448.3 415.2 387.7 391.9 419.1 460.8 467.4 461.3 458.2 457.8 444.2 425.3 409.5 389.8 416.0 434.7 444.1 453.9 458.7 456.9 461.2 461.6 457.6 456.5 452.7 453.0 450.0 443.4 429.0 434.3 443.2 441.8 435.0 431.4 450.5 470.6 480.4 488.9 493.5 501.9 508.7 518.6 526.5 515.3 493.6 469.6 453.2 454.5 465.1 461.4 440.9 429.9 438.0 439.2 439.0 439.1 445.0 461.5 478.8 491.3 493.4 494.3 492.5 489.6 480.6 488.6 494.0 507.1 530.3 528.1 512.0 523.2 527.2 524.9 509.2 503.7 505.4 509.9 519.6 516.8 514.1 515.9 514.6 531.0 528.7 518.0 506.0 493.1 490.8 494.9 487.1 479.7 473.1 464.0 458.1 455.2 452.9 443.6 431.5 425.7 421.9 418.7 418.5 411.7 405.0 404.2 405.7 -9999.0
-9999.0 611.4 709.9 841.9 983.1 1070.5 1174.6 1355.9 1364.8 1368.1 1391.5 1350.5 1270.2 1275.4 1270.0 1263.5 1323.7 1293.1 1205.8 1191.8 1205.5 929.7 712.3 710.7 865.9 930.9 890.8 867.2 713.4 630.7 622.4 612.7 661.8 696.1 843.2 1016.3 1113.2 1193.2 1190.6 1113.9 1117.0 1163.2 1184.7 1256.2 1290.3 1379.8 1338.6 1291.8 1280.9 1230.4 1197.0 1189.6 1144.4 1061.8 999.2 963.9 943.0 899.7 817.6 743.9 696.8 643.1 559.1 553.3 534.3 555.7 603.4 549.1 494.0 547.3 596.0 640.9 664.2 599.7 560.4 543.9 511.6 531.8 524.3 518.9 529.5 581.7 632.0 692.9 747.8 820.2 882.4 929.8 996.3 1012.9 1045.1 1021.2 968.6 920.5 947.8 990.2 1029.9 1069.7 1077.9 1058.5 1072.1 1102.5 1108.9 1084.1 1056.2 1014.0 1010.9 1061.2 1071.3 1104.9 1156.9 1208.2 1231.3 1227.5 1249.1 1265.8 1239.5 1225.5 1218.7 1202.1 1153.4 1076.2 1010.9 938.2 871.8 814.0 751.4 828.4 776.5 780.6 805.8 825.5 781.1 745.7 805.1 804.4 800.7 763.5 724.9 680.2 655.4 598.5 595.4 662.0 651.5 625.1 606.8 551.7 541.5 575.1 635.2 668.8 677.1 666.8 638.9 600.5 557.9 619.4 609.0 568.0 567.1 557.9 557.6 582.9 617.6 657.0 700.3 751.9 820.1 825.2 831.6 858.5 837.0 801.4 793.2 786.5 749.2 711.7 709.2 683.6 664.7 672.3 633.8 675.8 757.0 777.2 757.3 683.2 719.1 738.5 714.0 650.5 595.4 601.4 561.7 561.5 594.2 617.8 627.6 612.0 548.7 538.7 507.9 476.3 466.7 457.9 451.5 440.6 435.0 423.2 413.6 407.3 411.9 419.3 428.2 427.2 389.0 386.0 405.8 410.3 439.8 465.1 478.7 498.7 478.3 506.4 501.3 463.4 441.7 445.0 433.4 424.8 411.0 405.3 404.1 396.9 377.4 392.5 413.6 410.2 394.6 373.0 353.5 348.9 341.9 331.1 333.6 340.3 353.0 350.2 346.3 351.6 366.2 393.7 424.2 439.2 436.4 413.9 390.8 384.2 419.7 458.5 450.5 440.0 427.4 403.4 360.7 323.1 294.7 280.7 301.3 304.6 305.8 326.6 351.1 403.6 466.0 509.8 527.6 536.5 536.0 525.0 511.9 508.6 508.1 499.0 479.6 491.5 473.7 443.7 394.1 378.5 398.9 422.0 441.4 461.7 471.5 482.1 475.1 436.8 406.4 388.1 427.7 440.4 447.1 445.6 446.0 451.7 456.8 454.4 452.6 449.0 446.3 444.4 443.0 432.5 434.9 443.3 443.7 431.9 445.0 454.8 468.1 482.1 487.3 492.5 495.1 500.3 505.8 514.2 525.1 511.6 479.3 459.3 445.9 452.4 455.6 445.3 434.1 427.3 439.7 441.7 438.1 445.1 460.4 471.0 492.4 501.0 499.3 497.3 488.5 481.9 494.2 496.4 501.3 506.0 502.9 498.0 516.1 530.2 519.8 511.1 504.4 506.0 516.7 523.6 522.5 513.1 507.0 508.6 516.1 521.7 513.0 502.4 499.7 506.7 504.7 492.2 477.4 465.0 459.5 456.6 455.0 451.7 445.7 439.1 432.6 427.1 422.7 418.1 413.6 409.7 407.3 409.7 -9999.0
-9999.0 619.5 612.3 675.2 746.5 881.1 1042.5 1209.3 1374.7 1366.2 1264.9 1200.6 1159.6 1144.8 1150.5 1225.1 1298.6 1314.2 1205.9 949.4 1001.7 826.7 701.6 947.5 1041.9 1035.2 897.1 746.5 655.8 663.5 684.5 689.8 758.0 793.7 755.4 911.6 1079.2 1159.6 1203.7 1107.2 1102.8 1109.2 1136.1 1212.3 1232.8 1296.9 1321.4 1356.0 1375.2 1356.7 1394.6 1474.5 1413.1 1281.5 1177.4 1187.8 1179.9 1121.3 1031.0 899.6 800.1 727.6 669.8 520.8 459.2 512.9 570.5 574.4 473.5 515.5 538.6 599.3 638.2 572.1 512.6 485.2 452.0 504.6 478.7 432.2 493.3 559.5 615.8 667.8 737.1 789.2 830.0 877.1 922.4 964.1 1000.3 1035.4 1021.3 1015.2 1032.0 1032.0 1078.8 1120.9 1101.6 1096.9 1132.2 1132.0 1077.1 1034.0 1009.8 994.2 1005.2 1047.8 1099.2 1137.9 1196.7 1259.5 1261.4 1257.9 1267.6 1286.6 1271.3 1262.3 1261.4 1190.7 1118.5 1060.0 1001.4 957.6 892.0 835.1 819.8 914.9 936.9 877.7 879.3 896.7 842.4 815.1 852.7 884.9 857.1 807.0 755.4 686.7 621.5 621.3 651.9 706.3 699.8 649.2 590.8 561.8 606.3 611.7 635.6 700.2 736.1 711.4 660.9 594.4 594.5 655.9 661.1 628.2 604.3 594.4 600.4 588.6 625.9 645.7 680.5 738.1 798.6 834.7 820.3 821.9 836.0 856.8 838.1 811.0 844.9 822.7 799.2 797.0 749.2 699.5 652.9 610.1 655.8 660.4 708.2 650.6 684.7 745.0 766.5 722.8 694.6 691.3 632.9 672.8 709.5 727.1 712.8 665.4 639.7 622.3 577.5 556.2 533.5 535.8 501.6 508.5 523.6 492.7 478.9 451.0 421.2 394.9 385.5 397.9 390.4 378.5 363.6 367.6 384.2 393.3 412.9 433.1 419.7 418.0 448.4 432.2 416.7 421.8 416.5 432.0 413.5 401.0 395.1 391.1 377.4 372.6 402.3 410.7 421.4 415.2 389.2 366.5 345.1 336.6 322.8 326.0 335.2 343.4 334.1 344.4 361.7 380.9 406.5 449.1 432.6 472.3 439.8 392.0 380.4 411.0 427.0 439.0 423.7 385.9 364.7 345.3 313.3 280.7 283.4 290.3 306.6 322.7 321.2 354.7 395.4 437.7 471.6 486.4 508.2 536.5 537.3 535.1 526.9 517.6 518.1 508.2 490.2 462.8 416.4 383.1 370.9 375.5 385.2 403.6 413.2 424.4 439.9 447.0 416.1 377.9 415.0 427.6 437.4 452.6 455.6 450.7 455.6 458.9 457.9 457.5 456.2 444.3 436.9 423.7 425.7 435.1 439.4 428.4 449.5 450.4 452.3 457.2 466.7 483.0 484.6 487.6 488.7 492.0 500.8 500.7 482.5 468.0 451.1 441.0 442.2 438.4 435.3 427.4 433.1 437.0 436.0 450.1 472.1 483.3 492.7 498.2 496.4 502.8 491.7 471.8 485.1 486.6 491.1 491.1 482.9 490.9 508.2 511.6 520.0 516.7 508.6 506.4 510.8 515.2 513.0 511.5 505.8 510.5 515.0 518.2 511.3 499.0 489.6 494.0 487.5 478.1 469.3 459.5 455.6 453.4 450.7 451.6 453.7 446.1 438.3 431.9 425.9 423.6 420.6 416.7 412.3 414.8 -9999.0
-9999.0 651.5 617.7 605.3 661.1 744.4 869.0 1057.1 1189.4 1212.5 1216.2 1200.1 1157.9 1178.6 1157.7 1145.1 1133.8 1091.5 1024.4 917.9 750.5 722.4 699.3 847.6 980.4 924.0 776.7 711.7 653.8 665.5 712.5 783.6 830.3 910.7 987.5 970.0 1181.8 1248.4 1264.4 1110.3 1079.2 1100.0 1110.4 1183.4 1299.3 1361.7 1398.9 1472.3 1461.7 1426.6 1426.7 1437.0 1472.4 1366.9 1265.0 1351.3 1353.9 1246.7 1193.8 1157.5 1057.5 960.3 779.2 630.0 472.8 424.8 474.2 528.3 463.6 451.5 508.9 580.7 623.7 544.4 468.2 438.7 417.1 490.9 452.4 409.6 461.8 504.3 548.3 627.7 727.2 843.8 905.3 912.7 879.2 925.9 985.1 1054.7 1106.2 1108.1 1100.9 1106.0 1119.2 1152.1 1122.3 1154.4 1163.0 1116.2 1071.4 1050.8 1037.2 1012.9 1009.7 1023.3 1062.3 1103.8 1154.9 1201.2 1193.2 1184.0 1209.2 1254.5 1274.4 1228.7 1188.7 1137.3 1075.0 1022.1 977.9 927.2 867.1 867.2 936.9 967.4 1011.6 1097.2 1017.7 949.2 898.1 867.5 904.5 932.9 884.5 815.4 743.2 666.0 675.4 694.8 740.6 749.7 694.8 634.3 591.7 581.4 635.6 676.9 697.0 743.2 775.6 728.9 666.8 596.3 629.9 701.7 724.0 688.0 645.2 634.4 645.1 626.1 676.9 706.9 702.7 717.6 778.3 823.1 818.8 839.0 872.1 912.3 899.0 887.0 938.2 928.3 876.1 845.1 801.3 724.4 652.3 603.1 598.1 592.8 587.2 584.5 627.1 666.2 685.9 710.2 711.3 732.0 715.3 709.9 754.5 717.6 716.1 708.6 711.6 689.5 633.9 633.2 594.1 585.6 553.7 584.7 590.9 569.1 547.5 520.9 476.2 436.8 408.2 396.1 387.4 384.7 393.6 378.4 353.5 352.2 367.2 381.6 387.5 382.0 411.0 401.6 391.9 398.3 398.7 423.1 413.2 402.8 394.0 385.8 379.1 359.1 376.6 394.7 405.7 393.5 395.0 387.6 358.7 356.1 341.3 321.9 320.6 332.8 326.3 341.2 357.5 364.9 387.1 388.3 393.3 423.4 445.6 399.2 363.8 356.0 364.8 381.1 400.6 396.2 424.7 388.5 332.9 310.4 286.4 273.2 285.8 305.3 300.4 315.0 339.5 390.6 415.4 432.8 454.1 487.8 483.9 491.8 496.5 484.5 470.9 432.1 420.4 419.6 405.4 393.2 389.0 375.9 366.7 364.2 369.3 378.3 389.1 390.6 359.8 359.5 393.1 408.0 440.7 475.9 476.7 467.2 467.3 466.2 464.8 463.3 461.1 453.1 444.7 434.9 421.2 421.0 419.4 427.5 444.6 447.1 448.4 448.7 452.1 458.9 462.4 476.9 472.2 476.9 478.3 485.3 476.2 462.1 453.5 441.4 436.5 435.0 432.9 426.4 429.1 433.4 433.8 446.9 469.0 488.3 495.4 481.2 481.9 492.8 484.3 469.2 463.1 469.0 475.2 475.1 471.7 488.7 503.5 482.4 487.1 508.1 507.5 501.9 501.8 504.4 503.3 501.2 506.7 514.4 523.3 525.5 522.8 508.2 488.5 482.4 474.6 469.6 468.6 461.1 454.3 453.1 448.7 447.9 455.2 452.2 443.8 437.0 433.0 431.4 426.3 422.7 422.3 420.8 -9999.0
-9999.0 670.8 641.1 607.1 641.6 671.2 728.3 844.6 931.8 1123.4 1289.0 1288.5 1260.0 1199.9 1166.6 1133.6 1089.2 1079.1 904.5 797.2 752.9 902.2 833.1 721.3 864.0 822.7 762.7 726.6 702.6 707.4 753.9 815.1 907.3 1033.4 1169.3 1152.1 1203.5 1216.9 1132.5 1091.7 1088.8 1099.5 1114.2 1192.2 1383.9 1433.7 1376.6 1372.8 1365.1 1327.9 1317.4 1289.7 1227.9 1296.6 1356.2 1343.3 1280.6 1230.5 1114.1 984.7 1040.1 909.4 761.3 651.3 513.8 441.9 385.6 391.6 410.4 433.8 503.0 573.0 554.6 486.1 432.4 395.0 388.2 466.5 417.5 388.7 406.1 432.6 497.0 568.6 643.2 728.1 781.9 810.8 893.2 967.5 996.7 1014.7 1013.0 1020.6 1019.5 1048.1 1099.0 1163.0 1211.1 1237.7 1201.6 1155.8 1114.9 1097.6 1069.5 1043.0 1048.0 1079.4 1075.4 1110.5 1149.5 1130.9 1121.1 1119.5 1169.5 1218.0 1266.4 1236.0 1167.2 1108.3 1068.3 1024.8 1002.0 969.7 971.3 945.4 976.9 1048.5 1070.9 1159.9 1135.6 1056.2 981.6 932.4 960.8 933.6 877.8 813.8 740.3 727.1 756.3 777.3 800.6 767.9 711.5 683.6 656.2 600.9 634.7 689.6 751.8 782.6 778.7 721.6 661.4 610.8 672.7 745.2 786.9 754.6 690.1 674.7 683.5 677.9 730.3 790.6 794.1 752.6 780.4 818.2 831.2 852.5 899.4 947.9 969.1 960.7 964.1 940.8 847.1 772.4 707.0 640.4 687.4 673.8 669.3 701.5 653.6 615.8 571.9 572.7 609.6 615.6 642.6 676.2 677.2 668.9 739.1 695.3 642.6 654.9 704.9 740.1 736.4 700.8 683.9 646.7 606.7 638.7 671.3 658.6 617.9 571.3 517.3 466.2 440.0 421.5 407.7 416.0 441.4 434.2 398.8 363.8 342.2 339.7 349.5 376.7 390.7 373.8 371.2 377.5 377.8 391.9 414.8 406.7 397.8 385.0 373.5 364.9 347.3 369.1 397.2 383.5 363.8 362.0 385.9 384.4 355.0 337.3 312.4 327.4 326.9 343.4 346.0 353.8 357.8 373.2 408.5 450.1 445.5 394.4 383.8 359.4 350.9 345.2 390.1 419.9 435.7 393.8 363.9 355.0 330.6 298.7 272.2 276.0 293.4 311.6 333.8 372.6 358.5 380.0 392.2 408.4 423.5 426.6 427.1 415.2 402.2 374.8 355.5 377.9 404.9 422.0 417.5 403.6 397.2 379.5 361.4 361.7 399.0 435.1 372.9 328.2 344.9 376.4 418.7 468.3 478.9 479.1 475.5 472.4 467.0 461.6 461.4 458.8 446.7 433.5 424.4 411.7 418.4 425.6 431.8 436.5 444.7 446.9 443.0 444.1 442.6 446.5 448.9 452.5 454.5 455.5 466.7 453.6 443.9 438.7 435.7 432.8 431.1 423.6 423.3 430.5 431.0 437.2 451.6 464.2 470.9 465.2 463.1 472.9 467.4 459.7 456.0 458.1 457.9 458.1 469.0 488.1 473.4 468.5 478.9 482.6 491.6 497.3 492.4 496.6 498.4 505.7 516.1 523.6 520.7 510.9 515.8 511.1 495.4 493.1 482.1 469.2 467.0 464.5 456.4 451.8 448.3 445.3 446.5 445.8 444.8 439.6 435.7 433.9 430.2 429.4 427.5 425.2 -9999.0
