ncols   329
nrows   40
xllcorner    15.5942
yllcorner    38.874669
cellsize    0.005013
NODATA_value -9999
-9999.0 -9999.0 -9999.0 -9999.0 -9999.0 -9999.0 -9999.0 -9999.0 -9999.0 -9999.0 -9999.0 -9999.0 -9999.0 -9999.0 -9999.0 -9999.0 -9999.0 -9999.0 -9999.0 -9999.0 -9999.0 -9999.0 -9999.0 -9999.0 -9999.0 -9999.0 -9999.0 -9999.0 -9999.0 -9999.0 -9999.0 -9999.0 -9999.0 -9999.0 -9999.0 -9999.0 -9999.0 -9999.0 -9999.0 -9999.0 -9999.0 -9999.0 -9999.0 -9999.0 -9999.0 -9999.0 -9999.0 -9999.0 -9999.0 -9999.0 -9999.0 -9999.0 -9999.0 -9999.0 -9999.0 -9999.0 -9999.0 -9999.0 -9999.0 -9999.0 -9999.0 -9999.0 -9999.0 -9999.0 -9999.0 -9999.0 -9999.0 -9999.0 -9999.0 -9999.0 -9999.0 -9999.0 -9999.0 -9999.0 -9999.0 -9999.0 -9999.0 -9999.0 -9999.0 -9999.0 -9999.0 -9999.0 -9999.0 -9999.0 -9999.0 -9999.0 -9999.0 -9999.0 -9999.0 -9999.0 -9999.0 -9999.0 -9999.0 -9999.0 -9999.0 -9999.0 -9999.0 -9999.0 -9999.0 73.5 87.4 128.3 184.9 244.5 288.4 326.0 276.8 209.8 189.4 256.3 305.7 351.6 356.7 342.2 278.3 311.6 230.4 171.0 203.7 259.6 333.7 414.6 488.1 529.1 586.2 657.3 666.3 577.0 459.7 374.8 332.5 348.9 381.8 412.2 458.8 491.2 540.7 623.2 712.1 801.2 809.2 851.4 859.5 891.9 973.2 1037.7 1080.0 1059.7 1023.4 971.4 905.2 845.8 798.5 780.5 777.2 775.7 784.3 812.4 841.5 861.8 889.0 903.2 849.3 826.7 845.6 905.5 941.2 1050.4 1054.6 988.2 952.7 978.4 998.8 1048.0 1023.2 997.2 998.0 1076.9 1092.4 1111.2 1156.4 1155.8 1132.0 1147.0 1227.4 1243.6 1178.2 1080.6 1189.1 1257.7 1256.4 1309.5 1299.2 1318.7 1276.0 1229.5 1182.6 1238.6 1294.7 1251.5 1283.4 1372.6 1321.9 1360.0 1482.0 1485.4 1550.0 1582.0 1570.0 1492.3 1429.0 1490.7 1434.4 1420.8 1555.5 1593.3 1567.6 1523.3 1437.0 1398.5 1403.0 1367.2 1295.1 1214.8 1213.5 1207.9 1063.6 968.5 945.5 953.8 1013.4 992.5 1025.0 984.8 832.1 668.1 570.7 495.2 431.5 376.3 347.0 304.8 273.3 237.6 221.6 202.6 203.7 206.4 192.3 179.5 169.7 169.8 161.7 153.2 154.3 159.9 132.3 100.5 102.5 111.6 139.6 124.8 128.7 145.4 142.8 129.6 126.3 144.9 150.2 158.0 165.1 148.4 128.3 142.6 170.0 164.7 151.2 125.4 110.6 117.4 118.7 130.7 128.6 120.2 179.1 183.9 174.5 133.3 114.8 115.9 120.3 129.0 132.6 141.1 157.0 131.6 111.6 161.5 110.0 69.9 67.6 86.1 82.6 96.2 103.7 -9999.0 -9999.0 -9999.0 -9999.0 -9999.0 -9999.0 -9999.0 -9999.0 -9999.0 -9999.0 -9999.0 -9999.0 -9999.0 -9999.0 -9999.0 -9999.0 -9999.0 -9999.0 -9999.0 -9999.0 -9999.0 -9999.0 -9999.0 -9999.0
-9999.0 -9999.0 -9999.0 -9999.0 -9999.0 -9999.0 -9999.0 -9999.0 -9999.0 -9999.0 -9999.0 -9999.0 -9999.0 -9999.0 -9999.0 -9999.0 -9999.0 -9999.0 -9999.0 -9999.0 -9999.0 -9999.0 -9999.0 -9999.0 -9999.0 -9999.0 -9999.0 -9999.0 -9999.0 -9999.0 -9999.0 -9999.0 -9999.0 -9999.0 -9999.0 -9999.0 -9999.0 -9999.0 -9999.0 -9999.0 -9999.0 -9999.0 -9999.0 -9999.0 -9999.0 -9999.0 -9999.0 -9999.0 -9999.0 -9999.0 -9999.0 -9999.0 -9999.0 -9999.0 -9999.0 -9999.0 -9999.0 -9999.0 -9999.0 -9999.0 -9999.0 -9999.0 -9999.0 -9999.0 -9999.0 -9999.0 -9999.0 -9999.0 -9999.0 -9999.0 -9999.0 -9999.0 -9999.0 -9999.0 -9999.0 -9999.0 -9999.0 -9999.0 -9999.0 -9999.0 -9999.0 -9999.0 -9999.0 -9999.0 -9999.0 -9999.0 -9999.0 -9999.0 -9999.0 -9999.0 -9999.0 -9999.0 -9999.0 -9999.0 -9999.0 -9999.0 -9999.0 -9999.0 -9999.0 69.7 80.0 108.9 159.1 196.1 252.5 314.3 257.0 165.7 207.5 264.5 319.2 308.1 231.3 162.3 140.6 139.1 149.9 195.8 305.7 404.3 453.1 545.9 637.5 709.5 769.7 820.9 810.7 723.2 618.1 466.6 476.2 454.1 413.9 459.2 486.6 518.4 545.2 557.2 581.9 648.2 748.6 866.5 931.5 976.4 985.5 1007.1 1017.5 988.5 940.3 926.9 868.9 818.9 800.3 783.7 767.9 773.8 805.5 827.7 830.2 811.3 831.8 892.4 915.3 844.9 791.3 847.5 904.7 968.7 1000.4 1026.1 971.1 939.7 976.9 1055.0 1038.3 983.1 1000.3 1074.8 1045.2 1121.6 1129.6 1192.2 1168.7 1136.9 1214.5 1266.3 1238.7 1098.0 1056.1 1191.9 1204.7 1258.4 1251.9 1293.2 1326.2 1297.7 1226.5 1159.7 1232.9 1244.4 1249.0 1241.9 1283.5 1373.3 1452.9 1461.4 1471.2 1501.6 1546.4 1565.0 1508.6 1410.3 1383.4 1342.7 1419.5 1497.1 1558.8 1503.3 1498.6 1430.7 1350.2 1302.9 1259.4 1251.9 1154.0 1089.4 1035.6 1090.2 1135.2 1105.5 1112.0 1067.9 1065.9 1028.4 890.8 758.6 593.9 469.0 392.7 353.6 323.8 284.2 233.0 268.4 272.6 220.6 178.9 189.2 215.3 197.5 208.3 185.1 156.5 136.7 139.1 146.4 152.5 115.0 91.2 98.9 124.5 113.2 124.3 126.1 140.1 115.2 117.8 123.6 134.5 143.4 155.0 147.7 131.4 124.8 131.7 129.0 116.1 116.5 137.0 165.9 179.7 190.6 154.3 168.3 204.0 169.4 149.8 124.0 147.2 170.5 181.9 181.2 175.7 178.8 176.7 146.0 151.1 174.1 121.0 76.1 69.1 83.3 86.6 102.9 134.9 -9999.0 -9999.0 -9999.0 -9999.0 -9999.0 -9999.0 -9999.0 -9999.0 -9999.0 -9999.0 -9999.0 -9999.0 -9999.0 -9999.0 -9999.0 -9999.0 -9999.0 -9999.0 -9999.0 -9999.0 -9999.0 -9999.0 -9999.0 -9999.0
-9999.0 -9999.0 -9999.0 -9999.0 -9999.0 -9999.0 -9999.0 -9999.0 -9999.0 -9999.0 -9999.0 -9999.0 -9999.0 -9999.0 -9999.0 -9999.0 -9999.0 -9999.0 -9999.0 -9999.0 -9999.0 -9999.0 -9999.0 -9999.0 -9999.0 -9999.0 -9999.0 -9999.0 -9999.0 -9999.0 -9999.0 -9999.0 -9999.0 -9999.0 -9999.0 -9999.0 -9999.0 -9999.0 -9999.0 -9999.0 -9999.0 -9999.0 -9999.0 -9999.0 -9999.0 -9999.0 -9999.0 -9999.0 -9999.0 -9999.0 -9999.0 -9999.0 -9999.0 -9999.0 -9999.0 -9999.0 -9999.0 -9999.0 -9999.0 -9999.0 -9999.0 -9999.0 -9999.0 -9999.0 -9999.0 -9999.0 -9999.0 -9999.0 -9999.0 -9999.0 -9999.0 -9999.0 -9999.0 -9999.0 -9999.0 -9999.0 -9999.0 -9999.0 -9999.0 -9999.0 -9999.0 -9999.0 -9999.0 -9999.0 -9999.0 -9999.0 -9999.0 -9999.0 -9999.0 -9999.0 -9999.0 -9999.0 -9999.0 -9999.0 -9999.0 -9999.0 -9999.0 -9999.0 -9999.0 -9999.0 59.2 75.0 104.8 158.4 203.7 223.5 159.2 187.8 236.0 270.6 224.8 150.0 124.5 150.8 187.1 214.0 238.1 301.2 401.1 475.0 543.3 591.9 622.3 673.3 741.9 867.5 903.8 800.6 689.1 584.4 538.9 572.3 524.7 620.8 620.1 695.0 733.0 729.4 731.6 710.3 750.9 822.3 930.2 1014.7 1028.6 1005.4 1002.0 956.3 934.4 876.1 868.0 845.0 853.1 844.1 798.2 768.7 786.8 818.2 789.8 800.8 833.0 864.9 885.6 863.4 811.0 786.5 857.9 922.9 936.7 1002.7 987.0 955.3 943.8 1019.8 1049.2 994.9 960.8 1021.2 1004.0 1069.0 1138.4 1178.1 1140.8 1092.4 1154.8 1229.1 1297.9 1175.5 994.9 1037.5 1132.0 1186.2 1192.7 1265.0 1300.2 1297.2 1237.9 1148.8 1108.1 1194.5 1195.9 1251.5 1358.4 1407.4 1442.0 1420.0 1371.6 1383.6 1469.2 1510.8 1517.4 1503.2 1429.2 1360.3 1305.0 1366.5 1459.0 1486.5 1441.2 1391.6 1338.1 1317.4 1285.6 1247.4 1229.1 1097.9 1148.7 1232.3 1243.9 1167.2 1064.8 1045.6 1047.3 907.2 880.5 731.6 559.4 451.6 381.5 335.4 294.7 249.2 211.1 239.1 277.5 246.5 189.9 182.3 201.2 182.7 190.4 204.8 169.6 150.0 132.5 131.8 118.9 114.7 98.1 90.7 92.6 109.4 139.2 119.0 125.0 108.5 114.5 131.9 124.5 146.3 158.0 148.4 136.8 126.6 121.4 122.0 132.5 162.2 204.1 229.3 235.7 228.1 214.1 211.6 177.2 149.7 138.9 141.6 192.2 196.1 184.6 173.6 156.4 153.7 149.6 162.7 164.2 120.5 121.9 85.7 68.3 69.1 81.2 96.2 132.9 -9999.0 -9999.0 -9999.0 -9999.0 -9999.0 -9999.0 -9999.0 -9999.0 -9999.0 -9999.0 -9999.0 -9999.0 -9999.0 -9999.0 -9999.0 -9999.0 -9999.0 -9999.0 -9999.0 -9999.0 -9999.0 -9999.0 -9999.0 -9999.0
-9999.0 -9999.0 -9999.0 -9999.0 -9999.0 -9999.0 -9999.0 -9999.0 -9999.0 -9999.0 -9999.0 -9999.0 -9999.0 -9999.0 -9999.0 -9999.0 -9999.0 -9999.0 -9999.0 -9999.0 -9999.0 -9999.0 -9999.0 -9999.0 -9999.0 -9999.0 -9999.0 -9999.0 -9999.0 -9999.0 -9999.0 -9999.0 -9999.0 -9999.0 -9999.0 -9999.0 -9999.0 -9999.0 -9999.0 -9999.0 -9999.0 -9999.0 -9999.0 -9999.0 -9999.0 -9999.0 -9999.0 -9999.0 -9999.0 -9999.0 -9999.0 -9999.0 -9999.0 -9999.0 -9999.0 -9999.0 -9999.0 -9999.0 -9999.0 -9999.0 -9999.0 -9999.0 -9999.0 -9999.0 -9999.0 -9999.0 -9999.0 -9999.0 -9999.0 -9999.0 -9999.0 -9999.0 -9999.0 -9999.0 -9999.0 -9999.0 -9999.0 -9999.0 -9999.0 -9999.0 -9999.0 -9999.0 -9999.0 -9999.0 -9999.0 -9999.0 -9999.0 -9999.0 -9999.0 -9999.0 -9999.0 -9999.0 -9999.0 -9999.0 -9999.0 -9999.0 -9999.0 -9999.0 -9999.0 -9999.0 56.0 57.5 74.2 99.5 106.1 154.0 183.0 212.2 256.7 192.2 110.0 158.5 223.4 282.3 331.8 357.7 400.0 455.4 528.0 515.1 599.5 678.2 730.8 788.3 803.1 799.0 876.3 852.0 761.0 689.9 601.6 684.6 646.0 672.5 754.5 808.6 866.4 885.5 873.6 834.8 883.2 930.7 1008.4 1051.3 1044.1 1057.3 1027.2 943.2 895.3 849.1 845.1 849.5 854.2 844.2 847.1 799.4 772.4 802.7 785.1 817.2 830.6 842.3 847.8 817.2 803.9 776.2 840.7 876.0 916.0 943.6 987.2 980.1 933.8 979.7 1015.3 1028.9 951.1 945.6 1048.3 1117.0 1196.9 1237.0 1142.3 1047.5 1187.8 1267.2 1305.5 1230.0 1062.2 940.4 912.0 1056.3 1147.3 1183.2 1282.0 1299.4 1273.0 1224.2 1098.5 1099.9 1224.9 1213.1 1299.8 1298.8 1398.8 1401.2 1357.5 1268.1 1345.1 1421.5 1441.2 1441.9 1492.1 1439.1 1348.5 1260.7 1317.0 1367.0 1379.4 1380.6 1389.8 1346.8 1286.5 1205.4 1161.2 1147.4 1195.2 1160.0 1132.1 1040.1 932.7 870.9 860.1 740.1 630.5 565.7 482.5 425.7 382.8 345.4 297.9 255.7 217.4 195.2 208.0 196.8 162.0 153.6 154.3 170.5 151.0 164.2 171.1 176.8 168.7 158.0 162.0 170.1 135.7 88.8 86.8 98.8 111.7 116.7 113.8 98.6 107.3 113.3 134.4 138.0 164.2 166.0 144.8 133.6 145.4 153.6 186.7 235.6 237.1 224.8 212.7 210.1 223.8 215.1 204.8 187.9 173.5 199.2 204.7 192.9 163.0 146.1 150.2 131.6 104.5 97.9 96.7 86.3 78.9 72.6 70.7 75.3 72.6 85.6 117.9 119.1 -9999.0 -9999.0 -9999.0 -9999.0 -9999.0 -9999.0 -9999.0 -9999.0 -9999.0 -9999.0 -9999.0 -9999.0 -9999.0 -9999.0 -9999.0 -9999.0 -9999.0 -9999.0 -9999.0 -9999.0 -9999.0 -9999.0 -9999.0
-9999.0 -9999.0 -9999.0 -9999.0 -9999.0 -9999.0 -9999.0 -9999.0 -9999.0 -9999.0 -9999.0 -9999.0 -9999.0 -9999.0 -9999.0 -9999.0 -9999.0 -9999.0 -9999.0 -9999.0 -9999.0 -9999.0 -9999.0 -9999.0 -9999.0 -9999.0 -9999.0 -9999.0 -9999.0 -9999.0 -9999.0 -9999.0 -9999.0 -9999.0 -9999.0 -9999.0 -9999.0 -9999.0 -9999.0 -9999.0 -9999.0 -9999.0 -9999.0 -9999.0 -9999.0 -9999.0 -9999.0 -9999.0 -9999.0 -9999.0 -9999.0 -9999.0 -9999.0 -9999.0 -9999.0 -9999.0 -9999.0 -9999.0 -9999.0 -9999.0 -9999.0 -9999.0 -9999.0 -9999.0 -9999.0 -9999.0 -9999.0 -9999.0 -9999.0 -9999.0 -9999.0 -9999.0 -9999.0 -9999.0 -9999.0 -9999.0 -9999.0 -9999.0 -9999.0 -9999.0 -9999.0 -9999.0 -9999.0 -9999.0 -9999.0 -9999.0 -9999.0 -9999.0 -9999.0 -9999.0 -9999.0 -9999.0 -9999.0 -9999.0 -9999.0 -9999.0 -9999.0 -9999.0 -9999.0 -9999.0 55.5 54.6 55.3 73.2 159.9 197.4 227.5 256.5 212.3 111.8 138.7 228.1 318.2 403.0 475.0 513.0 571.5 530.1 485.8 561.2 687.9 796.5 866.7 926.7 963.5 936.3 858.3 866.5 851.6 782.3 721.7 700.1 791.2 733.1 755.4 866.2 942.7 979.7 993.9 980.8 995.9 1045.6 1103.7 1195.0 1143.5 1126.6 1076.9 982.0 888.4 835.4 822.6 834.8 806.3 800.7 805.6 808.6 808.1 765.8 776.9 781.0 808.9 830.7 865.0 832.6 797.8 766.8 830.9 844.0 867.9 970.3 996.1 1007.3 970.6 918.6 948.4 1036.6 980.0 947.7 1113.4 1205.8 1225.5 1170.8 1083.8 969.4 1107.1 1237.0 1209.4 1243.9 1212.2 1104.9 893.7 874.9 1082.4 1108.1 1222.5 1265.7 1277.4 1221.8 1040.5 1037.9 1164.7 1136.5 1176.0 1240.7 1266.6 1331.6 1292.2 1169.6 1220.1 1328.8 1342.6 1395.8 1434.5 1395.1 1327.8 1279.6 1232.4 1217.7 1263.0 1341.4 1357.6 1343.0 1273.5 1190.6 1172.1 1162.7 1152.1 1131.5 1053.1 965.8 859.0 775.9 723.5 664.3 619.7 592.0 507.3 439.2 362.4 305.6 274.7 259.8 242.1 199.5 176.2 183.2 178.5 163.0 137.4 140.9 133.0 129.5 150.1 156.9 156.0 167.8 154.6 139.5 123.9 103.0 82.1 83.4 109.4 122.6 103.1 97.6 108.3 114.9 120.8 142.2 157.8 165.7 151.6 150.3 201.5 242.1 257.8 255.7 247.2 235.2 195.6 160.1 166.5 193.1 165.4 140.7 138.7 172.6 200.9 200.3 196.4 192.0 171.8 126.7 104.2 102.5 87.7 79.7 71.3 75.0 88.4 82.3 76.8 89.0 112.0 169.5 122.0 -9999.0 -9999.0 -9999.0 -9999.0 -9999.0 -9999.0 -9999.0 -9999.0 -9999.0 -9999.0 -9999.0 -9999.0 -9999.0 -9999.0 -9999.0 -9999.0 -9999.0 -9999.0 -9999.0 -9999.0 -9999.0 -9999.0
-9999.0 -9999.0 -9999.0 -9999.0 -9999.0 -9999.0 -9999.0 -9999.0 -9999.0 -9999.0 -9999.0 -9999.0 -9999.0 -9999.0 -9999.0 -9999.0 -9999.0 -9999.0 -9999.0 -9999.0 -9999.0 -9999.0 -9999.0 -9999.0 -9999.0 -9999.0 -9999.0 -9999.0 -9999.0 -9999.0 -9999.0 -9999.0 -9999.0 -9999.0 -9999.0 -9999.0 -9999.0 -9999.0 -9999.0 -9999.0 -9999.0 -9999.0 -9999.0 -9999.0 -9999.0 -9999.0 -9999.0 -9999.0 -9999.0 -9999.0 -9999.0 -9999.0 -9999.0 -9999.0 -9999.0 -9999.0 -9999.0 -9999.0 -9999.0 -9999.0 -9999.0 -9999.0 -9999.0 -9999.0 -9999.0 -9999.0 -9999.0 -9999.0 -9999.0 -9999.0 -9999.0 -9999.0 -9999.0 -9999.0 -9999.0 -9999.0 -9999.0 -9999.0 -9999.0 -9999.0 -9999.0 -9999.0 -9999.0 -9999.0 -9999.0 -9999.0 -9999.0 -9999.0 -9999.0 -9999.0 -9999.0 -9999.0 -9999.0 -9999.0 -9999.0 -9999.0 -9999.0 -9999.0 -9999.0 -9999.0 -9999.0 57.3 60.8 76.3 110.4 170.0 217.4 224.1 133.9 113.5 222.8 315.7 403.2 449.6 509.5 568.2 526.4 440.1 521.7 626.8 746.0 876.3 989.0 1070.3 1101.3 1038.2 976.6 958.5 913.5 913.5 851.3 779.8 825.8 844.4 815.4 846.8 932.8 1041.0 1089.2 1145.2 1178.2 1196.5 1226.4 1290.1 1202.6 1214.2 1107.7 974.9 882.7 839.4 810.8 819.0 811.4 789.5 778.1 779.7 774.5 762.1 758.8 755.4 759.1 775.8 820.7 840.5 855.2 823.9 769.1 853.7 942.8 971.8 1009.3 1023.7 1031.4 1003.3 976.2 916.1 961.9 912.6 975.6 1124.1 1117.9 1148.1 1031.4 901.8 1046.9 1166.6 1134.2 1208.6 1169.6 1075.9 906.7 782.8 1001.0 1037.2 1075.6 1199.9 1237.6 1208.5 1090.7 938.8 950.5 1028.8 1067.2 1170.3 1167.2 1216.7 1207.7 1049.1 1057.2 1152.3 1302.4 1325.5 1307.7 1345.5 1338.9 1352.8 1336.7 1278.0 1140.2 1188.5 1212.2 1256.0 1245.9 1260.4 1261.4 1230.9 1183.0 1127.6 1059.3 974.5 963.8 945.3 894.5 862.6 798.1 685.3 611.7 509.7 372.4 291.2 255.7 230.8 213.9 194.8 221.9 274.2 255.9 228.8 156.6 134.9 131.7 119.3 116.3 114.3 117.6 147.4 166.8 153.7 121.7 109.0 88.7 85.5 82.2 95.5 100.5 112.7 110.9 117.2 124.5 132.1 145.5 165.3 179.1 194.8 239.0 262.9 242.4 225.6 221.5 207.9 185.6 153.1 134.6 128.0 123.1 124.6 120.3 115.2 135.4 169.1 172.0 177.9 154.3 124.0 114.3 104.5 82.3 79.6 77.3 97.0 108.1 86.5 82.1 95.0 139.4 185.6 123.6 -9999.0 -9999.0 -9999.0 -9999.0 -9999.0 -9999.0 -9999.0 -9999.0 -9999.0 -9999.0 -9999.0 -9999.0 -9999.0 -9999.0 -9999.0 -9999.0 -9999.0 -9999.0 -9999.0 -9999.0 -9999.0 -9999.0
-9999.0 -9999.0 -9999.0 -9999.0 -9999.0 -9999.0 -9999.0 -9999.0 -9999.0 -9999.0 -9999.0 -9999.0 -9999.0 -9999.0 -9999.0 -9999.0 -9999.0 -9999.0 -9999.0 -9999.0 -9999.0 -9999.0 -9999.0 -9999.0 -9999.0 -9999.0 -9999.0 -9999.0 -9999.0 -9999.0 -9999.0 -9999.0 -9999.0 -9999.0 -9999.0 -9999.0 -9999.0 -9999.0 -9999.0 -9999.0 -9999.0 -9999.0 -9999.0 -9999.0 -9999.0 -9999.0 -9999.0 -9999.0 -9999.0 -9999.0 -9999.0 -9999.0 -9999.0 -9999.0 -9999.0 -9999.0 -9999.0 -9999.0 -9999.0 -9999.0 -9999.0 -9999.0 -9999.0 -9999.0 -9999.0 -9999.0 -9999.0 -9999.0 -9999.0 -9999.0 -9999.0 -9999.0 -9999.0 -9999.0 -9999.0 -9999.0 -9999.0 -9999.0 -9999.0 -9999.0 -9999.0 -9999.0 -9999.0 -9999.0 -9999.0 -9999.0 -9999.0 -9999.0 -9999.0 -9999.0 -9999.0 -9999.0 -9999.0 -9999.0 -9999.0 -9999.0 -9999.0 -9999.0 -9999.0 -9999.0 -9999.0 55.2 57.1 61.0 75.2 88.1 92.4 90.5 120.9 209.4 307.6 346.4 345.9 347.5 352.1 370.9 392.8 446.9 518.4 612.8 733.0 836.4 966.5 1054.2 1145.0 1093.8 1071.6 1050.9 962.2 946.6 920.1 860.6 859.3 885.4 921.1 959.7 935.4 1000.1 1104.4 1219.5 1304.5 1361.7 1405.1 1378.2 1301.9 1152.8 1044.4 945.6 875.6 836.9 815.1 801.6 799.8 803.7 785.5 774.7 770.7 767.6 782.4 787.2 771.9 755.8 765.3 784.3 829.2 854.1 795.0 762.2 887.4 942.4 1000.9 1023.1 1024.1 1078.3 1076.4 971.6 876.0 925.8 860.1 1004.1 1019.4 1064.7 1041.5 896.2 907.9 1027.1 985.8 1080.4 1104.3 1099.0 977.1 762.5 814.4 973.8 970.3 1069.8 1144.2 1089.8 1141.2 1090.8 921.1 831.4 965.7 942.7 1044.4 1068.1 1079.9 937.3 1004.1 1194.1 1226.8 1217.9 1190.8 1263.4 1265.5 1271.9 1285.1 1281.3 1173.0 1062.7 1047.7 1126.1 1157.4 1219.3 1234.1 1174.7 1141.2 1085.3 1018.8 947.4 973.0 944.6 888.2 827.7 782.2 750.0 667.0 529.0 395.9 330.7 286.7 250.9 221.5 221.9 217.7 257.4 215.4 185.7 170.4 171.3 154.0 126.3 120.7 115.5 105.1 111.6 124.1 163.0 138.5 164.7 116.1 85.3 79.6 93.6 103.1 107.0 119.4 126.7 137.9 154.1 159.3 171.5 220.8 239.3 231.9 218.5 212.9 185.0 185.1 178.1 179.7 172.3 161.1 176.7 184.6 187.8 159.1 121.0 106.5 100.9 99.8 101.0 94.7 87.6 86.0 84.9 85.7 83.5 107.4 130.7 121.6 88.0 89.7 94.0 119.5 140.6 154.3 93.9 99.1 -9999.0 -9999.0 -9999.0 -9999.0 -9999.0 -9999.0 -9999.0 -9999.0 -9999.0 -9999.0 -9999.0 -9999.0 -9999.0 -9999.0 -9999.0 -9999.0 -9999.0 -9999.0 -9999.0 -9999.0
-9999.0 -9999.0 -9999.0 -9999.0 -9999.0 -9999.0 -9999.0 -9999.0 -9999.0 -9999.0 -9999.0 -9999.0 -9999.0 -9999.0 -9999.0 -9999.0 -9999.0 -9999.0 -9999.0 -9999.0 -9999.0 -9999.0 -9999.0 -9999.0 -9999.0 -9999.0 -9999.0 -9999.0 -9999.0 -9999.0 -9999.0 -9999.0 -9999.0 -9999.0 -9999.0 -9999.0 -9999.0 -9999.0 -9999.0 -9999.0 -9999.0 -9999.0 -9999.0 -9999.0 -9999.0 -9999.0 -9999.0 -9999.0 -9999.0 -9999.0 -9999.0 -9999.0 -9999.0 -9999.0 -9999.0 -9999.0 -9999.0 -9999.0 -9999.0 -9999.0 -9999.0 -9999.0 -9999.0 -9999.0 -9999.0 -9999.0 -9999.0 -9999.0 -9999.0 -9999.0 -9999.0 -9999.0 -9999.0 -9999.0 -9999.0 -9999.0 -9999.0 -9999.0 -9999.0 -9999.0 -9999.0 -9999.0 -9999.0 -9999.0 -9999.0 -9999.0 -9999.0 -9999.0 -9999.0 -9999.0 -9999.0 -9999.0 -9999.0 -9999.0 -9999.0 -9999.0 -9999.0 -9999.0 -9999.0 -9999.0 -9999.0 54.9 51.1 56.6 77.6 142.9 178.9 144.8 174.8 205.0 226.2 245.1 264.9 335.6 387.4 395.8 425.8 506.0 555.4 587.6 612.0 675.1 797.5 901.7 1043.2 1128.0 1146.7 1108.7 1009.5 969.7 939.8 919.4 914.1 955.1 1018.4 1086.1 1054.9 1093.8 1192.2 1274.5 1306.4 1252.2 1297.6 1324.2 1263.7 1172.1 1078.4 977.6 926.6 903.8 887.8 861.7 832.0 801.3 791.4 800.5 819.3 787.7 814.4 834.6 828.9 816.9 777.5 754.4 763.2 771.0 795.0 749.4 825.4 801.2 887.9 996.7 1015.2 1025.3 1052.6 965.5 847.6 896.9 819.5 842.4 938.4 984.1 1024.8 911.4 800.6 841.2 853.2 991.0 1037.2 1019.0 988.3 795.4 697.7 879.7 853.0 894.2 1005.5 927.3 987.0 1075.5 965.1 787.1 862.0 898.2 833.1 847.4 961.7 858.6 908.0 1063.2 1144.9 1134.1 1078.2 1150.6 1176.4 1179.0 1198.8 1205.1 1185.7 1134.1 1026.5 965.1 952.5 1058.5 1133.3 1118.0 1054.1 1022.7 972.2 927.6 921.9 898.1 851.8 812.0 772.9 733.2 669.1 598.8 490.6 381.1 299.7 273.2 246.7 248.9 248.6 306.0 253.2 222.5 208.9 198.4 159.0 153.3 141.9 123.2 112.7 101.8 92.9 94.6 101.0 153.9 105.8 83.3 78.5 101.8 116.1 108.6 122.1 130.5 147.4 157.7 167.0 202.3 224.8 262.8 279.0 262.1 245.7 250.6 256.7 250.3 246.7 240.2 230.4 231.5 226.8 207.0 176.6 156.5 139.5 114.0 115.1 106.8 90.5 99.6 116.1 103.1 94.5 88.9 126.3 136.4 115.4 96.8 107.2 99.0 101.2 127.3 175.3 138.3 142.6 121.7 -9999.0 -9999.0 -9999.0 -9999.0 -9999.0 -9999.0 -9999.0 -9999.0 -9999.0 -9999.0 -9999.0 -9999.0 -9999.0 -9999.0 -9999.0 -9999.0 -9999.0 -9999.0 -9999.0
-9999.0 -9999.0 -9999.0 -9999.0 -9999.0 -9999.0 -9999.0 -9999.0 -9999.0 -9999.0 -9999.0 -9999.0 -9999.0 -9999.0 -9999.0 -9999.0 -9999.0 -9999.0 -9999.0 -9999.0 -9999.0 -9999.0 -9999.0 -9999.0 -9999.0 -9999.0 -9999.0 -9999.0 -9999.0 -9999.0 -9999.0 -9999.0 -9999.0 -9999.0 -9999.0 -9999.0 -9999.0 -9999.0 -9999.0 -9999.0 -9999.0 -9999.0 -9999.0 -9999.0 -9999.0 -9999.0 -9999.0 -9999.0 -9999.0 -9999.0 -9999.0 -9999.0 -9999.0 -9999.0 -9999.0 -9999.0 -9999.0 -9999.0 -9999.0 -9999.0 -9999.0 -9999.0 -9999.0 -9999.0 -9999.0 -9999.0 -9999.0 -9999.0 -9999.0 -9999.0 -9999.0 -9999.0 -9999.0 -9999.0 -9999.0 -9999.0 -9999.0 -9999.0 -9999.0 -9999.0 -9999.0 -9999.0 -9999.0 -9999.0 -9999.0 -9999.0 -9999.0 -9999.0 -9999.0 -9999.0 -9999.0 -9999.0 -9999.0 -9999.0 -9999.0 -9999.0 -9999.0 -9999.0 -9999.0 -9999.0 -9999.0 52.7 56.7 60.8 89.0 141.4 131.1 188.3 269.8 331.7 364.5 401.3 414.1 371.5 456.0 522.2 590.9 678.9 752.2 807.0 764.2 741.3 755.9 826.9 957.8 1116.5 1209.3 1159.9 1097.5 1044.7 984.0 960.2 947.6 973.9 1031.5 1088.8 1146.7 1236.0 1289.6 1269.6 1152.6 1072.0 1063.3 1153.0 1171.6 1126.0 1072.0 1005.9 973.3 994.7 974.5 912.7 857.9 880.7 896.1 877.9 856.4 837.1 816.8 861.6 897.0 923.9 890.0 860.1 821.5 771.0 795.0 750.8 728.1 725.2 805.7 929.4 1017.7 998.1 962.2 955.8 848.4 851.9 830.4 786.7 873.3 922.0 970.7 927.6 874.0 782.8 773.4 857.3 930.8 915.0 919.5 813.7 648.4 747.5 854.4 733.9 788.1 763.0 837.2 916.6 915.4 856.0 707.5 815.6 904.7 826.7 749.3 762.5 827.5 980.8 1077.6 1085.8 1006.2 1088.3 1117.9 1136.3 1081.0 1072.0 1113.5 1099.4 1073.9 1076.0 977.9 894.1 1012.0 1009.8 993.7 916.8 949.4 916.9 870.5 832.4 799.9 834.8 820.8 721.0 695.5 633.7 506.5 381.1 280.9 253.6 253.2 282.1 259.4 266.8 287.3 300.1 271.2 203.1 169.0 159.0 157.1 150.7 129.6 120.1 110.6 97.5 83.5 117.6 102.1 81.3 76.6 98.5 107.7 118.2 110.2 117.8 140.9 139.8 151.1 166.6 161.5 191.6 252.7 271.6 268.1 267.3 261.5 252.6 241.2 239.5 239.6 229.0 208.0 195.0 202.7 197.6 180.1 176.9 186.3 141.6 92.3 109.6 153.7 155.3 110.9 96.3 113.8 154.8 158.5 110.4 118.7 110.2 102.3 113.7 141.3 161.4 201.8 171.3 147.9 184.3 149.3 -9999.0 -9999.0 -9999.0 -9999.0 -9999.0 -9999.0 -9999.0 -9999.0 -9999.0 -9999.0 -9999.0 -9999.0 -9999.0 -9999.0 -9999.0 -9999.0
-9999.0 -9999.0 -9999.0 -9999.0 -9999.0 -9999.0 -9999.0 -9999.0 -9999.0 -9999.0 -9999.0 -9999.0 -9999.0 -9999.0 -9999.0 -9999.0 -9999.0 -9999.0 -9999.0 -9999.0 -9999.0 -9999.0 -9999.0 -9999.0 -9999.0 -9999.0 -9999.0 -9999.0 -9999.0 -9999.0 -9999.0 -9999.0 -9999.0 -9999.0 -9999.0 -9999.0 -9999.0 -9999.0 -9999.0 -9999.0 -9999.0 -9999.0 -9999.0 -9999.0 -9999.0 -9999.0 -9999.0 -9999.0 -9999.0 -9999.0 -9999.0 -9999.0 -9999.0 -9999.0 -9999.0 -9999.0 -9999.0 -9999.0 -9999.0 -9999.0 -9999.0 -9999.0 -9999.0 -9999.0 -9999.0 -9999.0 -9999.0 -9999.0 -9999.0 -9999.0 -9999.0 -9999.0 -9999.0 -9999.0 -9999.0 -9999.0 -9999.0 -9999.0 -9999.0 -9999.0 -9999.0 -9999.0 -9999.0 -9999.0 -9999.0 -9999.0 -9999.0 -9999.0 -9999.0 -9999.0 -9999.0 -9999.0 -9999.0 -9999.0 -9999.0 -9999.0 -9999.0 -9999.0 -9999.0 -9999.0 -9999.0 -9999.0 55.8 57.3 81.4 152.2 208.4 274.8 375.3 430.4 460.4 510.1 622.7 585.4 548.8 583.5 606.1 702.6 834.6 955.4 1002.3 926.9 903.0 922.5 1048.1 1180.5 1254.4 1232.5 1151.5 1076.5 1048.8 1011.5 980.4 974.6 1004.0 1049.5 1163.2 1276.7 1230.1 1124.3 1001.2 878.5 915.5 1050.5 1155.6 1137.6 1079.4 1056.6 1047.9 1064.5 1021.6 937.5 951.8 999.2 939.6 900.9 898.4 870.6 846.9 866.0 891.0 950.8 956.8 920.6 901.9 771.0 795.0 830.4 772.3 702.8 718.4 806.1 884.8 915.4 955.3 882.5 913.1 807.7 761.1 784.2 913.7 907.6 938.9 907.0 878.8 830.1 738.8 735.3 821.7 826.5 795.8 785.5 623.0 627.6 722.5 722.9 654.3 627.5 722.7 793.9 769.5 843.2 725.2 652.7 789.6 832.7 672.7 718.3 681.6 785.2 969.0 965.5 947.3 1028.6 1067.1 1075.0 1050.1 995.0 1034.2 1041.3 1019.4 995.7 952.1 906.7 855.0 875.4 909.1 890.1 948.3 897.5 865.9 840.1 748.4 680.8 758.2 711.9 617.1 560.5 467.3 358.2 268.1 240.1 227.3 263.4 243.7 240.5 294.3 302.4 230.5 189.4 171.9 154.5 150.2 149.9 137.5 121.6 164.3 133.2 90.7 81.3 81.6 77.3 78.9 87.2 119.8 94.6 116.0 128.0 123.6 125.5 132.3 142.1 141.7 156.5 187.9 228.1 204.0 221.3 235.4 229.1 234.8 205.0 189.4 199.2 195.9 167.6 143.4 136.0 118.7 126.4 148.5 111.4 100.3 131.4 148.4 166.5 108.8 111.0 153.2 185.5 188.6 134.1 130.5 115.1 115.0 113.0 127.6 158.9 207.3 198.9 198.5 188.8 138.2 104.5 93.1 86.9 80.9 -9999.0 -9999.0 -9999.0 -9999.0 -9999.0 -9999.0 -9999.0 -9999.0 -9999.0 -9999.0 -9999.0 -9999.0
-9999.0 -9999.0 -9999.0 -9999.0 -9999.0 -9999.0 -9999.0 -9999.0 -9999.0 -9999.0 -9999.0 -9999.0 -9999.0 -9999.0 -9999.0 -9999.0 -9999.0 -9999.0 -9999.0 -9999.0 -9999.0 -9999.0 -9999.0 -9999.0 -9999.0 -9999.0 -9999.0 -9999.0 -9999.0 -9999.0 -9999.0 -9999.0 -9999.0 -9999.0 -9999.0 -9999.0 -9999.0 -9999.0 -9999.0 -9999.0 -9999.0 -9999.0 -9999.0 -9999.0 -9999.0 -9999.0 -9999.0 -9999.0 -9999.0 -9999.0 -9999.0 -9999.0 -9999.0 -9999.0 -9999.0 -9999.0 -9999.0 -9999.0 -9999.0 -9999.0 -9999.0 -9999.0 -9999.0 -9999.0 -9999.0 -9999.0 -9999.0 -9999.0 -9999.0 -9999.0 -9999.0 -9999.0 -9999.0 -9999.0 -9999.0 -9999.0 -9999.0 -9999.0 -9999.0 -9999.0 -9999.0 -9999.0 -9999.0 -9999.0 -9999.0 -9999.0 -9999.0 -9999.0 -9999.0 -9999.0 -9999.0 -9999.0 -9999.0 -9999.0 -9999.0 -9999.0 -9999.0 -9999.0 -9999.0 -9999.0 -9999.0 -9999.0 -9999.0 55.4 71.6 157.2 215.4 272.7 388.8 445.1 472.0 516.1 628.1 695.6 719.4 794.8 812.5 860.5 886.0 969.3 1100.1 1134.6 1092.7 1073.5 1189.4 1304.2 1307.9 1237.1 1171.5 1119.9 1083.0 1047.7 1013.4 977.6 983.1 1058.4 1146.8 1205.8 1135.7 1028.6 877.3 732.5 835.7 1008.7 1057.9 1056.2 1047.8 1062.3 1093.2 1122.7 1054.4 1029.3 1089.7 1075.5 1029.0 1003.6 991.8 979.2 921.8 922.4 900.7 897.8 886.1 875.0 878.2 771.0 795.0 777.2 808.0 760.8 704.1 692.8 733.7 770.0 821.0 803.7 821.2 867.6 782.6 724.7 786.9 792.9 858.7 882.8 860.9 789.1 772.4 699.6 794.6 786.7 773.3 845.9 731.6 581.4 550.2 603.7 641.2 565.4 601.1 688.4 631.8 705.4 741.7 605.3 669.2 811.2 693.1 624.1 624.6 661.4 820.9 818.6 899.1 981.0 988.6 978.9 969.9 922.7 946.8 977.1 946.4 972.1 1001.5 1008.6 897.5 825.9 778.5 772.7 871.6 896.1 932.7 910.9 854.9 697.5 577.9 632.9 568.7 494.3 430.0 341.3 253.8 219.4 204.1 241.9 284.4 233.8 250.3 315.9 273.2 208.7 170.0 147.9 138.3 130.1 122.4 114.2 139.5 159.2 125.9 100.4 85.2 77.0 73.3 77.3 90.3 94.2 114.1 115.6 109.9 113.8 121.6 124.8 128.8 144.4 152.6 167.7 160.6 171.2 221.2 233.1 227.0 217.9 207.8 192.3 169.9 149.9 129.1 113.8 117.0 124.3 112.7 104.4 116.0 168.6 205.2 193.4 142.1 123.9 174.0 208.0 215.1 200.9 184.5 164.9 149.1 128.9 131.8 170.4 210.7 208.9 200.9 190.1 144.2 102.7 89.6 84.3 78.8 -9999.0 -9999.0 -9999.0 -9999.0 -9999.0 -9999.0 -9999.0 -9999.0 -9999.0 -9999.0 -9999.0 -9999.0
-9999.0 -9999.0 -9999.0 -9999.0 -9999.0 -9999.0 -9999.0 -9999.0 -9999.0 -9999.0 -9999.0 -9999.0 -9999.0 -9999.0 -9999.0 -9999.0 -9999.0 -9999.0 -9999.0 -9999.0 -9999.0 -9999.0 -9999.0 -9999.0 -9999.0 -9999.0 -9999.0 -9999.0 -9999.0 -9999.0 -9999.0 -9999.0 -9999.0 -9999.0 -9999.0 -9999.0 -9999.0 -9999.0 -9999.0 -9999.0 -9999.0 -9999.0 -9999.0 -9999.0 -9999.0 -9999.0 -9999.0 -9999.0 -9999.0 -9999.0 -9999.0 -9999.0 -9999.0 -9999.0 -9999.0 -9999.0 -9999.0 -9999.0 -9999.0 -9999.0 -9999.0 -9999.0 -9999.0 -9999.0 -9999.0 -9999.0 -9999.0 -9999.0 -9999.0 -9999.0 -9999.0 -9999.0 -9999.0 -9999.0 -9999.0 -9999.0 -9999.0 -9999.0 -9999.0 -9999.0 -9999.0 -9999.0 -9999.0 -9999.0 -9999.0 -9999.0 -9999.0 -9999.0 -9999.0 -9999.0 -9999.0 -9999.0 -9999.0 -9999.0 -9999.0 -9999.0 -9999.0 -9999.0 -9999.0 -9999.0 -9999.0 -9999.0 -9999.0 -9999.0 61.5 140.5 198.4 250.8 385.7 449.2 472.1 515.4 620.0 699.6 728.6 823.4 962.9 1037.5 1040.1 1096.5 1139.6 1146.9 1213.7 1247.9 1304.7 1334.3 1282.2 1186.3 1078.8 968.3 907.8 908.2 910.4 827.9 910.3 1020.0 1121.0 1147.3 1052.9 920.4 757.5 645.7 765.8 879.5 872.9 925.4 1001.3 1053.9 1103.0 1161.7 1167.3 1186.5 1185.5 1160.5 1141.5 1148.5 1124.8 1077.5 1035.1 1000.5 1004.4 986.9 979.0 953.1 903.0 771.0 795.0 739.5 848.2 881.8 816.2 757.5 711.4 676.0 687.1 731.1 716.9 747.1 779.6 777.0 706.8 722.8 831.3 838.4 881.8 830.4 735.3 679.6 736.3 783.8 722.1 838.2 755.0 692.8 592.9 505.8 495.2 477.9 513.4 575.6 549.3 541.3 616.2 543.1 544.9 703.1 689.4 571.8 556.3 547.4 692.6 720.9 857.2 883.9 882.1 880.7 833.8 788.8 843.8 835.6 811.7 892.0 952.5 991.4 945.9 906.6 837.8 709.0 717.1 775.6 840.0 850.4 802.8 706.1 601.1 505.4 522.7 508.2 426.0 347.1 255.2 215.3 197.9 253.9 301.8 254.8 216.8 232.2 273.2 201.4 170.7 149.7 147.8 142.7 129.9 117.1 104.1 116.7 130.0 125.3 115.5 92.6 78.6 71.6 78.4 90.8 102.4 106.3 101.0 112.2 121.4 115.9 120.5 132.6 138.7 136.2 138.2 160.7 164.8 219.2 228.9 191.0 169.0 170.4 196.3 168.0 131.8 134.4 173.9 180.0 133.6 131.2 141.2 190.0 213.7 212.1 196.4 158.4 130.8 162.1 204.2 218.7 220.4 221.3 215.8 195.4 185.2 197.6 195.6 190.1 190.9 187.1 163.5 114.1 87.3 -9999.0 -9999.0 -9999.0 -9999.0 -9999.0 -9999.0 -9999.0 -9999.0 -9999.0 -9999.0 -9999.0 -9999.0 -9999.0 -9999.0
-9999.0 -9999.0 -9999.0 -9999.0 -9999.0 -9999.0 -9999.0 -9999.0 -9999.0 -9999.0 -9999.0 -9999.0 -9999.0 -9999.0 -9999.0 -9999.0 -9999.0 -9999.0 -9999.0 -9999.0 -9999.0 -9999.0 -9999.0 -9999.0 -9999.0 -9999.0 -9999.0 -9999.0 -9999.0 -9999.0 -9999.0 -9999.0 -9999.0 -9999.0 -9999.0 -9999.0 -9999.0 -9999.0 -9999.0 -9999.0 -9999.0 -9999.0 -9999.0 -9999.0 -9999.0 -9999.0 -9999.0 -9999.0 -9999.0 -9999.0 -9999.0 -9999.0 -9999.0 -9999.0 -9999.0 -9999.0 -9999.0 -9999.0 -9999.0 -9999.0 -9999.0 -9999.0 -9999.0 -9999.0 -9999.0 -9999.0 -9999.0 -9999.0 -9999.0 -9999.0 -9999.0 -9999.0 -9999.0 -9999.0 -9999.0 -9999.0 -9999.0 -9999.0 -9999.0 -9999.0 -9999.0 -9999.0 -9999.0 -9999.0 -9999.0 -9999.0 -9999.0 -9999.0 -9999.0 -9999.0 -9999.0 -9999.0 -9999.0 -9999.0 -9999.0 -9999.0 -9999.0 -9999.0 -9999.0 -9999.0 -9999.0 -9999.0 -9999.0 -9999.0 -9999.0 -9999.0 147.4 199.4 283.4 423.2 469.3 505.0 609.9 697.0 721.3 779.9 882.2 940.8 922.9 964.5 969.7 1019.6 1134.3 1231.5 1292.4 1235.4 1119.3 992.7 929.9 904.5 811.9 705.7 725.1 749.8 897.8 1020.3 1088.3 1090.1 961.1 813.5 677.2 588.0 659.9 739.9 774.3 873.7 927.2 954.2 1027.7 1062.0 1090.3 1156.2 1183.7 1175.5 1169.8 1159.0 1178.5 1182.9 1168.7 1137.3 1104.9 1050.2 975.3 874.9 817.2 771.0 795.0 778.3 863.2 951.8 957.6 901.2 846.9 791.5 731.3 667.2 664.6 670.3 704.5 735.0 741.3 661.9 686.0 768.8 840.8 869.7 811.6 722.5 666.8 727.2 713.3 864.0 876.2 855.0 727.5 649.4 534.5 423.8 545.1 582.3 499.0 465.2 512.4 474.9 494.5 579.0 627.1 641.6 517.1 479.0 620.1 622.1 786.6 797.9 792.5 800.4 766.4 687.9 720.3 711.7 784.5 789.6 812.2 811.0 833.6 832.2 822.4 751.0 614.9 592.7 669.2 760.7 753.6 688.6 619.9 530.4 433.9 416.3 397.5 330.0 238.3 205.9 188.2 260.5 271.0 232.6 202.4 223.8 259.0 211.8 156.1 145.4 135.8 131.8 154.6 149.5 136.0 117.7 100.7 93.8 125.6 93.1 76.3 72.3 88.3 103.6 112.3 105.3 95.1 105.4 112.0 108.7 111.5 116.5 124.1 131.5 123.5 134.5 149.7 193.3 211.5 200.3 199.8 157.4 142.2 153.5 164.6 193.5 198.0 184.0 191.7 204.0 207.9 208.9 214.3 213.0 211.5 204.0 153.3 143.1 173.3 194.9 205.4 220.4 220.5 203.0 185.2 163.4 157.1 141.2 163.7 160.9 160.8 120.2 -9999.0 -9999.0 -9999.0 -9999.0 -9999.0 -9999.0 -9999.0 -9999.0 -9999.0 -9999.0 -9999.0 -9999.0 -9999.0 -9999.0 -9999.0
-9999.0 -9999.0 -9999.0 -9999.0 -9999.0 -9999.0 -9999.0 -9999.0 -9999.0 -9999.0 -9999.0 -9999.0 -9999.0 -9999.0 -9999.0 -9999.0 -9999.0 -9999.0 -9999.0 -9999.0 -9999.0 -9999.0 -9999.0 -9999.0 -9999.0 -9999.0 -9999.0 -9999.0 -9999.0 -9999.0 -9999.0 -9999.0 -9999.0 -9999.0 -9999.0 -9999.0 -9999.0 -9999.0 -9999.0 -9999.0 -9999.0 -9999.0 -9999.0 -9999.0 -9999.0 -9999.0 -9999.0 -9999.0 -9999.0 -9999.0 -9999.0 -9999.0 -9999.0 -9999.0 -9999.0 -9999.0 -9999.0 -9999.0 -9999.0 -9999.0 -9999.0 -9999.0 -9999.0 -9999.0 -9999.0 -9999.0 -9999.0 -9999.0 -9999.0 -9999.0 -9999.0 -9999.0 -9999.0 -9999.0 -9999.0 -9999.0 -9999.0 -9999.0 -9999.0 -9999.0 -9999.0 -9999.0 -9999.0 -9999.0 -9999.0 -9999.0 -9999.0 -9999.0 -9999.0 -9999.0 -9999.0 -9999.0 -9999.0 -9999.0 -9999.0 -9999.0 -9999.0 -9999.0 -9999.0 -9999.0 -9999.0 -9999.0 -9999.0 -9999.0 -9999.0 -9999.0 -9999.0 111.7 217.9 329.0 439.0 475.3 544.1 641.1 691.3 730.0 757.3 694.6 706.9 779.2 880.9 1039.5 1195.1 1246.8 1276.4 1199.6 1047.4 899.3 775.8 697.8 744.1 647.4 632.8 782.5 913.5 986.4 1040.7 1063.8 982.9 860.3 749.5 614.6 537.6 644.7 776.7 832.4 820.7 844.2 870.7 882.1 962.0 1068.7 1104.6 1100.4 1076.3 1098.8 1119.1 1177.6 1158.4 1086.9 1022.3 959.5 904.5 867.3 822.5 776.6 745.0 729.1 774.0 861.0 918.8 921.4 899.2 881.5 820.5 775.2 731.1 684.0 651.8 639.0 661.0 632.0 678.6 721.6 707.1 733.2 732.8 683.4 631.4 641.9 737.9 851.1 868.6 943.6 823.2 657.0 544.3 427.2 485.0 525.0 516.6 420.9 482.5 496.5 450.4 436.3 503.2 557.0 549.6 463.3 540.3 547.7 720.2 756.7 710.4 705.3 687.4 594.3 564.3 658.1 740.0 697.7 737.4 695.4 722.0 767.7 740.0 727.1 694.2 629.1 551.1 576.1 626.4 571.2 504.2 501.9 495.6 398.1 315.5 260.8 208.7 180.6 192.6 267.0 224.4 182.8 219.8 226.8 198.2 164.1 151.5 130.7 121.1 132.1 166.7 152.3 134.7 127.9 110.5 99.8 88.5 83.5 70.1 76.2 97.7 108.4 109.1 95.0 92.9 99.5 105.0 105.5 104.0 106.8 118.1 118.8 114.8 126.8 143.2 189.3 227.4 210.3 182.1 160.8 189.8 220.3 220.8 222.9 217.0 218.0 215.5 215.2 215.1 214.8 214.7 212.4 211.5 203.1 169.6 165.4 168.4 179.8 199.8 216.6 212.1 180.3 157.4 153.6 138.0 124.6 116.6 123.5 129.7 -9999.0 -9999.0 -9999.0 -9999.0 -9999.0 -9999.0 -9999.0 -9999.0 -9999.0 -9999.0 -9999.0 -9999.0 -9999.0 -9999.0 -9999.0 -9999.0
-9999.0 -9999.0 -9999.0 -9999.0 -9999.0 -9999.0 -9999.0 -9999.0 -9999.0 -9999.0 -9999.0 -9999.0 -9999.0 -9999.0 -9999.0 -9999.0 -9999.0 -9999.0 -9999.0 -9999.0 -9999.0 -9999.0 -9999.0 -9999.0 -9999.0 -9999.0 -9999.0 -9999.0 -9999.0 -9999.0 -9999.0 -9999.0 -9999.0 -9999.0 -9999.0 -9999.0 -9999.0 -9999.0 -9999.0 -9999.0 -9999.0 -9999.0 -9999.0 -9999.0 -9999.0 -9999.0 -9999.0 -9999.0 -9999.0 -9999.0 -9999.0 -9999.0 -9999.0 -9999.0 -9999.0 -9999.0 -9999.0 -9999.0 -9999.0 -9999.0 -9999.0 -9999.0 -9999.0 -9999.0 -9999.0 -9999.0 -9999.0 -9999.0 -9999.0 -9999.0 -9999.0 -9999.0 -9999.0 -9999.0 -9999.0 -9999.0 -9999.0 -9999.0 -9999.0 -9999.0 -9999.0 -9999.0 -9999.0 -9999.0 -9999.0 -9999.0 -9999.0 -9999.0 -9999.0 -9999.0 -9999.0 -9999.0 -9999.0 -9999.0 -9999.0 -9999.0 -9999.0 -9999.0 -9999.0 -9999.0 -9999.0 -9999.0 -9999.0 -9999.0 -9999.0 -9999.0 -9999.0 62.9 145.2 220.9 322.7 391.4 456.7 561.6 584.5 582.7 577.8 578.1 727.2 848.6 961.0 1058.9 1091.2 1138.6 1173.8 1181.5 1090.1 957.3 790.9 671.0 590.2 529.3 613.2 749.9 873.8 919.7 946.4 944.9 939.1 863.4 718.8 583.0 498.0 651.2 755.6 772.0 712.6 710.0 740.3 835.8 934.4 1015.8 1022.7 988.2 968.3 1008.4 1007.7 1044.0 1105.4 1117.6 1110.1 1063.3 1008.2 968.6 921.8 877.1 881.6 783.9 706.6 745.8 759.9 767.0 714.2 723.4 707.6 787.8 848.2 836.9 805.2 767.5 715.3 642.4 629.1 631.6 643.5 669.1 655.9 653.6 614.3 605.3 700.5 745.4 817.2 926.4 832.9 753.6 618.3 478.5 413.0 405.7 508.7 405.0 451.7 481.7 442.3 390.8 402.9 447.0 496.2 475.2 410.7 506.4 634.4 663.2 647.3 609.5 559.7 538.5 542.9 644.1 624.3 613.7 644.9 594.9 652.8 764.8 740.1 654.6 669.4 665.9 630.4 564.8 489.3 470.4 481.8 412.6 375.4 332.7 296.2 251.6 218.7 184.2 160.4 226.1 222.9 163.7 222.4 205.4 184.3 147.5 133.8 122.2 111.9 124.8 155.3 165.0 150.0 147.4 145.8 142.7 94.8 78.7 65.2 76.5 91.6 109.7 101.7 86.2 97.5 99.1 108.1 110.5 97.1 104.7 111.1 107.0 115.8 126.7 141.8 179.2 225.9 207.4 197.0 216.6 231.6 228.7 225.1 222.8 220.4 217.2 215.7 215.6 215.3 214.1 213.6 211.9 211.3 211.5 208.6 207.3 190.8 194.8 210.8 222.9 206.3 190.7 175.8 164.1 148.5 163.7 157.5 125.0 88.3 -9999.0 -9999.0 -9999.0 -9999.0 -9999.0 -9999.0 -9999.0 -9999.0 -9999.0 -9999.0 -9999.0 -9999.0 -9999.0 -9999.0 -9999.0 -9999.0
-9999.0 -9999.0 -9999.0 -9999.0 -9999.0 -9999.0 -9999.0 -9999.0 -9999.0 -9999.0 -9999.0 -9999.0 -9999.0 -9999.0 -9999.0 -9999.0 -9999.0 -9999.0 -9999.0 -9999.0 -9999.0 -9999.0 -9999.0 -9999.0 -9999.0 -9999.0 -9999.0 -9999.0 -9999.0 -9999.0 -9999.0 -9999.0 -9999.0 -9999.0 -9999.0 -9999.0 -9999.0 -9999.0 -9999.0 -9999.0 -9999.0 -9999.0 -9999.0 -9999.0 -9999.0 -9999.0 -9999.0 -9999.0 -9999.0 -9999.0 -9999.0 -9999.0 -9999.0 -9999.0 -9999.0 -9999.0 -9999.0 -9999.0 -9999.0 -9999.0 -9999.0 -9999.0 -9999.0 -9999.0 -9999.0 -9999.0 -9999.0 -9999.0 -9999.0 -9999.0 -9999.0 -9999.0 -9999.0 -9999.0 -9999.0 -9999.0 -9999.0 -9999.0 -9999.0 -9999.0 -9999.0 -9999.0 -9999.0 -9999.0 -9999.0 -9999.0 -9999.0 -9999.0 -9999.0 -9999.0 -9999.0 -9999.0 -9999.0 -9999.0 -9999.0 -9999.0 -9999.0 -9999.0 -9999.0 -9999.0 -9999.0 -9999.0 -9999.0 -9999.0 -9999.0 -9999.0 -9999.0 -9999.0 92.0 153.5 218.1 303.5 439.1 475.2 450.1 414.6 503.4 616.7 738.0 822.0 855.8 841.6 873.1 988.3 1025.0 996.5 1039.0 1020.4 910.2 797.4 669.1 532.4 517.3 645.5 773.4 836.1 839.2 803.5 851.6 808.9 673.7 522.0 465.7 610.9 712.8 714.1 615.8 686.6 761.9 815.4 897.3 919.2 936.2 916.6 862.0 874.8 872.3 984.8 1056.0 1080.6 1085.3 1054.0 1031.9 1005.4 1002.4 999.8 944.9 835.9 755.9 730.2 738.4 707.7 691.0 652.4 608.8 729.9 835.9 876.1 908.8 899.3 800.0 708.8 654.5 625.9 596.6 637.0 625.1 629.1 593.2 590.2 660.5 740.0 818.0 851.4 725.1 724.3 687.0 611.1 484.1 384.3 429.9 373.2 409.8 452.3 451.1 385.6 333.1 345.6 387.8 435.2 383.3 506.6 568.9 603.9 619.1 598.6 555.0 479.2 478.7 553.2 485.2 534.1 528.8 582.1 675.1 730.2 729.6 640.2 578.4 580.7 639.4 614.5 584.5 493.7 421.5 449.0 430.8 319.5 253.1 271.9 223.9 182.2 145.9 194.4 221.2 161.8 161.7 164.6 162.8 180.4 160.0 137.1 109.9 106.8 114.9 124.7 114.7 132.1 118.9 141.4 125.6 85.4 70.1 74.8 87.0 102.5 99.2 81.4 92.3 94.6 106.2 98.2 93.9 107.2 98.2 102.2 108.8 135.2 158.4 179.0 240.9 243.3 231.4 227.6 226.6 222.1 221.1 220.7 218.3 216.4 215.8 214.9 212.7 212.0 212.2 211.3 211.3 211.4 212.7 214.0 215.7 215.3 218.9 224.5 218.7 206.9 196.7 192.1 182.4 175.4 161.0 116.4 -9999.0 -9999.0 -9999.0 -9999.0 -9999.0 -9999.0 -9999.0 -9999.0 -9999.0 -9999.0 -9999.0 -9999.0 -9999.0 -9999.0 -9999.0 -9999.0 -9999.0
-9999.0 -9999.0 -9999.0 -9999.0 -9999.0 -9999.0 -9999.0 -9999.0 -9999.0 -9999.0 -9999.0 -9999.0 -9999.0 -9999.0 -9999.0 -9999.0 -9999.0 -9999.0 -9999.0 -9999.0 -9999.0 -9999.0 -9999.0 -9999.0 -9999.0 -9999.0 -9999.0 -9999.0 -9999.0 -9999.0 -9999.0 -9999.0 -9999.0 -9999.0 -9999.0 -9999.0 -9999.0 -9999.0 -9999.0 -9999.0 -9999.0 -9999.0 -9999.0 -9999.0 -9999.0 -9999.0 -9999.0 -9999.0 -9999.0 -9999.0 -9999.0 -9999.0 -9999.0 -9999.0 -9999.0 -9999.0 -9999.0 -9999.0 -9999.0 -9999.0 -9999.0 -9999.0 -9999.0 -9999.0 -9999.0 -9999.0 -9999.0 -9999.0 -9999.0 -9999.0 -9999.0 -9999.0 -9999.0 -9999.0 -9999.0 -9999.0 -9999.0 -9999.0 -9999.0 -9999.0 -9999.0 -9999.0 -9999.0 -9999.0 -9999.0 -9999.0 -9999.0 -9999.0 -9999.0 -9999.0 -9999.0 -9999.0 -9999.0 -9999.0 -9999.0 -9999.0 -9999.0 -9999.0 -9999.0 -9999.0 -9999.0 -9999.0 -9999.0 -9999.0 -9999.0 -9999.0 -9999.0 -9999.0 -9999.0 173.0 214.5 279.3 344.0 325.6 327.7 397.7 525.4 641.1 714.0 667.2 620.2 703.9 832.0 905.8 829.8 777.0 920.0 1006.8 925.7 803.3 677.5 546.1 433.5 552.5 672.5 707.3 720.2 657.0 730.2 735.4 649.8 499.0 435.7 572.1 630.4 565.1 564.0 634.8 663.6 757.7 834.8 814.4 825.9 851.8 863.9 775.3 769.6 891.5 945.6 977.2 1017.8 996.7 1005.2 1004.9 1013.0 1027.2 1001.8 980.2 919.1 905.9 892.3 801.3 624.2 575.6 640.0 659.6 670.7 740.8 824.9 882.5 906.2 864.8 773.7 678.5 625.2 687.2 664.7 601.7 575.6 582.4 699.1 820.3 852.4 885.3 769.2 651.4 599.7 573.2 490.1 421.5 346.4 338.0 410.6 394.5 449.0 462.0 383.8 342.4 307.1 330.8 399.4 464.1 496.7 506.0 519.5 520.3 520.9 509.0 418.3 426.0 411.4 476.9 539.8 596.2 634.0 669.7 643.8 693.7 632.0 525.2 522.8 591.0 570.4 521.6 428.8 411.8 402.5 347.9 271.0 196.1 235.3 213.7 152.4 143.0 207.7 185.0 128.9 144.2 169.9 192.5 153.5 124.3 117.9 111.5 97.1 98.0 99.5 115.0 116.5 96.5 91.5 75.2 68.7 77.6 94.5 102.5 91.6 81.3 98.0 106.1 106.3 105.4 91.9 101.8 95.0 105.7 118.9 153.5 229.0 243.0 244.3 239.8 235.6 233.7 227.6 221.5 218.4 208.3 208.2 210.4 209.2 204.1 206.2 209.2 209.7 209.8 210.9 210.7 211.9 214.0 216.3 220.0 223.2 220.1 212.7 199.7 181.2 165.4 160.5 160.7 126.9 91.7 -9999.0 -9999.0 -9999.0 -9999.0 -9999.0 -9999.0 -9999.0 -9999.0 -9999.0 -9999.0 -9999.0 -9999.0 -9999.0 -9999.0 -9999.0 -9999.0 -9999.0
-9999.0 -9999.0 -9999.0 -9999.0 -9999.0 -9999.0 -9999.0 -9999.0 -9999.0 -9999.0 -9999.0 -9999.0 -9999.0 -9999.0 -9999.0 -9999.0 -9999.0 -9999.0 -9999.0 -9999.0 -9999.0 -9999.0 -9999.0 -9999.0 -9999.0 -9999.0 -9999.0 -9999.0 -9999.0 -9999.0 -9999.0 -9999.0 -9999.0 -9999.0 -9999.0 -9999.0 -9999.0 -9999.0 -9999.0 -9999.0 -9999.0 -9999.0 -9999.0 -9999.0 -9999.0 -9999.0 -9999.0 -9999.0 -9999.0 -9999.0 -9999.0 -9999.0 -9999.0 -9999.0 -9999.0 -9999.0 -9999.0 -9999.0 -9999.0 -9999.0 -9999.0 -9999.0 -9999.0 -9999.0 -9999.0 -9999.0 -9999.0 -9999.0 -9999.0 -9999.0 -9999.0 -9999.0 -9999.0 -9999.0 -9999.0 -9999.0 -9999.0 -9999.0 -9999.0 -9999.0 -9999.0 -9999.0 -9999.0 -9999.0 -9999.0 -9999.0 -9999.0 -9999.0 -9999.0 -9999.0 -9999.0 -9999.0 -9999.0 -9999.0 -9999.0 -9999.0 -9999.0 -9999.0 -9999.0 -9999.0 -9999.0 -9999.0 -9999.0 -9999.0 -9999.0 -9999.0 -9999.0 -9999.0 -9999.0 112.2 190.3 240.5 219.4 257.8 390.8 457.1 502.4 568.2 627.2 519.0 575.2 678.2 782.8 789.0 698.3 686.5 833.5 967.8 908.9 780.7 639.6 512.1 394.3 493.9 587.3 584.3 562.3 513.6 609.8 647.2 612.8 482.7 394.0 525.3 516.0 457.6 485.6 559.6 605.0 676.4 707.7 701.7 691.1 762.2 827.2 737.8 711.2 820.8 814.3 865.7 951.9 945.6 946.3 932.7 902.6 930.4 938.5 982.6 1029.0 1028.8 943.5 831.7 687.7 543.6 581.5 527.2 520.5 613.8 678.2 757.9 894.8 876.0 714.7 586.4 698.3 802.2 739.8 654.2 594.0 561.7 624.1 708.2 739.1 837.8 823.2 751.2 661.7 591.2 548.4 454.6 390.4 324.8 357.3 490.4 549.9 517.5 449.0 387.1 322.4 307.1 360.2 357.2 382.1 383.2 392.7 412.3 407.8 404.3 378.5 320.3 364.7 451.9 469.2 536.8 545.4 602.9 559.8 583.8 567.3 535.8 455.7 475.3 522.0 521.4 438.7 387.8 401.9 373.1 282.2 167.5 173.1 204.5 174.4 142.8 127.0 158.0 122.7 164.0 163.0 173.4 156.2 153.4 139.3 121.2 108.3 95.0 89.4 79.0 113.0 88.6 76.4 70.5 65.0 76.4 82.2 90.3 82.9 87.0 109.2 101.1 93.6 97.6 87.8 92.7 93.4 102.1 115.8 138.6 195.0 242.2 245.8 240.4 234.7 232.9 228.3 215.7 219.9 218.2 204.9 187.3 178.2 163.4 194.6 204.5 206.8 208.8 209.9 210.2 210.4 213.0 216.4 219.4 221.6 216.1 212.6 202.4 192.4 175.6 136.5 111.2 97.2 -9999.0 -9999.0 -9999.0 -9999.0 -9999.0 -9999.0 -9999.0 -9999.0 -9999.0 -9999.0 -9999.0 -9999.0 -9999.0 -9999.0 -9999.0 -9999.0 -9999.0 -9999.0
-9999.0 -9999.0 -9999.0 -9999.0 -9999.0 -9999.0 -9999.0 -9999.0 -9999.0 -9999.0 -9999.0 -9999.0 -9999.0 -9999.0 -9999.0 -9999.0 -9999.0 -9999.0 -9999.0 -9999.0 -9999.0 -9999.0 -9999.0 -9999.0 -9999.0 -9999.0 -9999.0 -9999.0 -9999.0 -9999.0 -9999.0 -9999.0 -9999.0 -9999.0 -9999.0 -9999.0 -9999.0 -9999.0 -9999.0 -9999.0 -9999.0 -9999.0 -9999.0 -9999.0 -9999.0 -9999.0 -9999.0 -9999.0 -9999.0 -9999.0 -9999.0 -9999.0 -9999.0 -9999.0 -9999.0 -9999.0 -9999.0 -9999.0 -9999.0 -9999.0 -9999.0 -9999.0 -9999.0 -9999.0 -9999.0 -9999.0 -9999.0 -9999.0 -9999.0 -9999.0 -9999.0 -9999.0 -9999.0 -9999.0 -9999.0 -9999.0 -9999.0 -9999.0 -9999.0 -9999.0 -9999.0 -9999.0 -9999.0 -9999.0 -9999.0 -9999.0 -9999.0 -9999.0 -9999.0 -9999.0 -9999.0 -9999.0 -9999.0 -9999.0 -9999.0 -9999.0 -9999.0 -9999.0 -9999.0 -9999.0 -9999.0 -9999.0 -9999.0 -9999.0 -9999.0 -9999.0 -9999.0 -9999.0 -9999.0 -9999.0 145.9 158.3 206.1 279.5 348.1 417.8 482.7 507.4 521.6 435.9 511.8 619.0 686.3 728.9 599.4 608.9 731.7 835.9 878.2 761.6 612.3 455.5 377.4 450.2 494.2 541.6 439.5 433.8 556.9 568.4 530.0 477.2 352.9 424.2 387.3 353.4 451.9 512.2 543.3 575.4 602.7 572.6 621.8 676.8 751.5 727.8 623.6 705.9 717.1 816.5 867.0 893.6 869.5 873.7 774.9 808.0 805.2 860.0 933.1 950.7 943.2 830.3 689.1 584.5 568.4 538.8 503.0 539.0 691.0 803.2 942.9 875.9 715.2 568.6 612.7 781.6 830.8 757.7 652.5 587.4 672.4 684.4 766.0 840.7 765.0 690.2 617.2 554.8 526.6 518.7 495.0 380.6 319.3 437.5 525.4 595.1 511.9 504.0 447.6 343.4 278.8 283.8 294.1 288.4 324.8 387.2 346.2 367.6 331.6 273.0 265.6 338.1 404.8 478.6 494.0 546.8 501.4 503.4 446.1 463.6 441.0 386.5 481.6 463.8 407.6 374.9 394.9 308.8 232.5 171.1 139.4 182.4 153.9 136.9 142.3 118.9 109.4 137.9 148.9 181.2 192.7 191.5 152.6 158.8 134.1 118.2 100.8 79.0 113.0 86.9 110.6 86.3 62.5 65.6 83.7 112.0 84.3 80.4 95.3 92.1 84.6 90.2 78.8 87.0 100.7 103.5 108.5 122.9 134.2 185.7 238.7 241.1 233.1 221.1 209.1 186.7 173.3 205.1 206.8 203.0 205.6 170.6 145.2 183.9 203.4 207.8 208.5 208.5 209.9 213.8 217.3 221.2 220.4 218.0 211.7 207.7 197.3 179.5 151.5 108.7 79.6 -9999.0 -9999.0 -9999.0 -9999.0 -9999.0 -9999.0 -9999.0 -9999.0 -9999.0 -9999.0 -9999.0 -9999.0 -9999.0 -9999.0 -9999.0 -9999.0 -9999.0 -9999.0
-9999.0 -9999.0 -9999.0 -9999.0 -9999.0 -9999.0 -9999.0 -9999.0 -9999.0 -9999.0 -9999.0 -9999.0 -9999.0 -9999.0 -9999.0 -9999.0 -9999.0 -9999.0 -9999.0 -9999.0 -9999.0 -9999.0 -9999.0 -9999.0 -9999.0 -9999.0 -9999.0 -9999.0 -9999.0 -9999.0 -9999.0 -9999.0 -9999.0 -9999.0 -9999.0 -9999.0 -9999.0 -9999.0 -9999.0 -9999.0 -9999.0 -9999.0 -9999.0 -9999.0 -9999.0 -9999.0 -9999.0 -9999.0 -9999.0 -9999.0 -9999.0 -9999.0 -9999.0 -9999.0 -9999.0 -9999.0 -9999.0 -9999.0 -9999.0 -9999.0 -9999.0 -9999.0 -9999.0 -9999.0 -9999.0 -9999.0 -9999.0 -9999.0 -9999.0 -9999.0 -9999.0 -9999.0 -9999.0 -9999.0 -9999.0 -9999.0 -9999.0 -9999.0 -9999.0 -9999.0 -9999.0 -9999.0 -9999.0 -9999.0 -9999.0 -9999.0 -9999.0 -9999.0 -9999.0 -9999.0 -9999.0 -9999.0 -9999.0 -9999.0 -9999.0 -9999.0 -9999.0 -9999.0 -9999.0 -9999.0 -9999.0 -9999.0 -9999.0 -9999.0 -9999.0 -9999.0 -9999.0 -9999.0 -9999.0 -9999.0 87.3 110.2 162.3 219.9 293.1 360.9 434.9 461.9 427.7 415.6 507.3 550.0 660.0 648.7 501.4 536.1 639.1 681.4 725.5 700.5 644.4 457.7 352.5 371.1 420.9 442.3 372.0 384.7 484.7 505.7 406.1 388.0 324.9 313.5 285.8 341.1 415.4 433.6 468.7 520.5 477.8 528.1 588.0 617.9 643.5 647.6 545.1 538.6 668.0 738.6 778.2 775.7 709.6 788.8 778.1 706.3 695.9 789.1 825.4 816.9 853.1 862.3 833.3 796.0 751.3 695.2 605.0 476.8 619.3 785.5 940.8 902.9 754.9 617.6 531.7 624.7 721.3 731.5 648.1 536.5 647.5 736.2 834.2 900.9 908.1 841.1 713.0 673.6 716.9 588.5 377.8 277.2 334.9 463.2 578.2 558.9 454.2 509.2 554.0 454.8 334.9 259.2 272.9 322.5 364.7 384.2 336.1 349.8 367.2 360.0 268.5 257.0 310.1 347.6 440.0 491.5 443.6 445.6 411.7 360.3 351.3 349.1 437.8 469.5 455.0 336.0 325.0 278.1 202.2 158.0 123.7 152.3 124.0 116.6 155.3 133.6 98.5 120.9 161.5 165.6 167.9 164.5 134.7 155.7 151.6 138.0 117.8 79.0 113.0 115.3 127.6 103.4 72.7 67.7 66.2 99.0 89.2 73.8 78.7 86.4 76.0 83.1 77.2 98.4 110.1 93.7 98.1 102.2 117.4 151.9 211.6 234.1 230.2 230.0 222.7 201.2 176.8 148.6 144.2 186.0 193.3 155.1 134.4 194.2 204.6 206.4 208.0 208.0 210.7 214.9 218.1 221.6 222.4 221.0 216.1 213.5 202.4 180.6 138.6 112.3 94.9 -9999.0 -9999.0 -9999.0 -9999.0 -9999.0 -9999.0 -9999.0 -9999.0 -9999.0 -9999.0 -9999.0 -9999.0 -9999.0 -9999.0 -9999.0 -9999.0 -9999.0 -9999.0
-9999.0 -9999.0 -9999.0 -9999.0 -9999.0 -9999.0 -9999.0 -9999.0 -9999.0 -9999.0 -9999.0 -9999.0 -9999.0 -9999.0 -9999.0 -9999.0 -9999.0 -9999.0 -9999.0 -9999.0 -9999.0 -9999.0 -9999.0 -9999.0 -9999.0 -9999.0 -9999.0 -9999.0 -9999.0 -9999.0 -9999.0 -9999.0 -9999.0 -9999.0 -9999.0 -9999.0 -9999.0 -9999.0 -9999.0 -9999.0 -9999.0 -9999.0 -9999.0 -9999.0 -9999.0 -9999.0 -9999.0 -9999.0 -9999.0 -9999.0 -9999.0 -9999.0 -9999.0 -9999.0 -9999.0 -9999.0 -9999.0 -9999.0 -9999.0 -9999.0 -9999.0 -9999.0 -9999.0 -9999.0 -9999.0 -9999.0 -9999.0 -9999.0 -9999.0 -9999.0 -9999.0 -9999.0 -9999.0 -9999.0 -9999.0 -9999.0 -9999.0 -9999.0 -9999.0 -9999.0 -9999.0 -9999.0 -9999.0 -9999.0 -9999.0 -9999.0 -9999.0 -9999.0 -9999.0 -9999.0 -9999.0 -9999.0 -9999.0 -9999.0 -9999.0 -9999.0 -9999.0 -9999.0 -9999.0 -9999.0 -9999.0 -9999.0 -9999.0 -9999.0 -9999.0 -9999.0 -9999.0 -9999.0 -9999.0 -9999.0 -9999.0 70.2 125.5 187.6 231.9 293.4 357.0 369.7 331.3 443.3 446.6 505.6 535.7 546.0 410.6 496.7 521.2 543.3 542.6 463.9 430.0 339.4 290.9 283.4 328.5 326.3 288.4 323.9 346.8 346.6 311.4 285.9 276.3 269.4 254.9 274.9 305.4 338.4 404.8 399.8 383.6 479.2 465.4 525.9 571.8 579.5 506.3 453.7 573.6 635.4 655.8 652.8 603.3 637.9 704.8 715.4 604.8 714.0 741.0 709.2 748.3 789.2 796.1 808.7 825.1 767.1 626.3 462.8 542.5 685.4 825.8 880.7 723.1 586.9 502.5 545.6 545.7 575.2 561.0 558.3 734.6 804.9 804.7 828.1 820.1 842.6 849.4 699.2 579.1 583.2 457.3 315.3 318.4 451.3 518.4 504.0 409.9 466.8 570.6 478.6 378.3 273.3 285.4 411.2 487.0 402.4 347.3 298.5 345.7 370.7 278.3 221.0 264.5 367.2 412.4 447.9 454.4 379.1 340.0 361.3 303.3 356.9 379.7 418.6 428.1 418.2 368.5 250.8 188.2 158.1 137.8 114.9 99.3 113.9 133.0 100.2 98.8 115.5 146.2 154.4 135.3 153.0 124.8 134.2 131.5 117.7 129.7 79.0 113.0 98.1 131.4 122.5 71.3 62.2 71.5 97.0 103.1 80.8 68.6 72.6 78.1 84.7 73.5 85.4 87.2 84.1 94.8 111.1 115.0 128.9 153.1 194.5 224.1 211.2 200.0 185.9 181.5 168.5 138.0 123.3 173.1 147.4 115.0 177.2 202.4 203.2 204.9 204.0 206.0 207.7 212.2 215.0 209.6 195.9 180.4 176.8 174.3 150.9 116.7 104.0 95.0 -9999.0 -9999.0 -9999.0 -9999.0 -9999.0 -9999.0 -9999.0 -9999.0 -9999.0 -9999.0 -9999.0 -9999.0 -9999.0 -9999.0 -9999.0 -9999.0 -9999.0 -9999.0
-9999.0 -9999.0 -9999.0 -9999.0 -9999.0 -9999.0 -9999.0 -9999.0 -9999.0 -9999.0 -9999.0 -9999.0 -9999.0 -9999.0 -9999.0 -9999.0 -9999.0 -9999.0 -9999.0 -9999.0 -9999.0 -9999.0 -9999.0 -9999.0 -9999.0 -9999.0 -9999.0 -9999.0 -9999.0 -9999.0 -9999.0 -9999.0 -9999.0 -9999.0 -9999.0 -9999.0 -9999.0 -9999.0 -9999.0 -9999.0 -9999.0 -9999.0 -9999.0 -9999.0 -9999.0 -9999.0 -9999.0 -9999.0 -9999.0 -9999.0 -9999.0 -9999.0 -9999.0 -9999.0 -9999.0 -9999.0 -9999.0 -9999.0 -9999.0 -9999.0 -9999.0 -9999.0 -9999.0 -9999.0 -9999.0 -9999.0 -9999.0 -9999.0 -9999.0 -9999.0 -9999.0 -9999.0 -9999.0 -9999.0 -9999.0 -9999.0 -9999.0 -9999.0 -9999.0 -9999.0 -9999.0 -9999.0 -9999.0 -9999.0 -9999.0 -9999.0 -9999.0 -9999.0 -9999.0 -9999.0 -9999.0 -9999.0 -9999.0 -9999.0 -9999.0 -9999.0 -9999.0 -9999.0 -9999.0 -9999.0 -9999.0 -9999.0 -9999.0 -9999.0 -9999.0 -9999.0 -9999.0 -9999.0 -9999.0 -9999.0 -9999.0 -9999.0 113.1 165.3 204.1 233.6 252.5 290.3 381.7 405.6 369.3 445.7 450.0 425.9 342.3 416.3 386.0 315.1 312.0 297.6 300.2 259.0 250.2 238.1 225.7 226.6 225.5 238.8 240.6 240.2 231.9 234.6 242.4 240.7 237.2 219.5 231.8 265.8 282.8 281.1 331.8 376.1 365.4 441.3 448.5 512.4 444.1 394.8 489.2 533.2 562.7 559.5 484.5 525.5 594.4 646.8 548.0 646.3 662.6 629.8 676.6 712.1 703.7 720.4 736.2 686.5 613.4 482.4 479.3 616.5 736.9 831.9 806.9 714.0 614.5 528.9 431.9 433.9 416.4 562.0 678.3 794.6 865.0 792.1 708.7 691.8 752.1 729.4 578.5 447.6 391.4 322.3 255.8 298.8 354.1 427.0 361.3 402.2 493.7 424.9 329.9 240.6 269.9 433.1 527.0 435.7 346.4 287.8 283.4 336.2 280.1 231.2 255.3 352.2 378.9 445.6 519.8 428.2 309.9 331.6 335.0 294.1 292.0 349.2 386.5 389.0 373.4 290.6 193.0 143.0 121.9 114.2 96.0 88.5 90.5 93.0 137.3 143.3 129.1 119.2 132.6 119.8 144.2 117.5 103.8 106.6 118.9 79.0 113.0 98.6 90.5 106.1 71.5 62.2 70.9 91.4 111.9 86.0 71.3 69.8 82.4 91.6 76.4 69.3 92.5 108.7 115.7 113.5 103.0 118.2 133.5 158.1 173.9 199.8 182.2 195.6 213.1 204.7 164.4 115.1 109.3 101.1 129.7 182.2 198.7 197.9 195.6 187.9 185.4 177.4 174.0 168.6 160.1 156.1 158.1 159.6 136.3 108.5 95.3 90.4 83.8 -9999.0 -9999.0 -9999.0 -9999.0 -9999.0 -9999.0 -9999.0 -9999.0 -9999.0 -9999.0 -9999.0 -9999.0 -9999.0 -9999.0 -9999.0 -9999.0 -9999.0 -9999.0
-9999.0 -9999.0 -9999.0 -9999.0 -9999.0 -9999.0 -9999.0 -9999.0 -9999.0 -9999.0 -9999.0 -9999.0 -9999.0 -9999.0 -9999.0 -9999.0 -9999.0 -9999.0 -9999.0 -9999.0 -9999.0 -9999.0 -9999.0 -9999.0 -9999.0 -9999.0 -9999.0 -9999.0 -9999.0 -9999.0 -9999.0 -9999.0 -9999.0 -9999.0 -9999.0 -9999.0 -9999.0 -9999.0 -9999.0 -9999.0 -9999.0 -9999.0 -9999.0 -9999.0 -9999.0 -9999.0 -9999.0 -9999.0 -9999.0 -9999.0 -9999.0 -9999.0 -9999.0 -9999.0 -9999.0 -9999.0 -9999.0 -9999.0 -9999.0 -9999.0 -9999.0 -9999.0 -9999.0 -9999.0 -9999.0 -9999.0 -9999.0 -9999.0 -9999.0 -9999.0 -9999.0 -9999.0 -9999.0 -9999.0 -9999.0 -9999.0 -9999.0 -9999.0 -9999.0 -9999.0 -9999.0 -9999.0 -9999.0 -9999.0 -9999.0 -9999.0 -9999.0 -9999.0 -9999.0 -9999.0 -9999.0 -9999.0 -9999.0 -9999.0 -9999.0 -9999.0 -9999.0 -9999.0 -9999.0 -9999.0 -9999.0 -9999.0 -9999.0 -9999.0 -9999.0 -9999.0 -9999.0 -9999.0 -9999.0 -9999.0 -9999.0 -9999.0 99.4 158.9 176.3 189.5 221.5 242.0 284.2 276.1 279.2 307.4 310.3 316.3 280.3 300.5 262.6 237.9 222.5 224.9 225.6 214.7 220.2 213.6 198.7 201.7 200.7 206.8 204.1 202.5 204.9 211.5 217.7 213.3 214.6 203.8 195.3 203.0 219.7 232.2 260.7 273.0 289.4 316.3 355.0 443.7 418.7 328.4 387.5 461.1 469.8 430.2 402.6 457.6 513.0 501.3 500.2 574.8 563.8 598.1 618.6 642.2 651.2 651.9 678.8 637.4 520.3 429.3 435.8 509.6 570.8 670.5 781.7 814.4 773.3 677.8 581.6 531.2 409.2 364.0 461.8 648.0 792.8 775.3 712.3 650.7 671.1 665.9 599.3 532.8 477.6 402.3 309.3 227.9 259.0 315.3 287.9 384.7 438.7 355.1 272.2 221.5 276.3 436.7 510.3 470.9 410.7 332.8 267.9 307.3 254.6 206.8 203.9 304.5 374.6 496.8 499.8 426.2 333.5 275.6 335.1 308.7 277.7 319.2 349.1 350.4 317.2 253.1 197.8 173.1 136.0 118.1 107.5 93.5 82.4 96.5 128.9 120.2 102.2 124.6 133.6 115.8 121.1 144.7 120.4 96.3 110.6 79.0 142.6 111.5 89.5 69.4 59.9 54.1 68.0 82.8 102.4 103.3 79.5 66.6 67.9 81.8 76.4 72.4 91.2 109.4 121.9 105.2 93.9 131.7 146.0 127.9 151.9 214.6 205.0 163.7 152.3 139.2 124.5 107.6 96.6 112.8 173.3 186.4 181.4 176.2 167.7 161.3 156.0 150.6 146.1 145.6 150.1 154.6 156.6 138.1 103.6 91.9 88.2 84.0 79.8 -9999.0 -9999.0 -9999.0 -9999.0 -9999.0 -9999.0 -9999.0 -9999.0 -9999.0 -9999.0 -9999.0 -9999.0 -9999.0 -9999.0 -9999.0 -9999.0 -9999.0 -9999.0
-9999.0 -9999.0 -9999.0 -9999.0 -9999.0 -9999.0 -9999.0 -9999.0 -9999.0 -9999.0 -9999.0 -9999.0 -9999.0 -9999.0 -9999.0 -9999.0 -9999.0 -9999.0 -9999.0 -9999.0 -9999.0 -9999.0 -9999.0 -9999.0 -9999.0 -9999.0 -9999.0 -9999.0 -9999.0 -9999.0 -9999.0 -9999.0 -9999.0 -9999.0 -9999.0 -9999.0 -9999.0 -9999.0 -9999.0 -9999.0 -9999.0 -9999.0 -9999.0 -9999.0 -9999.0 -9999.0 -9999.0 -9999.0 -9999.0 -9999.0 -9999.0 -9999.0 -9999.0 -9999.0 -9999.0 -9999.0 -9999.0 -9999.0 -9999.0 -9999.0 -9999.0 -9999.0 -9999.0 -9999.0 -9999.0 -9999.0 -9999.0 -9999.0 -9999.0 -9999.0 -9999.0 -9999.0 -9999.0 -9999.0 -9999.0 -9999.0 -9999.0 -9999.0 -9999.0 -9999.0 -9999.0 -9999.0 -9999.0 -9999.0 -9999.0 -9999.0 -9999.0 -9999.0 -9999.0 -9999.0 -9999.0 -9999.0 -9999.0 -9999.0 -9999.0 -9999.0 -9999.0 -9999.0 -9999.0 -9999.0 -9999.0 -9999.0 -9999.0 -9999.0 -9999.0 -9999.0 -9999.0 -9999.0 -9999.0 -9999.0 -9999.0 -9999.0 91.0 125.5 140.5 158.3 165.6 165.9 169.1 182.4 180.4 191.4 193.1 198.5 206.2 206.9 190.2 184.2 177.8 183.4 187.8 185.9 193.4 189.1 178.3 181.1 182.0 186.7 184.6 182.0 186.6 191.5 197.6 194.6 192.3 188.3 178.7 179.8 187.8 204.4 224.8 229.1 249.0 261.1 283.5 316.7 319.1 286.9 341.0 383.7 391.1 329.7 388.7 428.5 444.6 416.7 501.3 524.7 503.9 564.6 576.5 603.9 603.5 613.9 674.8 644.3 521.0 420.8 418.4 507.6 543.6 581.3 741.9 717.1 576.8 538.7 540.2 531.6 458.7 334.8 415.4 606.0 766.4 803.2 732.5 620.0 621.1 658.6 607.7 496.2 411.7 339.1 276.8 220.8 203.8 235.1 279.9 405.8 465.5 470.3 364.0 229.7 299.7 401.7 447.0 435.3 397.0 393.4 329.4 236.9 242.0 201.7 191.4 278.5 345.2 325.1 399.5 392.5 324.6 239.8 303.5 298.0 242.3 270.5 301.0 304.1 287.7 218.2 167.4 148.6 155.6 130.5 126.8 117.3 85.9 76.4 95.1 112.1 94.3 103.8 111.3 115.1 96.3 133.9 122.0 92.1 111.3 79.0 181.2 117.1 72.3 61.3 55.7 51.3 62.5 95.8 104.4 78.9 70.1 61.3 86.4 89.0 64.7 79.0 115.8 132.5 138.6 113.0 90.4 122.3 144.4 112.0 158.8 216.4 215.4 209.8 187.6 168.9 149.3 124.3 103.3 95.5 149.5 164.1 157.6 152.0 148.5 144.9 135.2 122.1 120.4 120.3 123.5 128.2 120.5 101.1 91.8 89.4 85.3 81.6 77.6 75.1 68.1 -9999.0 -9999.0 -9999.0 -9999.0 -9999.0 -9999.0 -9999.0 -9999.0 -9999.0 -9999.0 -9999.0 -9999.0 -9999.0 -9999.0 -9999.0 -9999.0
-9999.0 -9999.0 -9999.0 -9999.0 -9999.0 -9999.0 -9999.0 -9999.0 -9999.0 -9999.0 -9999.0 -9999.0 -9999.0 -9999.0 -9999.0 -9999.0 -9999.0 -9999.0 -9999.0 -9999.0 -9999.0 -9999.0 -9999.0 -9999.0 -9999.0 -9999.0 -9999.0 -9999.0 -9999.0 -9999.0 -9999.0 -9999.0 -9999.0 -9999.0 -9999.0 -9999.0 -9999.0 -9999.0 -9999.0 -9999.0 -9999.0 -9999.0 -9999.0 -9999.0 -9999.0 -9999.0 -9999.0 -9999.0 -9999.0 -9999.0 -9999.0 -9999.0 -9999.0 -9999.0 -9999.0 -9999.0 -9999.0 -9999.0 -9999.0 -9999.0 -9999.0 -9999.0 -9999.0 -9999.0 -9999.0 -9999.0 -9999.0 -9999.0 -9999.0 -9999.0 -9999.0 -9999.0 -9999.0 -9999.0 -9999.0 -9999.0 -9999.0 -9999.0 -9999.0 -9999.0 -9999.0 -9999.0 -9999.0 -9999.0 -9999.0 -9999.0 -9999.0 -9999.0 -9999.0 -9999.0 -9999.0 -9999.0 -9999.0 -9999.0 -9999.0 -9999.0 -9999.0 -9999.0 -9999.0 -9999.0 -9999.0 -9999.0 -9999.0 -9999.0 -9999.0 -9999.0 -9999.0 -9999.0 -9999.0 -9999.0 -9999.0 -9999.0 -9999.0 -9999.0 -9999.0 82.7 89.0 86.3 75.9 87.3 101.9 108.5 119.9 147.5 162.3 163.0 155.4 147.3 148.2 154.9 156.9 162.0 168.7 166.9 158.5 158.5 166.7 168.8 168.1 166.4 171.1 177.3 181.2 180.1 174.6 174.5 168.6 158.3 172.1 185.8 196.8 192.0 210.5 223.6 236.6 247.5 249.6 258.1 277.8 285.5 277.2 303.7 333.6 363.1 355.2 417.2 446.1 484.1 447.0 509.5 539.5 534.0 580.3 644.9 641.6 612.9 534.4 422.5 423.4 524.5 609.3 656.4 701.9 787.1 569.9 441.2 373.3 377.1 323.3 284.2 414.4 574.0 665.0 675.5 602.6 563.6 549.9 495.4 450.2 395.2 315.3 271.1 256.1 247.9 207.5 227.3 320.0 466.4 459.4 487.7 457.8 319.7 238.5 290.6 391.3 431.7 388.1 342.4 353.9 295.0 204.3 186.1 210.0 293.7 374.2 302.8 258.1 336.6 281.0 215.9 281.0 274.1 227.7 215.2 230.7 246.9 248.4 205.3 158.9 132.3 154.8 156.4 158.0 117.9 93.1 77.9 75.8 92.9 82.4 85.4 95.9 114.0 93.9 106.5 129.4 100.8 89.4 79.0 113.7 77.4 62.1 50.0 42.3 40.7 68.4 86.8 101.8 105.6 69.7 66.8 119.9 73.2 70.9 112.7 134.9 135.8 131.3 92.5 100.4 100.9 104.1 125.8 194.0 216.9 205.6 205.3 193.9 197.9 189.6 150.2 114.0 97.5 91.9 127.6 144.8 147.5 140.9 138.2 112.5 105.1 107.3 108.5 110.8 112.1 98.3 93.0 91.8 85.8 82.9 78.5 77.3 -9999.0 -9999.0 -9999.0 -9999.0 -9999.0 -9999.0 -9999.0 -9999.0 -9999.0 -9999.0 -9999.0 -9999.0 -9999.0 -9999.0 -9999.0 -9999.0 -9999.0 -9999.0
-9999.0 -9999.0 -9999.0 -9999.0 -9999.0 -9999.0 -9999.0 -9999.0 -9999.0 -9999.0 -9999.0 -9999.0 -9999.0 -9999.0 -9999.0 -9999.0 -9999.0 -9999.0 -9999.0 -9999.0 -9999.0 -9999.0 -9999.0 -9999.0 -9999.0 -9999.0 -9999.0 -9999.0 -9999.0 -9999.0 -9999.0 -9999.0 -9999.0 -9999.0 -9999.0 -9999.0 -9999.0 -9999.0 -9999.0 -9999.0 -9999.0 -9999.0 -9999.0 -9999.0 -9999.0 -9999.0 -9999.0 -9999.0 -9999.0 -9999.0 -9999.0 -9999.0 -9999.0 -9999.0 -9999.0 -9999.0 -9999.0 -9999.0 -9999.0 -9999.0 -9999.0 -9999.0 -9999.0 -9999.0 -9999.0 -9999.0 -9999.0 -9999.0 -9999.0 -9999.0 -9999.0 -9999.0 -9999.0 -9999.0 -9999.0 -9999.0 -9999.0 -9999.0 -9999.0 -9999.0 -9999.0 -9999.0 -9999.0 -9999.0 -9999.0 -9999.0 -9999.0 -9999.0 -9999.0 -9999.0 -9999.0 -9999.0 -9999.0 -9999.0 -9999.0 -9999.0 -9999.0 -9999.0 -9999.0 -9999.0 -9999.0 -9999.0 -9999.0 -9999.0 -9999.0 -9999.0 -9999.0 -9999.0 -9999.0 -9999.0 -9999.0 -9999.0 -9999.0 -9999.0 -9999.0 -9999.0 -9999.0 -9999.0 54.6 57.2 59.5 72.8 95.7 113.4 121.4 123.3 115.6 115.7 131.0 136.5 136.1 144.5 149.1 149.6 140.5 143.7 149.9 152.6 153.2 153.1 158.1 162.6 165.9 165.6 161.2 162.7 157.7 148.9 166.1 184.6 187.9 167.1 177.7 195.2 203.4 198.8 208.4 234.5 224.5 238.7 254.5 276.2 282.7 292.7 313.7 337.6 378.7 381.9 409.2 452.9 430.7 502.7 581.7 600.1 587.7 513.6 392.9 383.6 523.7 609.2 597.2 664.3 659.7 751.0 556.3 406.7 336.4 276.7 257.3 327.1 429.3 510.2 577.1 559.0 505.4 480.7 513.4 430.9 374.2 329.9 304.4 337.3 346.3 335.2 236.9 209.9 292.8 419.7 426.4 443.3 433.8 331.0 253.2 205.5 330.3 401.7 386.3 349.1 307.4 310.6 219.3 173.4 228.3 272.7 276.8 293.2 242.2 241.4 263.1 197.8 239.9 226.9 183.3 201.6 214.7 178.6 213.7 196.9 165.1 126.8 118.3 151.2 161.8 122.6 115.3 76.9 71.6 81.0 78.1 92.0 104.2 119.1 124.5 87.4 100.7 124.6 96.9 79.0 86.9 68.4 53.2 39.4 37.7 66.2 88.0 85.5 80.7 75.7 62.9 56.1 68.1 56.6 81.1 106.9 114.8 109.1 113.9 69.9 81.4 122.8 140.7 163.2 210.0 215.7 209.3 200.9 181.8 157.5 180.3 186.0 171.8 139.8 103.4 79.9 118.2 132.4 111.5 115.5 97.7 99.4 102.3 105.6 111.1 108.7 96.8 96.6 93.9 85.9 84.1 -9999.0 -9999.0 -9999.0 -9999.0 -9999.0 -9999.0 -9999.0 -9999.0 -9999.0 -9999.0 -9999.0 -9999.0 -9999.0 -9999.0 -9999.0 -9999.0 -9999.0 -9999.0 -9999.0 -9999.0
-9999.0 -9999.0 -9999.0 -9999.0 -9999.0 -9999.0 -9999.0 -9999.0 -9999.0 -9999.0 -9999.0 -9999.0 -9999.0 -9999.0 -9999.0 -9999.0 -9999.0 -9999.0 -9999.0 -9999.0 -9999.0 -9999.0 -9999.0 -9999.0 -9999.0 -9999.0 -9999.0 -9999.0 -9999.0 -9999.0 -9999.0 -9999.0 -9999.0 -9999.0 -9999.0 -9999.0 -9999.0 -9999.0 -9999.0 -9999.0 -9999.0 -9999.0 -9999.0 -9999.0 -9999.0 -9999.0 -9999.0 -9999.0 -9999.0 -9999.0 -9999.0 -9999.0 -9999.0 -9999.0 -9999.0 -9999.0 -9999.0 -9999.0 -9999.0 -9999.0 -9999.0 -9999.0 -9999.0 -9999.0 -9999.0 -9999.0 -9999.0 -9999.0 -9999.0 -9999.0 -9999.0 -9999.0 -9999.0 -9999.0 -9999.0 -9999.0 -9999.0 -9999.0 -9999.0 -9999.0 -9999.0 -9999.0 -9999.0 -9999.0 -9999.0 -9999.0 -9999.0 -9999.0 -9999.0 -9999.0 -9999.0 -9999.0 -9999.0 -9999.0 -9999.0 -9999.0 -9999.0 -9999.0 -9999.0 -9999.0 -9999.0 -9999.0 -9999.0 -9999.0 -9999.0 -9999.0 -9999.0 -9999.0 -9999.0 -9999.0 -9999.0 -9999.0 -9999.0 -9999.0 -9999.0 -9999.0 -9999.0 -9999.0 -9999.0 51.9 55.6 58.0 67.6 62.6 70.2 86.6 82.4 96.1 114.8 120.3 119.3 130.0 135.1 130.1 126.7 132.8 136.1 137.5 139.8 143.5 146.7 150.9 153.6 154.3 150.9 155.3 148.6 142.8 154.9 179.6 184.7 152.7 164.4 177.3 176.8 182.1 203.5 177.2 199.6 203.8 218.8 233.8 261.1 276.2 267.8 300.3 331.8 312.3 340.9 348.0 391.0 436.6 484.0 523.1 522.9 458.3 324.5 448.2 553.2 556.4 520.5 617.7 634.8 592.9 613.5 513.1 411.0 311.7 243.2 340.7 463.0 534.8 613.7 561.6 457.9 487.4 529.8 468.5 400.7 370.4 423.6 490.8 472.3 338.5 219.5 267.3 344.6 399.9 346.1 406.6 406.5 392.2 323.4 179.4 269.8 339.2 356.2 325.1 283.2 302.5 255.7 175.8 173.5 210.5 192.9 178.3 195.4 255.6 232.4 186.7 185.0 218.6 183.6 156.8 167.4 179.6 139.0 138.5 155.1 124.2 105.6 131.9 160.9 164.4 117.2 91.7 69.5 70.9 99.8 145.0 131.7 130.7 123.9 84.9 72.5 88.0 77.7 62.6 51.7 50.6 44.5 30.0 45.5 51.8 56.3 57.2 58.0 56.9 56.2 53.1 -9999.0 -9999.0 -9999.0 -9999.0 -9999.0 -9999.0 75.2 61.7 99.2 122.2 132.4 144.9 166.2 188.9 191.9 172.2 188.6 158.8 145.4 160.6 149.1 131.1 118.5 89.3 83.1 89.6 81.7 86.3 91.9 97.6 101.5 112.3 121.5 118.2 106.6 108.2 99.7 90.6 -9999.0 -9999.0 -9999.0 -9999.0 -9999.0 -9999.0 -9999.0 -9999.0 -9999.0 -9999.0 -9999.0 -9999.0 -9999.0 -9999.0 -9999.0 -9999.0 -9999.0 -9999.0 -9999.0 -9999.0 -9999.0
-9999.0 -9999.0 -9999.0 -9999.0 -9999.0 -9999.0 -9999.0 -9999.0 -9999.0 -9999.0 -9999.0 -9999.0 -9999.0 -9999.0 -9999.0 -9999.0 -9999.0 -9999.0 -9999.0 -9999.0 -9999.0 -9999.0 -9999.0 -9999.0 -9999.0 -9999.0 -9999.0 -9999.0 -9999.0 -9999.0 -9999.0 -9999.0 -9999.0 -9999.0 -9999.0 -9999.0 -9999.0 -9999.0 -9999.0 -9999.0 -9999.0 -9999.0 -9999.0 -9999.0 -9999.0 -9999.0 -9999.0 -9999.0 -9999.0 -9999.0 -9999.0 -9999.0 -9999.0 -9999.0 -9999.0 -9999.0 -9999.0 -9999.0 -9999.0 -9999.0 -9999.0 -9999.0 -9999.0 -9999.0 -9999.0 -9999.0 -9999.0 -9999.0 -9999.0 -9999.0 -9999.0 -9999.0 -9999.0 -9999.0 -9999.0 -9999.0 -9999.0 -9999.0 -9999.0 -9999.0 -9999.0 -9999.0 -9999.0 -9999.0 -9999.0 -9999.0 -9999.0 -9999.0 -9999.0 -9999.0 -9999.0 -9999.0 -9999.0 -9999.0 -9999.0 -9999.0 -9999.0 -9999.0 -9999.0 -9999.0 -9999.0 -9999.0 -9999.0 -9999.0 -9999.0 -9999.0 -9999.0 -9999.0 -9999.0 -9999.0 -9999.0 -9999.0 -9999.0 -9999.0 -9999.0 -9999.0 -9999.0 -9999.0 -9999.0 -9999.0 -9999.0 -9999.0 -9999.0 55.9 54.3 57.3 71.6 84.8 96.8 100.3 108.4 117.0 118.9 116.0 113.5 119.9 121.3 126.4 131.0 132.1 137.5 142.0 143.4 144.2 143.8 149.2 137.1 135.5 136.6 152.4 150.1 140.4 149.7 147.2 167.9 176.0 160.1 164.0 168.5 182.5 200.5 205.5 218.6 235.9 263.7 289.8 291.2 262.9 282.6 297.3 346.1 390.9 415.0 425.6 431.5 388.3 295.0 431.9 444.2 455.9 504.6 568.7 561.8 533.2 511.7 511.8 473.7 361.7 240.0 341.7 423.3 520.6 588.7 505.6 434.7 460.3 504.1 464.0 446.9 455.7 532.5 495.9 392.4 298.5 199.2 226.5 336.0 391.6 321.8 376.2 376.0 332.2 301.5 171.7 214.2 274.9 316.7 309.4 278.9 243.8 242.7 210.5 143.6 157.3 155.5 152.4 165.2 209.6 197.5 166.2 153.9 169.3 175.8 143.3 127.1 116.4 110.3 97.1 108.5 132.8 114.9 98.9 146.1 180.3 142.7 94.5 67.6 65.2 90.6 93.1 83.7 77.0 73.1 66.3 57.9 61.3 57.7 53.7 49.7 39.6 29.5 43.2 47.8 -9999.0 -9999.0 -9999.0 -9999.0 -9999.0 -9999.0 -9999.0 -9999.0 -9999.0 -9999.0 -9999.0 -9999.0 -9999.0 -9999.0 -9999.0 -9999.0 109.2 113.0 119.6 136.5 143.9 161.2 143.5 140.2 142.2 120.1 120.1 118.8 107.5 96.8 81.7 69.6 69.0 88.8 92.4 95.5 100.5 106.2 113.4 127.1 125.9 115.2 108.1 96.7 -9999.0 -9999.0 -9999.0 -9999.0 -9999.0 -9999.0 -9999.0 -9999.0 -9999.0 -9999.0 -9999.0 -9999.0 -9999.0 -9999.0 -9999.0 -9999.0 -9999.0 -9999.0 -9999.0 -9999.0 -9999.0 -9999.0
-9999.0 -9999.0 -9999.0 -9999.0 -9999.0 -9999.0 -9999.0 -9999.0 -9999.0 -9999.0 -9999.0 -9999.0 -9999.0 -9999.0 -9999.0 -9999.0 -9999.0 -9999.0 -9999.0 -9999.0 -9999.0 -9999.0 -9999.0 -9999.0 -9999.0 -9999.0 -9999.0 -9999.0 -9999.0 -9999.0 -9999.0 -9999.0 -9999.0 -9999.0 -9999.0 -9999.0 -9999.0 -9999.0 -9999.0 -9999.0 -9999.0 -9999.0 -9999.0 -9999.0 -9999.0 -9999.0 -9999.0 -9999.0 -9999.0 -9999.0 -9999.0 -9999.0 -9999.0 -9999.0 -9999.0 -9999.0 -9999.0 -9999.0 -9999.0 -9999.0 -9999.0 -9999.0 -9999.0 -9999.0 -9999.0 -9999.0 -9999.0 -9999.0 -9999.0 -9999.0 -9999.0 -9999.0 -9999.0 -9999.0 -9999.0 -9999.0 -9999.0 -9999.0 -9999.0 -9999.0 -9999.0 -9999.0 -9999.0 -9999.0 -9999.0 -9999.0 -9999.0 -9999.0 -9999.0 -9999.0 -9999.0 -9999.0 -9999.0 -9999.0 -9999.0 -9999.0 -9999.0 -9999.0 -9999.0 -9999.0 -9999.0 -9999.0 -9999.0 -9999.0 -9999.0 -9999.0 -9999.0 -9999.0 -9999.0 -9999.0 -9999.0 -9999.0 -9999.0 -9999.0 -9999.0 -9999.0 -9999.0 -9999.0 -9999.0 -9999.0 -9999.0 -9999.0 -9999.0 -9999.0 52.6 59.5 66.2 75.2 84.3 87.9 96.1 104.9 100.2 105.4 105.6 105.6 111.9 118.9 120.6 123.3 132.0 135.7 131.5 134.1 142.7 141.7 128.4 126.5 125.9 118.4 117.5 126.4 124.5 134.9 135.7 134.6 146.4 157.0 168.1 185.4 214.2 227.3 235.3 243.3 258.5 263.0 215.7 238.6 282.3 328.8 325.0 328.5 321.6 328.0 317.8 275.9 284.2 373.5 371.7 419.1 451.9 507.2 485.2 538.4 458.0 397.3 335.2 323.5 226.8 293.6 402.5 518.7 551.3 464.1 419.0 435.9 499.6 453.7 453.7 480.9 547.2 547.5 463.6 370.8 300.2 190.6 257.6 391.8 360.6 299.3 348.3 279.3 264.2 177.1 181.8 245.8 267.7 279.7 265.1 243.2 204.4 189.2 175.2 125.2 136.3 128.8 144.9 186.8 217.6 161.1 136.7 147.7 181.7 146.9 117.5 126.1 103.2 87.1 89.8 132.8 140.0 93.0 110.3 151.7 138.0 94.5 63.3 62.1 66.5 65.8 63.3 62.8 60.7 57.9 56.7 54.2 53.4 49.7 -9999.0 -9999.0 -9999.0 -9999.0 -9999.0 -9999.0 -9999.0 -9999.0 -9999.0 -9999.0 -9999.0 -9999.0 -9999.0 -9999.0 -9999.0 -9999.0 -9999.0 -9999.0 -9999.0 -9999.0 -9999.0 -9999.0 104.3 106.1 107.8 111.1 115.9 118.7 121.9 114.6 95.8 98.1 99.7 91.3 87.4 86.8 79.2 60.6 83.6 88.9 93.8 99.6 104.0 106.5 114.0 113.6 108.3 -9999.0 -9999.0 -9999.0 -9999.0 -9999.0 -9999.0 -9999.0 -9999.0 -9999.0 -9999.0 -9999.0 -9999.0 -9999.0 -9999.0 -9999.0 -9999.0 -9999.0 -9999.0 -9999.0 -9999.0 -9999.0 -9999.0 -9999.0 -9999.0
-9999.0 -9999.0 -9999.0 -9999.0 -9999.0 -9999.0 -9999.0 -9999.0 -9999.0 -9999.0 -9999.0 -9999.0 -9999.0 -9999.0 -9999.0 -9999.0 -9999.0 -9999.0 -9999.0 -9999.0 -9999.0 -9999.0 -9999.0 -9999.0 -9999.0 -9999.0 -9999.0 -9999.0 -9999.0 -9999.0 -9999.0 -9999.0 -9999.0 -9999.0 -9999.0 -9999.0 -9999.0 -9999.0 -9999.0 -9999.0 -9999.0 -9999.0 -9999.0 -9999.0 -9999.0 -9999.0 -9999.0 -9999.0 -9999.0 -9999.0 -9999.0 -9999.0 -9999.0 -9999.0 -9999.0 -9999.0 -9999.0 -9999.0 -9999.0 -9999.0 -9999.0 -9999.0 -9999.0 -9999.0 -9999.0 -9999.0 -9999.0 -9999.0 -9999.0 -9999.0 -9999.0 -9999.0 -9999.0 -9999.0 -9999.0 -9999.0 -9999.0 -9999.0 -9999.0 -9999.0 -9999.0 -9999.0 -9999.0 -9999.0 -9999.0 -9999.0 -9999.0 -9999.0 -9999.0 -9999.0 -9999.0 -9999.0 -9999.0 -9999.0 -9999.0 -9999.0 -9999.0 -9999.0 -9999.0 -9999.0 -9999.0 -9999.0 -9999.0 -9999.0 -9999.0 -9999.0 -9999.0 -9999.0 -9999.0 -9999.0 -9999.0 -9999.0 -9999.0 -9999.0 -9999.0 -9999.0 -9999.0 -9999.0 -9999.0 -9999.0 -9999.0 -9999.0 -9999.0 -9999.0 -9999.0 57.9 60.3 66.0 69.8 80.1 88.1 91.6 88.7 94.2 90.9 100.7 105.8 110.4 114.2 119.1 126.5 122.9 125.3 135.2 138.5 134.0 119.1 115.8 117.0 111.1 106.9 111.3 117.8 139.2 168.7 180.7 168.3 202.5 211.9 203.4 220.7 228.3 223.0 247.4 213.8 199.7 228.9 258.8 304.8 297.2 263.7 235.4 235.5 223.4 221.2 254.0 303.8 324.4 352.9 355.7 386.4 431.9 430.8 492.3 492.3 495.7 416.3 349.7 304.3 215.8 314.3 458.3 504.2 471.2 384.7 445.3 484.2 460.6 407.0 434.1 457.0 465.7 421.0 333.2 251.3 168.1 199.3 325.2 308.2 265.2 318.7 281.6 229.5 156.3 146.4 201.7 233.3 243.2 226.9 199.9 194.7 159.7 144.0 120.9 108.2 125.7 161.7 211.2 212.3 172.2 128.4 138.1 185.0 178.4 123.0 104.3 98.8 99.6 78.1 117.6 124.5 84.4 76.7 84.8 76.2 65.4 54.6 59.1 59.0 57.8 58.2 57.3 56.1 -9999.0 -9999.0 -9999.0 -9999.0 -9999.0 -9999.0 -9999.0 -9999.0 -9999.0 -9999.0 -9999.0 -9999.0 -9999.0 -9999.0 -9999.0 -9999.0 -9999.0 -9999.0 -9999.0 -9999.0 -9999.0 -9999.0 -9999.0 -9999.0 -9999.0 -9999.0 -9999.0 96.3 95.5 94.6 93.5 98.0 99.3 96.3 82.7 65.3 90.8 90.3 90.4 89.6 84.2 59.1 65.0 78.6 80.5 85.8 93.9 99.5 104.4 105.0 101.4 -9999.0 -9999.0 -9999.0 -9999.0 -9999.0 -9999.0 -9999.0 -9999.0 -9999.0 -9999.0 -9999.0 -9999.0 -9999.0 -9999.0 -9999.0 -9999.0 -9999.0 -9999.0 -9999.0 -9999.0 -9999.0 -9999.0 -9999.0 -9999.0 -9999.0
-9999.0 -9999.0 -9999.0 -9999.0 -9999.0 -9999.0 -9999.0 -9999.0 -9999.0 -9999.0 -9999.0 -9999.0 -9999.0 -9999.0 -9999.0 -9999.0 -9999.0 -9999.0 -9999.0 -9999.0 -9999.0 -9999.0 -9999.0 -9999.0 -9999.0 -9999.0 -9999.0 -9999.0 -9999.0 -9999.0 -9999.0 -9999.0 -9999.0 -9999.0 -9999.0 -9999.0 -9999.0 -9999.0 -9999.0 -9999.0 -9999.0 -9999.0 -9999.0 -9999.0 -9999.0 -9999.0 -9999.0 -9999.0 -9999.0 -9999.0 -9999.0 -9999.0 -9999.0 -9999.0 -9999.0 -9999.0 -9999.0 -9999.0 -9999.0 -9999.0 -9999.0 -9999.0 -9999.0 -9999.0 -9999.0 -9999.0 -9999.0 -9999.0 -9999.0 -9999.0 -9999.0 -9999.0 -9999.0 -9999.0 -9999.0 -9999.0 -9999.0 -9999.0 -9999.0 -9999.0 -9999.0 -9999.0 -9999.0 -9999.0 -9999.0 -9999.0 -9999.0 -9999.0 -9999.0 -9999.0 -9999.0 -9999.0 -9999.0 -9999.0 -9999.0 -9999.0 -9999.0 -9999.0 -9999.0 -9999.0 -9999.0 -9999.0 -9999.0 -9999.0 -9999.0 -9999.0 -9999.0 -9999.0 -9999.0 -9999.0 -9999.0 -9999.0 -9999.0 -9999.0 -9999.0 -9999.0 -9999.0 -9999.0 -9999.0 -9999.0 -9999.0 -9999.0 -9999.0 -9999.0 -9999.0 57.0 56.1 57.4 65.9 69.8 76.6 75.1 80.3 80.3 90.1 98.1 106.5 109.5 106.1 106.9 112.1 107.4 120.2 125.9 125.4 114.5 109.4 105.8 109.6 105.3 133.0 179.7 165.8 148.1 170.3 186.9 208.4 220.0 235.8 248.6 198.6 189.9 210.1 211.9 174.3 219.0 208.9 225.2 264.0 244.7 201.1 189.9 185.8 207.4 232.4 278.5 300.6 296.2 280.9 278.4 325.7 336.2 397.4 400.1 416.4 442.9 434.5 388.2 356.4 237.0 254.0 417.1 438.1 459.2 383.4 402.9 463.8 474.3 384.7 413.3 411.5 385.2 377.7 298.0 209.0 149.6 223.0 325.7 310.8 229.8 308.7 273.9 214.2 165.8 129.3 164.6 183.1 196.3 184.0 160.9 152.0 160.6 136.9 117.3 102.0 119.2 166.6 184.8 187.8 183.6 130.4 114.6 142.0 160.3 157.5 111.0 85.4 95.1 73.3 83.4 74.9 66.2 64.5 62.6 58.4 55.2 51.9 56.5 -9999.0 -9999.0 -9999.0 -9999.0 -9999.0 -9999.0 -9999.0 -9999.0 -9999.0 -9999.0 -9999.0 -9999.0 -9999.0 -9999.0 -9999.0 -9999.0 -9999.0 -9999.0 -9999.0 -9999.0 -9999.0 -9999.0 -9999.0 -9999.0 -9999.0 -9999.0 -9999.0 -9999.0 -9999.0 -9999.0 -9999.0 -9999.0 -9999.0 -9999.0 87.3 83.0 85.2 87.1 88.8 -9999.0 -9999.0 -9999.0 -9999.0 -9999.0 88.0 70.4 51.1 67.7 71.7 74.0 74.9 79.2 85.7 92.6 83.6 -9999.0 -9999.0 -9999.0 -9999.0 -9999.0 -9999.0 -9999.0 -9999.0 -9999.0 -9999.0 -9999.0 -9999.0 -9999.0 -9999.0 -9999.0 -9999.0 -9999.0 -9999.0 -9999.0 -9999.0 -9999.0 -9999.0 -9999.0 -9999.0 -9999.0 -9999.0
-9999.0 -9999.0 -9999.0 -9999.0 -9999.0 -9999.0 -9999.0 -9999.0 -9999.0 -9999.0 -9999.0 -9999.0 -9999.0 -9999.0 -9999.0 -9999.0 -9999.0 -9999.0 -9999.0 -9999.0 -9999.0 -9999.0 -9999.0 -9999.0 -9999.0 -9999.0 -9999.0 -9999.0 -9999.0 -9999.0 -9999.0 -9999.0 -9999.0 -9999.0 -9999.0 -9999.0 -9999.0 -9999.0 -9999.0 -9999.0 -9999.0 -9999.0 -9999.0 -9999.0 -9999.0 -9999.0 -9999.0 -9999.0 -9999.0 -9999.0 -9999.0 -9999.0 -9999.0 -9999.0 -9999.0 -9999.0 -9999.0 -9999.0 -9999.0 -9999.0 -9999.0 -9999.0 -9999.0 -9999.0 -9999.0 -9999.0 -9999.0 -9999.0 -9999.0 -9999.0 -9999.0 -9999.0 -9999.0 -9999.0 -9999.0 -9999.0 -9999.0 -9999.0 -9999.0 -9999.0 -9999.0 -9999.0 -9999.0 -9999.0 -9999.0 -9999.0 -9999.0 -9999.0 -9999.0 -9999.0 -9999.0 -9999.0 -9999.0 -9999.0 -9999.0 -9999.0 -9999.0 -9999.0 -9999.0 -9999.0 -9999.0 -9999.0 -9999.0 -9999.0 -9999.0 -9999.0 -9999.0 -9999.0 -9999.0 -9999.0 -9999.0 -9999.0 -9999.0 -9999.0 -9999.0 -9999.0 -9999.0 -9999.0 -9999.0 -9999.0 -9999.0 -9999.0 -9999.0 -9999.0 -9999.0 -9999.0 52.8 58.8 60.3 63.3 61.4 67.1 72.1 80.8 88.5 97.8 99.7 93.6 94.6 100.5 104.9 97.0 102.8 94.2 94.4 98.2 101.3 98.6 100.3 116.4 177.7 212.8 215.2 188.5 215.9 217.2 233.0 227.1 240.9 222.2 166.3 176.1 185.3 153.5 179.9 184.9 169.1 186.2 180.6 173.2 172.3 184.8 224.2 253.0 266.6 299.7 267.3 236.7 230.1 245.3 262.3 288.8 327.6 330.4 334.2 375.2 355.4 334.7 277.1 215.7 211.4 338.0 368.5 422.3 389.2 327.6 415.6 439.1 360.4 369.5 364.7 321.8 341.0 326.1 265.6 166.8 176.7 213.0 306.0 229.6 229.3 248.9 199.3 144.0 119.4 131.5 157.0 148.8 178.8 158.9 135.3 143.3 150.1 112.7 94.6 123.5 167.9 145.9 170.4 165.5 124.1 103.7 115.7 131.7 133.8 113.1 79.0 70.4 67.5 60.5 62.3 60.9 59.1 58.6 56.0 -9999.0 -9999.0 -9999.0 -9999.0 -9999.0 -9999.0 -9999.0 -9999.0 -9999.0 -9999.0 -9999.0 -9999.0 -9999.0 -9999.0 -9999.0 -9999.0 -9999.0 -9999.0 -9999.0 -9999.0 -9999.0 -9999.0 -9999.0 -9999.0 -9999.0 -9999.0 -9999.0 -9999.0 -9999.0 -9999.0 -9999.0 -9999.0 -9999.0 -9999.0 -9999.0 -9999.0 -9999.0 85.0 77.0 77.7 -9999.0 -9999.0 -9999.0 -9999.0 -9999.0 -9999.0 -9999.0 -9999.0 -9999.0 -9999.0 -9999.0 -9999.0 68.6 62.7 68.5 72.9 76.0 -9999.0 -9999.0 -9999.0 -9999.0 -9999.0 -9999.0 -9999.0 -9999.0 -9999.0 -9999.0 -9999.0 -9999.0 -9999.0 -9999.0 -9999.0 -9999.0 -9999.0 -9999.0 -9999.0 -9999.0 -9999.0 -9999.0 -9999.0 -9999.0 -9999.0 -9999.0 -9999.0
-9999.0 -9999.0 -9999.0 -9999.0 -9999.0 -9999.0 -9999.0 -9999.0 -9999.0 -9999.0 -9999.0 -9999.0 -9999.0 -9999.0 -9999.0 -9999.0 -9999.0 -9999.0 -9999.0 -9999.0 -9999.0 -9999.0 -9999.0 -9999.0 -9999.0 -9999.0 -9999.0 -9999.0 -9999.0 -9999.0 -9999.0 -9999.0 -9999.0 -9999.0 -9999.0 -9999.0 -9999.0 -9999.0 -9999.0 -9999.0 -9999.0 -9999.0 -9999.0 -9999.0 -9999.0 -9999.0 -9999.0 -9999.0 -9999.0 -9999.0 -9999.0 -9999.0 -9999.0 -9999.0 -9999.0 -9999.0 -9999.0 -9999.0 -9999.0 -9999.0 -9999.0 -9999.0 -9999.0 -9999.0 -9999.0 -9999.0 -9999.0 -9999.0 -9999.0 -9999.0 -9999.0 -9999.0 -9999.0 -9999.0 -9999.0 -9999.0 -9999.0 -9999.0 -9999.0 -9999.0 -9999.0 -9999.0 -9999.0 -9999.0 -9999.0 -9999.0 -9999.0 -9999.0 -9999.0 -9999.0 -9999.0 -9999.0 -9999.0 -9999.0 -9999.0 -9999.0 -9999.0 -9999.0 -9999.0 -9999.0 -9999.0 -9999.0 -9999.0 -9999.0 -9999.0 -9999.0 -9999.0 -9999.0 -9999.0 -9999.0 -9999.0 -9999.0 -9999.0 -9999.0 -9999.0 -9999.0 -9999.0 -9999.0 -9999.0 -9999.0 -9999.0 -9999.0 -9999.0 -9999.0 -9999.0 -9999.0 53.0 54.6 54.7 59.2 63.1 67.4 71.9 75.8 78.7 86.5 85.7 81.9 86.2 89.6 91.6 83.1 82.9 83.3 87.8 92.9 95.2 89.7 105.2 163.7 186.6 200.4 208.7 176.2 190.3 217.6 217.0 190.6 211.6 208.8 144.7 146.8 140.0 137.7 143.9 151.8 148.2 157.2 174.3 202.8 220.3 212.6 244.0 295.4 313.6 279.2 247.6 215.2 203.0 200.0 194.0 240.0 251.9 269.6 266.6 330.9 324.2 329.6 325.7 229.2 157.1 237.7 307.3 365.3 377.6 302.0 321.5 376.6 354.3 307.4 347.0 322.3 273.5 284.4 288.0 267.0 175.9 178.1 249.6 209.0 178.4 168.6 173.4 140.8 117.9 109.8 124.4 133.2 163.2 169.3 135.4 117.2 143.3 121.5 89.5 106.7 141.6 129.8 164.2 155.6 119.6 94.7 100.2 91.3 86.3 72.9 65.9 62.4 61.9 59.4 55.4 -9999.0 -9999.0 -9999.0 -9999.0 -9999.0 -9999.0 -9999.0 -9999.0 -9999.0 -9999.0 -9999.0 -9999.0 -9999.0 -9999.0 -9999.0 -9999.0 -9999.0 -9999.0 -9999.0 -9999.0 -9999.0 -9999.0 -9999.0 -9999.0 -9999.0 -9999.0 -9999.0 -9999.0 -9999.0 -9999.0 -9999.0 -9999.0 -9999.0 -9999.0 -9999.0 -9999.0 -9999.0 -9999.0 -9999.0 -9999.0 -9999.0 -9999.0 -9999.0 -9999.0 -9999.0 -9999.0 -9999.0 -9999.0 -9999.0 -9999.0 -9999.0 -9999.0 -9999.0 -9999.0 -9999.0 -9999.0 -9999.0 -9999.0 58.6 -9999.0 -9999.0 -9999.0 -9999.0 -9999.0 -9999.0 -9999.0 -9999.0 -9999.0 -9999.0 -9999.0 -9999.0 -9999.0 -9999.0 -9999.0 -9999.0 -9999.0 -9999.0 -9999.0 -9999.0 -9999.0 -9999.0 -9999.0 -9999.0 -9999.0 -9999.0 -9999.0 -9999.0 -9999.0
-9999.0 -9999.0 -9999.0 -9999.0 -9999.0 -9999.0 -9999.0 -9999.0 -9999.0 -9999.0 -9999.0 -9999.0 -9999.0 -9999.0 -9999.0 -9999.0 -9999.0 -9999.0 -9999.0 -9999.0 -9999.0 -9999.0 -9999.0 -9999.0 -9999.0 -9999.0 -9999.0 -9999.0 -9999.0 -9999.0 -9999.0 -9999.0 -9999.0 -9999.0 -9999.0 -9999.0 -9999.0 -9999.0 -9999.0 -9999.0 -9999.0 -9999.0 -9999.0 -9999.0 -9999.0 -9999.0 -9999.0 -9999.0 -9999.0 -9999.0 -9999.0 -9999.0 -9999.0 -9999.0 -9999.0 -9999.0 -9999.0 -9999.0 -9999.0 -9999.0 -9999.0 -9999.0 -9999.0 -9999.0 -9999.0 -9999.0 -9999.0 -9999.0 -9999.0 -9999.0 -9999.0 -9999.0 -9999.0 -9999.0 -9999.0 -9999.0 -9999.0 -9999.0 -9999.0 -9999.0 -9999.0 -9999.0 -9999.0 -9999.0 -9999.0 -9999.0 -9999.0 -9999.0 -9999.0 -9999.0 -9999.0 -9999.0 -9999.0 -9999.0 -9999.0 -9999.0 -9999.0 -9999.0 -9999.0 -9999.0 -9999.0 -9999.0 -9999.0 -9999.0 -9999.0 -9999.0 -9999.0 -9999.0 -9999.0 -9999.0 -9999.0 -9999.0 -9999.0 -9999.0 -9999.0 -9999.0 -9999.0 -9999.0 -9999.0 -9999.0 -9999.0 -9999.0 -9999.0 -9999.0 -9999.0 -9999.0 54.7 55.3 56.3 59.2 60.8 61.6 64.5 67.2 71.0 72.2 69.4 68.4 72.2 72.7 71.6 66.0 68.5 74.0 80.2 86.8 92.2 104.9 139.1 154.7 153.5 157.7 157.6 140.3 161.5 162.3 162.1 152.7 177.8 148.9 134.2 137.7 141.9 163.7 169.1 195.0 204.6 195.4 211.0 228.8 278.4 325.2 343.4 386.8 347.9 263.9 260.7 236.7 212.9 216.7 192.4 171.0 208.2 214.8 220.6 268.6 247.3 257.7 328.0 265.7 163.2 148.4 223.5 295.7 329.1 347.3 302.5 297.9 384.0 307.5 281.9 299.8 270.1 225.1 216.4 215.7 181.0 146.1 168.7 156.4 164.0 158.8 147.5 150.5 137.3 105.1 101.0 110.6 128.8 171.0 169.4 138.3 109.0 107.0 92.6 85.4 115.3 118.7 132.4 122.2 99.9 82.1 78.8 73.7 69.3 62.5 59.2 58.8 -9999.0 -9999.0 -9999.0 -9999.0 -9999.0 -9999.0 -9999.0 -9999.0 -9999.0 -9999.0 -9999.0 -9999.0 -9999.0 -9999.0 -9999.0 -9999.0 -9999.0 -9999.0 -9999.0 -9999.0 -9999.0 -9999.0 -9999.0 -9999.0 -9999.0 -9999.0 -9999.0 -9999.0 -9999.0 -9999.0 -9999.0 -9999.0 -9999.0 -9999.0 -9999.0 -9999.0 -9999.0 -9999.0 -9999.0 -9999.0 -9999.0 -9999.0 -9999.0 -9999.0 -9999.0 -9999.0 -9999.0 -9999.0 -9999.0 -9999.0 -9999.0 -9999.0 -9999.0 -9999.0 -9999.0 -9999.0 -9999.0 -9999.0 -9999.0 -9999.0 -9999.0 -9999.0 -9999.0 -9999.0 -9999.0 -9999.0 -9999.0 -9999.0 -9999.0 -9999.0 -9999.0 -9999.0 -9999.0 -9999.0 -9999.0 -9999.0 -9999.0 -9999.0 -9999.0 -9999.0 -9999.0 -9999.0 -9999.0 -9999.0 -9999.0 -9999.0 -9999.0 -9999.0 -9999.0 -9999.0 -9999.0
-9999.0 -9999.0 -9999.0 -9999.0 -9999.0 -9999.0 -9999.0 -9999.0 -9999.0 -9999.0 -9999.0 -9999.0 -9999.0 -9999.0 -9999.0 -9999.0 -9999.0 -9999.0 -9999.0 -9999.0 -9999.0 -9999.0 -9999.0 -9999.0 -9999.0 -9999.0 -9999.0 -9999.0 -9999.0 -9999.0 -9999.0 -9999.0 -9999.0 -9999.0 -9999.0 -9999.0 -9999.0 -9999.0 -9999.0 -9999.0 -9999.0 -9999.0 -9999.0 -9999.0 -9999.0 -9999.0 -9999.0 -9999.0 -9999.0 -9999.0 -9999.0 -9999.0 -9999.0 -9999.0 -9999.0 -9999.0 -9999.0 -9999.0 -9999.0 -9999.0 -9999.0 -9999.0 -9999.0 -9999.0 -9999.0 -9999.0 -9999.0 -9999.0 -9999.0 -9999.0 -9999.0 -9999.0 -9999.0 -9999.0 -9999.0 -9999.0 -9999.0 -9999.0 -9999.0 -9999.0 -9999.0 -9999.0 -9999.0 -9999.0 -9999.0 -9999.0 -9999.0 -9999.0 -9999.0 -9999.0 -9999.0 -9999.0 -9999.0 -9999.0 -9999.0 -9999.0 -9999.0 -9999.0 -9999.0 -9999.0 -9999.0 -9999.0 -9999.0 -9999.0 -9999.0 -9999.0 -9999.0 -9999.0 -9999.0 -9999.0 -9999.0 -9999.0 -9999.0 -9999.0 -9999.0 -9999.0 -9999.0 -9999.0 -9999.0 -9999.0 -9999.0 -9999.0 -9999.0 -9999.0 -9999.0 -9999.0 49.9 45.2 47.1 51.3 53.9 55.3 56.8 58.3 60.7 62.3 63.4 61.6 57.8 57.2 56.1 59.6 70.7 78.7 92.9 105.7 109.1 106.5 111.2 111.7 110.1 108.7 105.6 103.8 109.7 114.9 123.0 132.9 143.5 150.7 183.0 193.1 180.8 172.3 166.1 206.1 229.5 270.5 268.0 286.2 291.6 336.9 332.8 301.0 301.2 376.1 353.2 279.3 252.1 247.0 211.1 171.9 171.7 158.8 162.9 185.4 169.9 189.1 238.7 253.4 177.1 127.5 236.8 252.6 232.9 274.6 319.6 248.4 292.4 303.2 232.2 301.6 275.3 236.5 190.4 176.6 158.8 126.1 124.3 137.9 156.5 163.6 143.7 130.3 130.5 119.9 99.3 93.4 100.9 125.9 169.1 183.5 130.9 96.7 95.5 77.5 86.9 94.2 95.3 82.8 75.6 72.4 70.5 62.3 62.1 57.7 -9999.0 -9999.0 -9999.0 -9999.0 -9999.0 -9999.0 -9999.0 -9999.0 -9999.0 -9999.0 -9999.0 -9999.0 -9999.0 -9999.0 -9999.0 -9999.0 -9999.0 -9999.0 -9999.0 -9999.0 -9999.0 -9999.0 -9999.0 -9999.0 -9999.0 -9999.0 -9999.0 -9999.0 -9999.0 -9999.0 -9999.0 -9999.0 -9999.0 -9999.0 -9999.0 -9999.0 -9999.0 -9999.0 -9999.0 -9999.0 -9999.0 -9999.0 -9999.0 -9999.0 -9999.0 -9999.0 -9999.0 -9999.0 -9999.0 -9999.0 -9999.0 -9999.0 -9999.0 -9999.0 -9999.0 -9999.0 -9999.0 -9999.0 -9999.0 -9999.0 -9999.0 -9999.0 -9999.0 -9999.0 -9999.0 -9999.0 -9999.0 -9999.0 -9999.0 -9999.0 -9999.0 -9999.0 -9999.0 -9999.0 -9999.0 -9999.0 -9999.0 -9999.0 -9999.0 -9999.0 -9999.0 -9999.0 -9999.0 -9999.0 -9999.0 -9999.0 -9999.0 -9999.0 -9999.0 -9999.0 -9999.0 -9999.0 -9999.0
-9999.0 -9999.0 -9999.0 -9999.0 -9999.0 -9999.0 -9999.0 -9999.0 -9999.0 -9999.0 -9999.0 -9999.0 -9999.0 -9999.0 -9999.0 -9999.0 -9999.0 -9999.0 -9999.0 -9999.0 -9999.0 -9999.0 -9999.0 -9999.0 -9999.0 -9999.0 -9999.0 -9999.0 -9999.0 -9999.0 -9999.0 -9999.0 -9999.0 -9999.0 -9999.0 -9999.0 -9999.0 -9999.0 -9999.0 -9999.0 -9999.0 -9999.0 -9999.0 -9999.0 -9999.0 -9999.0 -9999.0 -9999.0 -9999.0 -9999.0 -9999.0 -9999.0 -9999.0 -9999.0 -9999.0 -9999.0 -9999.0 -9999.0 -9999.0 -9999.0 -9999.0 -9999.0 -9999.0 -9999.0 -9999.0 -9999.0 -9999.0 -9999.0 -9999.0 -9999.0 -9999.0 -9999.0 -9999.0 -9999.0 -9999.0 -9999.0 -9999.0 -9999.0 -9999.0 -9999.0 -9999.0 -9999.0 -9999.0 -9999.0 -9999.0 -9999.0 -9999.0 -9999.0 -9999.0 -9999.0 -9999.0 -9999.0 -9999.0 -9999.0 -9999.0 -9999.0 -9999.0 -9999.0 -9999.0 -9999.0 -9999.0 -9999.0 -9999.0 -9999.0 -9999.0 -9999.0 -9999.0 -9999.0 -9999.0 -9999.0 -9999.0 -9999.0 -9999.0 -9999.0 -9999.0 -9999.0 -9999.0 -9999.0 -9999.0 -9999.0 -9999.0 -9999.0 -9999.0 -9999.0 -9999.0 -9999.0 44.0 45.9 47.7 50.7 52.9 52.5 54.3 54.9 53.5 52.8 49.9 50.5 51.1 50.7 54.1 56.9 82.8 101.5 104.6 88.6 89.7 93.7 92.2 96.5 98.4 103.8 115.1 136.2 155.0 191.3 200.6 185.4 208.9 238.4 212.6 216.9 211.2 226.9 213.4 175.6 183.9 207.1 206.4 215.7 208.1 238.8 239.0 293.5 334.9 371.1 411.6 406.3 314.5 233.1 226.4 229.3 200.2 213.4 190.1 150.7 128.1 126.8 142.5 178.8 169.7 120.0 163.5 177.0 201.4 222.1 281.8 278.9 213.3 211.4 203.5 257.2 224.3 187.2 167.2 149.1 161.7 118.2 110.6 132.8 141.0 177.3 180.3 145.7 119.2 125.4 148.4 98.4 83.8 93.9 119.8 163.5 148.9 107.5 83.5 72.5 71.3 73.1 68.4 62.8 62.8 62.2 61.3 -9999.0 -9999.0 -9999.0 -9999.0 -9999.0 -9999.0 -9999.0 -9999.0 -9999.0 -9999.0 -9999.0 -9999.0 -9999.0 -9999.0 -9999.0 -9999.0 -9999.0 -9999.0 -9999.0 -9999.0 -9999.0 -9999.0 -9999.0 -9999.0 -9999.0 -9999.0 -9999.0 -9999.0 -9999.0 -9999.0 -9999.0 -9999.0 -9999.0 -9999.0 -9999.0 -9999.0 -9999.0 -9999.0 -9999.0 -9999.0 -9999.0 -9999.0 -9999.0 -9999.0 -9999.0 -9999.0 -9999.0 -9999.0 -9999.0 -9999.0 -9999.0 -9999.0 -9999.0 -9999.0 -9999.0 -9999.0 -9999.0 -9999.0 -9999.0 -9999.0 -9999.0 -9999.0 -9999.0 -9999.0 -9999.0 -9999.0 -9999.0 -9999.0 -9999.0 -9999.0 -9999.0 -9999.0 -9999.0 -9999.0 -9999.0 -9999.0 -9999.0 -9999.0 -9999.0 -9999.0 -9999.0 -9999.0 -9999.0 -9999.0 -9999.0 -9999.0 -9999.0 -9999.0 -9999.0 -9999.0 -9999.0 -9999.0 -9999.0 -9999.0 -9999.0 -9999.0
-9999.0 -9999.0 -9999.0 -9999.0 -9999.0 -9999.0 -9999.0 -9999.0 -9999.0 -9999.0 -9999.0 -9999.0 -9999.0 -9999.0 -9999.0 -9999.0 -9999.0 -9999.0 -9999.0 -9999.0 -9999.0 -9999.0 -9999.0 -9999.0 -9999.0 -9999.0 -9999.0 -9999.0 -9999.0 -9999.0 -9999.0 -9999.0 -9999.0 -9999.0 -9999.0 -9999.0 -9999.0 -9999.0 -9999.0 -9999.0 -9999.0 -9999.0 -9999.0 -9999.0 -9999.0 -9999.0 -9999.0 -9999.0 -9999.0 -9999.0 -9999.0 -9999.0 -9999.0 -9999.0 -9999.0 -9999.0 -9999.0 -9999.0 -9999.0 -9999.0 -9999.0 -9999.0 -9999.0 -9999.0 -9999.0 -9999.0 -9999.0 -9999.0 -9999.0 -9999.0 -9999.0 -9999.0 -9999.0 -9999.0 -9999.0 -9999.0 -9999.0 -9999.0 -9999.0 -9999.0 -9999.0 -9999.0 -9999.0 -9999.0 -9999.0 -9999.0 -9999.0 -9999.0 -9999.0 -9999.0 -9999.0 -9999.0 -9999.0 -9999.0 -9999.0 -9999.0 -9999.0 -9999.0 -9999.0 -9999.0 -9999.0 -9999.0 -9999.0 -9999.0 -9999.0 -9999.0 -9999.0 -9999.0 -9999.0 -9999.0 -9999.0 -9999.0 -9999.0 -9999.0 -9999.0 -9999.0 -9999.0 -9999.0 -9999.0 -9999.0 -9999.0 -9999.0 -9999.0 -9999.0 -9999.0 -9999.0 33.8 36.3 37.6 41.3 42.6 45.4 46.0 48.3 53.3 58.1 62.0 65.8 66.9 69.2 68.3 64.0 57.0 62.3 66.9 75.8 80.3 88.0 108.9 130.9 148.6 159.8 175.3 200.1 223.6 250.1 257.2 263.8 261.9 252.0 243.9 261.0 231.6 237.1 240.1 219.7 248.4 203.2 237.4 273.7 265.2 233.8 290.5 315.1 312.0 343.1 388.6 411.0 385.3 280.4 220.0 204.5 218.6 219.2 182.5 169.6 170.3 138.8 116.2 115.3 117.1 118.0 178.1 245.2 253.4 242.9 224.5 262.7 245.9 182.9 188.4 218.2 216.5 162.8 139.4 133.5 166.3 130.3 107.4 106.2 125.6 149.8 204.8 189.4 132.9 106.0 127.1 144.9 97.5 77.8 82.8 109.9 127.7 98.0 73.4 62.1 64.9 64.6 59.6 57.6 57.1 -9999.0 -9999.0 -9999.0 -9999.0 -9999.0 -9999.0 -9999.0 -9999.0 -9999.0 -9999.0 -9999.0 -9999.0 -9999.0 -9999.0 -9999.0 -9999.0 -9999.0 -9999.0 -9999.0 -9999.0 -9999.0 -9999.0 -9999.0 -9999.0 -9999.0 -9999.0 -9999.0 -9999.0 -9999.0 -9999.0 -9999.0 -9999.0 -9999.0 -9999.0 -9999.0 -9999.0 -9999.0 -9999.0 -9999.0 -9999.0 -9999.0 -9999.0 -9999.0 -9999.0 -9999.0 -9999.0 -9999.0 -9999.0 -9999.0 -9999.0 -9999.0 -9999.0 -9999.0 -9999.0 -9999.0 -9999.0 -9999.0 -9999.0 -9999.0 -9999.0 -9999.0 -9999.0 -9999.0 -9999.0 -9999.0 -9999.0 -9999.0 -9999.0 -9999.0 -9999.0 -9999.0 -9999.0 -9999.0 -9999.0 -9999.0 -9999.0 -9999.0 -9999.0 -9999.0 -9999.0 -9999.0 -9999.0 -9999.0 -9999.0 -9999.0 -9999.0 -9999.0 -9999.0 -9999.0 -9999.0 -9999.0 -9999.0 -9999.0 -9999.0 -9999.0 -9999.0 -9999.0 -9999.0
-9999.0 -9999.0 -9999.0 -9999.0 -9999.0 -9999.0 -9999.0 -9999.0 -9999.0 -9999.0 -9999.0 -9999.0 -9999.0 -9999.0 -9999.0 -9999.0 -9999.0 -9999.0 -9999.0 -9999.0 -9999.0 -9999.0 -9999.0 -9999.0 -9999.0 -9999.0 -9999.0 -9999.0 -9999.0 -9999.0 -9999.0 -9999.0 -9999.0 -9999.0 -9999.0 -9999.0 -9999.0 -9999.0 -9999.0 -9999.0 -9999.0 -9999.0 -9999.0 -9999.0 -9999.0 -9999.0 -9999.0 -9999.0 -9999.0 -9999.0 -9999.0 -9999.0 -9999.0 -9999.0 -9999.0 -9999.0 -9999.0 -9999.0 -9999.0 -9999.0 -9999.0 -9999.0 -9999.0 -9999.0 -9999.0 -9999.0 -9999.0 -9999.0 -9999.0 -9999.0 -9999.0 -9999.0 -9999.0 -9999.0 -9999.0 -9999.0 -9999.0 -9999.0 -9999.0 -9999.0 -9999.0 -9999.0 -9999.0 -9999.0 -9999.0 -9999.0 -9999.0 -9999.0 -9999.0 -9999.0 -9999.0 -9999.0 -9999.0 -9999.0 -9999.0 -9999.0 -9999.0 -9999.0 -9999.0 -9999.0 -9999.0 -9999.0 -9999.0 -9999.0 -9999.0 -9999.0 -9999.0 -9999.0 -9999.0 -9999.0 -9999.0 -9999.0 -9999.0 -9999.0 -9999.0 -9999.0 -9999.0 -9999.0 -9999.0 -9999.0 -9999.0 -9999.0 -9999.0 -9999.0 -9999.0 -9999.0 42.8 47.1 48.2 51.6 52.6 54.6 55.9 57.5 59.5 60.8 64.1 67.2 66.8 64.5 60.8 63.8 68.3 77.6 82.2 84.6 88.3 91.0 93.0 112.5 117.9 113.8 121.7 138.6 169.3 222.8 265.3 279.6 283.8 284.1 277.7 269.0 272.5 278.6 274.0 261.5 281.8 257.4 228.9 279.6 342.1 340.9 293.8 274.1 284.8 330.1 358.9 374.9 296.6 221.9 208.0 190.0 163.9 214.5 214.3 190.3 168.9 150.3 133.1 104.8 98.1 111.2 157.3 220.1 193.1 166.3 179.1 230.4 214.0 177.3 166.7 189.2 223.1 178.6 140.9 122.0 143.5 156.3 111.7 96.9 108.4 137.3 185.5 177.9 174.3 122.3 101.7 133.0 145.9 83.5 73.0 73.3 87.1 73.4 66.4 59.0 59.0 58.9 56.6 -9999.0 -9999.0 -9999.0 -9999.0 -9999.0 -9999.0 -9999.0 -9999.0 -9999.0 -9999.0 -9999.0 -9999.0 -9999.0 -9999.0 -9999.0 -9999.0 -9999.0 -9999.0 -9999.0 -9999.0 -9999.0 -9999.0 -9999.0 -9999.0 -9999.0 -9999.0 -9999.0 -9999.0 -9999.0 -9999.0 -9999.0 -9999.0 -9999.0 -9999.0 -9999.0 -9999.0 -9999.0 -9999.0 -9999.0 -9999.0 -9999.0 -9999.0 -9999.0 -9999.0 -9999.0 -9999.0 -9999.0 -9999.0 -9999.0 -9999.0 -9999.0 -9999.0 -9999.0 -9999.0 -9999.0 -9999.0 -9999.0 -9999.0 -9999.0 -9999.0 -9999.0 -9999.0 -9999.0 -9999.0 -9999.0 -9999.0 -9999.0 -9999.0 -9999.0 -9999.0 -9999.0 -9999.0 -9999.0 -9999.0 -9999.0 -9999.0 -9999.0 -9999.0 -9999.0 -9999.0 -9999.0 -9999.0 -9999.0 -9999.0 -9999.0 -9999.0 -9999.0 -9999.0 -9999.0 -9999.0 -9999.0 -9999.0 -9999.0 -9999.0 -9999.0 -9999.0 -9999.0 -9999.0 -9999.0 -9999.0
-9999.0 -9999.0 -9999.0 -9999.0 -9999.0 -9999.0 -9999.0 -9999.0 -9999.0 -9999.0 -9999.0 -9999.0 -9999.0 -9999.0 -9999.0 -9999.0 -9999.0 -9999.0 -9999.0 -9999.0 -9999.0 -9999.0 -9999.0 -9999.0 -9999.0 -9999.0 -9999.0 -9999.0 -9999.0 -9999.0 -9999.0 -9999.0 -9999.0 -9999.0 -9999.0 -9999.0 -9999.0 -9999.0 -9999.0 -9999.0 -9999.0 -9999.0 -9999.0 -9999.0 -9999.0 -9999.0 -9999.0 -9999.0 -9999.0 -9999.0 -9999.0 -9999.0 -9999.0 -9999.0 -9999.0 -9999.0 -9999.0 -9999.0 -9999.0 -9999.0 -9999.0 -9999.0 -9999.0 -9999.0 -9999.0 -9999.0 -9999.0 -9999.0 -9999.0 -9999.0 -9999.0 -9999.0 -9999.0 -9999.0 -9999.0 -9999.0 -9999.0 -9999.0 -9999.0 -9999.0 -9999.0 -9999.0 -9999.0 -9999.0 -9999.0 -9999.0 -9999.0 -9999.0 -9999.0 -9999.0 -9999.0 -9999.0 -9999.0 -9999.0 -9999.0 -9999.0 -9999.0 -9999.0 -9999.0 -9999.0 -9999.0 -9999.0 -9999.0 -9999.0 -9999.0 -9999.0 -9999.0 -9999.0 -9999.0 -9999.0 -9999.0 -9999.0 -9999.0 -9999.0 -9999.0 -9999.0 -9999.0 -9999.0 -9999.0 -9999.0 -9999.0 -9999.0 -9999.0 -9999.0 -9999.0 -9999.0 48.6 48.4 52.8 54.3 56.1 56.0 56.7 57.3 58.2 61.4 61.9 57.3 51.3 58.9 86.2 105.6 67.3 79.7 126.0 143.1 141.1 115.7 100.2 97.9 102.6 101.7 102.7 106.3 119.9 144.9 195.0 246.6 285.2 289.6 294.1 296.1 286.6 261.0 246.3 252.5 265.9 291.6 300.4 308.2 345.4 376.4 341.9 361.1 321.6 348.1 369.0 399.5 382.3 270.2 197.5 172.3 151.1 157.8 147.6 134.3 121.3 111.0 107.3 99.1 97.5 108.9 168.6 172.9 139.1 174.2 207.2 201.6 220.5 189.9 153.1 171.2 190.3 194.4 158.6 128.2 111.0 142.2 141.8 98.1 94.9 110.2 156.3 163.3 143.9 108.5 90.7 136.6 147.6 102.3 62.8 65.6 64.9 60.2 57.2 57.7 52.3 -9999.0 -9999.0 -9999.0 -9999.0 -9999.0 -9999.0 -9999.0 -9999.0 -9999.0 -9999.0 -9999.0 -9999.0 -9999.0 -9999.0 -9999.0 -9999.0 -9999.0 -9999.0 -9999.0 -9999.0 -9999.0 -9999.0 -9999.0 -9999.0 -9999.0 -9999.0 -9999.0 -9999.0 -9999.0 -9999.0 -9999.0 -9999.0 -9999.0 -9999.0 -9999.0 -9999.0 -9999.0 -9999.0 -9999.0 -9999.0 -9999.0 -9999.0 -9999.0 -9999.0 -9999.0 -9999.0 -9999.0 -9999.0 -9999.0 -9999.0 -9999.0 -9999.0 -9999.0 -9999.0 -9999.0 -9999.0 -9999.0 -9999.0 -9999.0 -9999.0 -9999.0 -9999.0 -9999.0 -9999.0 -9999.0 -9999.0 -9999.0 -9999.0 -9999.0 -9999.0 -9999.0 -9999.0 -9999.0 -9999.0 -9999.0 -9999.0 -9999.0 -9999.0 -9999.0 -9999.0 -9999.0 -9999.0 -9999.0 -9999.0 -9999.0 -9999.0 -9999.0 -9999.0 -9999.0 -9999.0 -9999.0 -9999.0 -9999.0 -9999.0 -9999.0 -9999.0 -9999.0 -9999.0 -9999.0 -9999.0 -9999.0 -9999.0
-9999.0 -9999.0 -9999.0 -9999.0 -9999.0 -9999.0 -9999.0 -9999.0 -9999.0 -9999.0 -9999.0 -9999.0 -9999.0 -9999.0 -9999.0 -9999.0 -9999.0 -9999.0 -9999.0 -9999.0 -9999.0 -9999.0 -9999.0 -9999.0 -9999.0 -9999.0 -9999.0 -9999.0 -9999.0 -9999.0 -9999.0 -9999.0 -9999.0 -9999.0 -9999.0 -9999.0 -9999.0 -9999.0 -9999.0 -9999.0 -9999.0 -9999.0 -9999.0 -9999.0 -9999.0 -9999.0 -9999.0 -9999.0 -9999.0 -9999.0 -9999.0 -9999.0 -9999.0 -9999.0 -9999.0 -9999.0 -9999.0 -9999.0 -9999.0 -9999.0 -9999.0 -9999.0 -9999.0 -9999.0 -9999.0 -9999.0 -9999.0 -9999.0 -9999.0 -9999.0 -9999.0 -9999.0 -9999.0 -9999.0 -9999.0 -9999.0 -9999.0 -9999.0 -9999.0 -9999.0 -9999.0 -9999.0 -9999.0 -9999.0 -9999.0 -9999.0 -9999.0 -9999.0 -9999.0 -9999.0 -9999.0 -9999.0 -9999.0 -9999.0 -9999.0 -9999.0 -9999.0 -9999.0 -9999.0 -9999.0 -9999.0 -9999.0 -9999.0 -9999.0 -9999.0 -9999.0 -9999.0 -9999.0 -9999.0 -9999.0 -9999.0 -9999.0 -9999.0 -9999.0 -9999.0 -9999.0 -9999.0 -9999.0 -9999.0 -9999.0 -9999.0 -9999.0 -9999.0 -9999.0 -9999.0 -9999.0 51.6 50.7 50.3 53.7 55.6 57.7 58.8 60.0 60.0 56.2 46.6 61.3 85.3 114.4 136.8 151.0 112.7 74.3 92.5 109.9 124.4 128.3 123.4 109.0 127.3 124.0 128.2 123.4 144.0 137.8 124.9 147.1 194.3 228.5 258.9 279.3 280.8 201.1 192.7 204.1 247.9 284.1 310.1 332.3 352.4 367.1 376.7 384.8 368.6 389.6 399.7 352.4 329.1 256.0 182.1 174.0 161.4 147.4 137.9 140.1 126.7 126.8 159.5 136.1 96.7 90.7 112.1 119.1 141.9 151.2 155.8 188.8 214.8 179.9 142.9 168.7 197.1 166.0 158.2 153.9 111.5 117.6 158.9 105.5 83.8 92.9 130.8 143.4 115.6 97.3 80.2 108.7 121.3 91.7 68.3 57.6 60.3 57.7 55.8 -9999.0 -9999.0 -9999.0 -9999.0 -9999.0 -9999.0 -9999.0 -9999.0 -9999.0 -9999.0 -9999.0 -9999.0 -9999.0 -9999.0 -9999.0 -9999.0 -9999.0 -9999.0 -9999.0 -9999.0 -9999.0 -9999.0 -9999.0 -9999.0 -9999.0 -9999.0 -9999.0 -9999.0 -9999.0 -9999.0 -9999.0 -9999.0 -9999.0 -9999.0 -9999.0 -9999.0 -9999.0 -9999.0 -9999.0 -9999.0 -9999.0 -9999.0 -9999.0 -9999.0 -9999.0 -9999.0 -9999.0 -9999.0 -9999.0 -9999.0 -9999.0 -9999.0 -9999.0 -9999.0 -9999.0 -9999.0 -9999.0 -9999.0 -9999.0 -9999.0 -9999.0 -9999.0 -9999.0 -9999.0 -9999.0 -9999.0 -9999.0 -9999.0 -9999.0 -9999.0 -9999.0 -9999.0 -9999.0 -9999.0 -9999.0 -9999.0 -9999.0 -9999.0 -9999.0 -9999.0 -9999.0 -9999.0 -9999.0 -9999.0 -9999.0 -9999.0 -9999.0 -9999.0 -9999.0 -9999.0 -9999.0 -9999.0 -9999.0 -9999.0 -9999.0 -9999.0 -9999.0 -9999.0 -9999.0 -9999.0 -9999.0 -9999.0 -9999.0 -9999.0
