ncols   441
nrows   32
xllcorner    11.7508
yllcorner    45.909886
cellsize    0.005006
NODATA_value -9999
-9999.0 621.6 490.2 654.4 698.8 760.1 841.0 872.4 901.0 961.3 1049.3 1065.6 937.4 855.2 942.1 1068.5 1111.5 1077.0 1073.7 1109.3 1122.3 1034.9 885.8 746.1 717.2 855.0 942.8 833.8 729.3 639.3 585.9 537.8 505.9 475.0 451.9 426.9 412.4 439.1 430.4 424.2 420.8 424.0 431.5 452.7 409.5 396.9 390.3 381.6 373.4 364.6 335.7 315.9 302.7 301.0 299.7 292.2 292.3 292.0 287.4 288.9 290.1 292.3 292.1 295.5 303.6 333.9 367.0 361.7 376.2 379.1 387.4 395.8 400.8 400.1 414.9 423.6 424.5 428.6 443.4 464.5 499.1 563.5 583.2 588.0 578.2 577.9 560.8 557.8 612.9 689.1 773.9 858.5 874.9 897.9 929.4 939.3 787.1 636.5 640.3 776.1 961.5 1132.6 1300.0 1392.5 1370.5 1425.2 1531.7 1621.6 1626.7 1441.1 1182.0 901.2 649.5 455.6 365.7 340.2 416.8 563.6 692.8 877.1 1162.1 1446.8 1498.2 1477.4 1436.2 1338.9 1220.3 1135.3 1101.6 1081.5 1071.4 1064.5 1065.6 1084.2 1087.9 1105.0 1174.2 1229.7 1262.4 1337.8 1426.7 1439.1 1421.4 1377.2 1351.8 1313.3 1291.5 1198.5 1091.2 916.4 733.4 518.7 437.4 487.8 394.8 331.8 330.2 337.8 356.6 339.3 291.3 254.4 216.5 205.7 209.2 214.5 215.8 208.0 192.4 191.4 197.6 214.5 219.6 221.6 220.6 221.9 222.2 206.8 222.3 226.3 224.9 224.4 223.6 221.4 220.3 217.7 215.3 215.3 213.3 213.1 214.5 216.9 217.8 217.5 212.6 195.6 209.5 209.4 208.6 205.5 200.7 196.1 191.9 186.6 180.9 175.4 170.9 169.2 167.4 168.1 156.2 162.6 167.7 166.8 166.5 166.9 166.3 164.8 163.4 160.9 158.4 155.9 154.2 152.4 150.9 148.9 146.0 133.8 122.4 119.2 120.9 125.2 112.1 129.9 135.0 143.7 149.8 151.0 152.6 154.3 157.6 159.2 160.7 161.9 163.1 164.1 165.4 165.8 166.4 166.9 167.6 168.0 166.5 161.7 142.9 147.1 157.3 164.7 166.1 165.4 165.3 164.3 164.5 164.2 163.8 163.5 162.3 162.5 162.7 162.7 163.4 163.8 164.7 166.0 166.1 166.5 167.4 168.7 169.7 169.3 170.6 171.3 171.3 170.4 169.6 169.7 169.9 168.3 160.8 142.3 160.5 167.6 168.6 169.9 170.8 157.1 170.4 173.0 171.7 169.8 167.7 164.7 164.0 164.7 164.1 162.9 161.0 147.5 151.1 159.7 159.8 157.6 155.0 152.7 147.3 135.7 153.1 158.3 160.3 160.4 161.1 162.2 163.8 165.3 168.0 169.9 171.3 173.4 169.5 147.9 168.7 176.7 177.0 178.6 177.6 178.2 177.5 176.9 180.0 204.3 178.7 184.5 186.4 198.2 213.9 249.3 318.6 336.9 302.6 268.3 241.7 214.8 223.0 210.3 239.9 318.8 435.5 542.3 660.6 778.5 834.2 811.6 750.3 730.0 710.1 617.7 598.4 558.2 500.1 -9999.0 -9999.0 -9999.0 -9999.0 -9999.0 -9999.0 -9999.0 -9999.0 -9999.0 -9999.0 -9999.0 -9999.0 -9999.0 -9999.0 -9999.0 -9999.0 -9999.0 -9999.0 -9999.0 -9999.0 -9999.0 -9999.0 -9999.0 -9999.0 -9999.0 -9999.0 -9999.0 -9999.0 -9999.0 -9999.0 -9999.0 -9999.0 -9999.0 -9999.0 -9999.0 -9999.0 -9999.0 -9999.0 -9999.0 -9999.0 -9999.0 -9999.0 -9999.0 -9999.0 -9999.0 -9999.0 -9999.0 -9999.0 -9999.0 -9999.0 -9999.0 -9999.0 -9999.0 -9999.0 -9999.0 -9999.0 -9999.0 -9999.0 -9999.0 -9999.0 -9999.0 -9999.0 -9999.0 -9999.0 -9999.0 -9999.0 -9999.0 -9999.0 -9999.0 -9999.0 -9999.0 -9999.0
-9999.0 629.4 473.8 568.2 617.6 705.0 756.0 750.7 769.9 864.1 867.0 857.1 787.4 807.6 956.8 1063.0 984.9 906.2 935.7 991.7 1021.2 951.8 839.7 687.1 608.0 727.6 721.0 676.6 634.2 595.4 575.0 553.3 556.2 536.0 458.9 430.2 406.8 393.8 397.0 405.2 403.9 390.0 384.8 386.6 386.5 380.7 370.4 362.1 356.6 344.6 311.9 298.2 292.2 285.8 277.8 283.0 290.5 294.3 301.9 307.6 309.3 312.6 317.8 321.7 348.9 376.1 369.8 366.9 376.9 397.1 419.0 431.9 440.1 448.3 451.9 443.6 433.0 464.3 490.3 534.3 564.8 565.4 609.0 640.9 644.6 618.6 640.7 644.0 619.8 645.2 683.8 734.4 799.4 877.7 925.2 847.3 724.9 711.1 811.5 781.9 793.0 966.9 1195.2 1401.7 1557.4 1544.1 1625.1 1694.8 1539.6 1238.6 916.9 658.4 431.6 327.6 332.1 442.9 601.1 751.3 917.2 1180.9 1437.3 1543.6 1515.3 1429.1 1321.4 1223.1 1168.5 1150.3 1113.0 1080.1 1069.5 1066.9 1069.0 1094.4 1122.1 1198.0 1298.5 1361.0 1345.4 1371.9 1386.1 1380.9 1355.0 1311.5 1269.1 1174.0 1083.6 1059.6 956.5 846.4 734.5 633.1 446.5 351.7 321.7 310.6 315.1 287.0 247.2 216.5 206.7 196.2 194.3 198.5 207.8 208.1 199.5 181.8 184.7 200.2 205.6 210.0 212.2 212.4 213.6 214.3 212.9 200.8 217.2 219.0 215.8 214.9 213.8 213.2 211.2 209.6 206.7 205.9 204.7 205.8 208.2 209.3 209.9 210.2 209.2 197.1 189.0 201.0 201.0 199.9 196.2 191.7 187.6 183.3 177.3 171.9 166.5 163.0 163.1 162.5 146.3 162.3 161.9 161.5 160.8 161.2 161.0 160.7 159.5 157.0 153.6 151.8 150.9 148.7 145.8 143.6 140.3 137.8 132.2 128.2 115.1 108.8 114.4 129.4 132.1 136.3 146.5 148.5 149.6 151.7 153.8 156.5 157.0 158.4 159.9 161.2 162.6 161.7 162.2 163.4 164.3 164.9 163.4 160.7 154.9 140.4 147.9 161.2 163.1 162.5 161.0 161.2 160.4 160.1 159.2 159.3 159.1 158.7 159.5 159.7 160.4 161.0 161.8 162.1 162.4 162.7 162.1 161.9 162.4 162.5 162.5 166.3 169.2 168.3 167.8 166.9 166.1 164.7 154.6 139.1 153.1 164.3 165.5 166.4 167.0 154.1 171.1 170.4 169.6 167.5 165.9 163.5 162.7 161.6 161.5 160.4 158.4 150.7 143.6 156.7 156.8 154.3 150.4 149.2 133.8 144.6 153.7 155.8 157.4 158.5 158.8 161.3 162.6 164.7 166.3 167.6 169.7 170.7 157.3 148.6 170.3 173.9 173.3 175.1 174.3 174.3 174.0 173.6 176.2 183.2 161.6 183.5 186.9 199.2 190.9 232.3 280.2 251.1 211.0 199.9 204.5 224.0 260.6 334.0 374.6 449.0 531.4 627.1 714.6 772.9 806.6 731.8 618.6 605.0 639.8 583.4 -9999.0 -9999.0 -9999.0 -9999.0 -9999.0 -9999.0 -9999.0 -9999.0 -9999.0 -9999.0 -9999.0 -9999.0 -9999.0 -9999.0 -9999.0 -9999.0 -9999.0 -9999.0 -9999.0 -9999.0 -9999.0 -9999.0 -9999.0 -9999.0 -9999.0 -9999.0 -9999.0 -9999.0 -9999.0 -9999.0 -9999.0 -9999.0 -9999.0 -9999.0 -9999.0 -9999.0 -9999.0 -9999.0 -9999.0 -9999.0 -9999.0 -9999.0 -9999.0 -9999.0 -9999.0 -9999.0 -9999.0 -9999.0 -9999.0 -9999.0 -9999.0 -9999.0 -9999.0 -9999.0 -9999.0 -9999.0 -9999.0 -9999.0 -9999.0 -9999.0 -9999.0 -9999.0 -9999.0 -9999.0 -9999.0 -9999.0 -9999.0 -9999.0 -9999.0 -9999.0 -9999.0 -9999.0 -9999.0 -9999.0 -9999.0
-9999.0 565.1 462.4 586.7 669.0 662.4 619.0 630.7 689.2 700.8 685.9 707.1 809.9 929.4 1050.2 1130.5 1023.8 880.2 849.0 828.4 823.1 817.0 801.8 711.9 552.2 544.5 628.3 633.9 589.9 560.4 539.8 541.5 508.7 451.2 421.3 416.1 435.6 448.2 409.4 379.5 369.3 372.1 373.1 377.0 377.9 371.0 356.7 342.3 330.1 303.8 282.6 274.6 274.7 285.3 298.8 304.0 306.9 306.4 307.5 309.9 321.1 338.4 339.4 336.3 357.8 377.7 394.0 402.1 428.1 455.8 472.5 486.5 499.6 514.7 530.0 528.6 465.9 474.5 537.0 590.1 640.1 651.7 649.2 686.3 719.0 684.1 675.4 688.8 715.8 755.1 773.4 788.8 775.3 823.7 864.6 793.2 779.7 904.7 1058.4 1000.7 909.8 1023.0 1175.8 1358.8 1559.0 1712.7 1680.8 1549.0 1373.4 984.6 678.8 485.1 346.5 334.5 442.8 669.5 874.3 1055.7 1259.0 1476.2 1538.7 1457.7 1378.9 1304.8 1248.9 1212.1 1200.0 1196.4 1172.9 1098.3 1059.8 1083.4 1120.3 1139.7 1170.7 1251.7 1339.0 1376.3 1369.8 1368.0 1350.4 1352.0 1285.8 1222.1 1147.0 1087.0 915.1 799.3 735.4 671.6 637.2 551.1 428.5 325.0 310.7 280.1 261.6 245.0 227.9 212.3 198.3 188.7 197.7 208.0 202.0 187.7 177.4 174.2 190.6 194.8 198.7 201.8 202.7 201.1 205.6 206.4 199.1 199.1 210.8 211.0 208.4 207.2 206.4 205.6 204.2 200.8 198.7 195.9 195.7 197.7 198.9 199.9 201.7 201.9 201.3 200.7 188.7 179.9 193.7 192.6 189.9 186.8 182.4 177.4 173.3 167.5 161.9 158.3 157.6 154.4 143.7 159.1 156.9 156.2 155.6 155.9 155.8 156.7 154.5 151.5 147.2 134.0 146.4 145.4 142.3 138.2 135.4 133.6 129.3 127.7 126.1 115.1 114.8 128.1 129.6 135.9 143.8 145.9 147.2 147.9 149.7 151.5 154.1 154.8 155.7 157.0 158.4 158.5 159.2 160.2 161.0 160.3 159.8 156.7 152.6 149.0 136.4 151.2 159.6 158.9 157.6 158.0 157.2 156.9 156.2 156.0 156.5 156.4 155.0 156.0 157.2 157.8 157.7 158.2 158.6 158.3 157.7 157.6 157.7 157.6 158.2 158.4 161.3 165.2 165.8 164.9 164.0 163.3 161.0 152.0 137.1 160.3 164.4 164.9 153.9 153.8 167.9 167.7 165.9 164.0 162.7 162.1 159.5 159.2 158.2 157.4 155.9 150.5 135.1 151.9 154.3 151.7 147.8 141.1 134.0 150.7 152.8 154.7 155.2 156.2 157.6 159.4 160.7 163.2 164.3 165.3 166.9 165.9 146.7 153.9 171.3 169.9 171.3 171.8 171.3 170.8 170.7 169.7 171.1 177.0 157.7 165.6 193.2 199.9 192.5 201.8 189.7 179.7 178.7 204.0 249.1 320.3 334.9 361.7 404.3 486.1 545.4 578.2 608.5 631.0 680.7 707.9 599.5 -9999.0 -9999.0 -9999.0 -9999.0 -9999.0 -9999.0 -9999.0 -9999.0 -9999.0 -9999.0 -9999.0 -9999.0 -9999.0 -9999.0 -9999.0 -9999.0 -9999.0 -9999.0 -9999.0 -9999.0 -9999.0 -9999.0 -9999.0 -9999.0 -9999.0 -9999.0 -9999.0 -9999.0 -9999.0 -9999.0 -9999.0 -9999.0 -9999.0 -9999.0 -9999.0 -9999.0 -9999.0 -9999.0 -9999.0 -9999.0 -9999.0 -9999.0 -9999.0 -9999.0 -9999.0 -9999.0 -9999.0 -9999.0 -9999.0 -9999.0 -9999.0 -9999.0 -9999.0 -9999.0 -9999.0 -9999.0 -9999.0 -9999.0 -9999.0 -9999.0 -9999.0 -9999.0 -9999.0 -9999.0 -9999.0 -9999.0 -9999.0 -9999.0 -9999.0 -9999.0 -9999.0 -9999.0 -9999.0 -9999.0 -9999.0 -9999.0 -9999.0 -9999.0
-9999.0 593.7 461.2 576.8 655.9 587.9 600.0 705.6 735.3 764.6 845.8 907.5 988.7 1067.7 1190.1 1207.8 1080.6 931.1 837.2 764.1 699.5 625.5 615.4 617.0 515.1 493.1 559.8 560.3 525.7 505.7 534.1 526.4 462.4 399.3 402.9 431.7 476.0 497.7 460.2 404.7 388.0 372.2 345.6 361.6 365.5 353.0 332.4 327.7 293.9 268.3 275.3 285.3 294.1 297.9 302.1 304.5 306.7 316.6 333.5 346.6 353.2 353.8 351.8 359.7 401.5 435.3 458.2 477.7 489.1 489.5 506.2 528.6 549.8 562.0 580.6 581.3 534.7 463.0 521.4 577.9 639.8 695.2 703.8 712.4 760.9 767.4 733.2 719.0 735.4 799.4 865.7 867.0 830.1 839.6 860.3 892.0 895.2 956.9 1133.1 1175.5 1075.2 1086.8 1190.0 1333.6 1493.6 1651.2 1540.5 1331.3 1077.5 726.8 517.6 373.8 348.0 414.2 593.5 857.1 1203.3 1432.7 1509.8 1513.0 1450.2 1392.8 1335.9 1330.5 1317.4 1283.4 1264.9 1238.3 1226.1 1107.0 1048.3 1086.8 1144.8 1200.6 1250.7 1324.0 1370.8 1381.8 1371.2 1346.0 1298.9 1163.1 1061.3 972.6 846.6 848.6 821.3 659.6 535.5 477.7 475.0 415.2 338.0 256.3 225.6 229.3 236.9 230.8 220.4 207.7 194.9 188.1 192.0 175.0 171.1 165.0 162.6 180.1 186.2 190.0 193.5 195.9 197.4 198.9 199.7 200.5 188.5 200.0 203.4 204.3 202.2 201.3 199.4 197.8 195.4 193.7 190.4 187.6 186.7 188.5 189.9 191.4 192.8 193.2 193.7 193.0 192.2 176.6 180.1 186.3 183.6 180.4 176.3 172.3 167.6 162.8 157.6 153.0 152.2 140.6 144.4 153.8 150.7 150.8 151.2 151.3 150.7 151.5 150.3 146.7 140.2 127.1 142.8 141.8 138.5 134.2 132.2 129.0 126.0 125.0 123.3 117.5 114.0 126.5 128.3 137.3 142.7 143.7 145.3 146.3 146.6 147.6 149.8 150.2 151.1 152.8 153.1 154.6 156.2 156.3 157.3 156.8 156.6 151.0 149.7 150.2 137.1 148.3 155.5 155.3 154.5 154.5 154.6 153.9 153.6 153.2 153.5 152.9 151.6 152.9 153.6 154.1 154.2 154.8 154.7 155.0 152.9 155.5 155.4 155.4 155.2 154.7 155.3 156.5 159.6 162.7 164.8 162.8 159.3 136.9 141.4 159.0 158.5 148.3 143.4 145.6 160.8 162.4 162.1 161.0 160.4 159.3 157.3 155.9 156.0 155.3 154.8 152.4 133.0 143.4 151.5 148.6 145.4 133.3 135.3 150.4 151.2 152.5 153.6 155.4 156.4 159.0 160.8 162.3 162.9 162.8 164.3 162.7 142.5 166.2 167.6 168.4 168.9 169.4 170.1 168.8 168.4 167.3 167.6 163.1 158.0 172.1 189.2 183.7 175.1 173.7 162.6 160.4 193.4 232.0 311.0 395.2 409.7 427.6 453.8 430.2 412.8 459.3 456.5 511.6 544.6 -9999.0 -9999.0 -9999.0 -9999.0 -9999.0 -9999.0 -9999.0 -9999.0 -9999.0 -9999.0 -9999.0 -9999.0 -9999.0 -9999.0 -9999.0 -9999.0 -9999.0 -9999.0 -9999.0 -9999.0 -9999.0 -9999.0 -9999.0 -9999.0 -9999.0 -9999.0 -9999.0 -9999.0 -9999.0 -9999.0 -9999.0 -9999.0 -9999.0 -9999.0 -9999.0 -9999.0 -9999.0 -9999.0 -9999.0 -9999.0 -9999.0 -9999.0 -9999.0 -9999.0 -9999.0 -9999.0 -9999.0 -9999.0 -9999.0 -9999.0 -9999.0 -9999.0 -9999.0 -9999.0 -9999.0 -9999.0 -9999.0 -9999.0 -9999.0 -9999.0 -9999.0 -9999.0 -9999.0 -9999.0 -9999.0 -9999.0 -9999.0 -9999.0 -9999.0 -9999.0 -9999.0 -9999.0 -9999.0 -9999.0 -9999.0 -9999.0 -9999.0 -9999.0 -9999.0 -9999.0
-9999.0 613.3 444.6 564.7 584.2 530.9 642.3 811.9 884.8 961.5 1063.2 1107.7 1170.2 1235.1 1287.8 1268.7 1161.5 1094.9 1051.4 994.0 912.2 774.8 609.6 508.6 468.2 433.3 470.0 462.1 443.7 452.0 474.1 434.8 395.1 390.0 428.6 488.0 474.4 462.7 437.3 406.6 402.0 389.1 353.2 346.2 353.8 342.2 318.8 311.5 268.1 280.7 289.5 291.5 298.5 306.8 312.0 318.7 334.7 358.1 360.3 361.2 368.5 375.4 376.7 376.1 415.4 438.4 484.8 511.0 538.2 563.4 577.7 601.0 623.7 653.6 689.0 674.3 582.1 497.0 497.2 547.0 588.0 654.9 717.6 720.4 754.0 822.0 806.2 759.6 760.2 804.6 879.0 898.0 875.5 872.5 906.7 991.7 1044.9 1054.9 1150.0 1295.8 1239.1 1265.7 1271.1 1337.8 1478.3 1465.9 1355.5 1149.7 856.8 599.0 411.7 345.6 380.6 509.4 752.2 1023.4 1412.0 1536.0 1491.5 1453.8 1437.6 1417.4 1398.2 1381.8 1362.1 1369.6 1335.8 1281.2 1218.1 1158.0 1061.3 1131.9 1180.8 1206.4 1272.9 1382.6 1369.9 1353.5 1328.5 1304.9 1184.3 977.1 797.8 724.7 604.4 568.7 608.6 516.0 390.1 279.6 272.4 273.2 221.0 180.5 184.1 208.1 211.8 215.5 209.4 195.0 183.0 174.9 162.0 150.9 149.9 157.3 173.1 178.9 181.6 184.4 188.6 191.4 192.0 192.7 192.5 192.4 178.9 195.9 196.8 197.2 196.1 193.8 192.7 189.7 187.6 185.5 183.0 180.1 179.0 179.5 180.8 183.0 184.1 185.0 185.1 184.6 184.7 180.0 164.2 176.3 177.2 175.2 170.2 165.9 162.2 157.3 152.6 147.8 145.3 129.6 147.0 147.4 145.7 145.2 146.5 146.8 146.2 147.2 147.8 144.0 134.5 122.2 140.5 138.8 135.3 132.5 129.0 124.3 123.5 122.4 122.6 116.1 109.3 124.3 126.7 137.9 140.8 140.8 142.8 144.6 144.1 144.3 144.9 146.0 147.6 148.9 149.5 151.4 152.5 152.4 153.2 152.9 151.8 147.3 147.4 147.5 136.4 142.7 150.1 150.5 151.6 151.5 151.5 150.2 149.9 149.7 149.6 149.6 149.1 149.8 150.5 150.9 148.7 139.2 136.0 135.4 136.5 150.1 150.4 151.6 152.0 151.7 151.0 151.1 150.7 152.2 157.2 160.5 159.3 139.4 137.9 151.7 145.1 138.2 142.0 152.0 157.3 158.9 157.2 157.7 156.6 155.8 155.7 154.7 153.0 153.4 152.8 151.3 143.0 130.2 134.1 144.2 141.1 125.3 142.1 148.6 149.8 150.7 152.0 153.8 155.9 158.2 159.7 160.7 160.7 161.6 158.8 144.5 140.9 163.4 165.2 166.0 166.7 168.7 169.6 167.7 167.5 167.2 150.7 157.5 190.3 190.9 176.7 174.5 164.2 150.7 141.3 155.3 184.6 220.2 271.3 341.5 415.1 442.0 382.7 323.3 330.1 341.0 357.5 405.4 515.7 -9999.0 -9999.0 -9999.0 -9999.0 -9999.0 -9999.0 -9999.0 -9999.0 -9999.0 -9999.0 -9999.0 -9999.0 -9999.0 -9999.0 -9999.0 -9999.0 -9999.0 -9999.0 -9999.0 -9999.0 -9999.0 -9999.0 -9999.0 -9999.0 -9999.0 -9999.0 -9999.0 -9999.0 -9999.0 -9999.0 -9999.0 -9999.0 -9999.0 -9999.0 -9999.0 -9999.0 -9999.0 -9999.0 -9999.0 -9999.0 -9999.0 -9999.0 -9999.0 -9999.0 -9999.0 -9999.0 -9999.0 -9999.0 -9999.0 -9999.0 -9999.0 -9999.0 -9999.0 -9999.0 -9999.0 -9999.0 -9999.0 -9999.0 -9999.0 -9999.0 -9999.0 -9999.0 -9999.0 -9999.0 -9999.0 -9999.0 -9999.0 -9999.0 -9999.0 -9999.0 -9999.0 -9999.0 -9999.0 -9999.0 -9999.0 -9999.0 -9999.0 -9999.0 -9999.0 -9999.0
-9999.0 582.2 471.2 474.7 487.8 638.6 780.5 777.0 871.3 999.5 1168.5 1304.1 1358.8 1387.1 1392.1 1336.5 1259.4 1194.0 1069.3 972.0 949.1 859.8 676.6 520.5 448.2 395.2 398.8 389.6 392.1 396.2 390.7 375.9 373.7 403.2 459.7 470.7 459.1 443.3 414.9 397.7 391.7 379.9 349.4 340.5 339.2 316.3 291.0 262.4 267.2 286.6 291.1 298.7 307.5 319.7 360.3 374.6 364.7 365.3 393.5 410.1 415.8 422.6 426.5 430.2 432.0 426.0 467.2 493.9 545.3 588.8 629.7 683.1 724.1 761.0 797.1 746.5 628.9 540.5 511.9 580.8 610.1 619.6 645.2 662.7 702.7 749.5 780.2 776.4 773.4 818.5 874.0 939.8 1014.5 986.1 920.1 950.9 1023.5 1141.6 1267.3 1392.8 1417.7 1434.0 1460.3 1406.3 1369.3 1211.9 1137.2 1031.8 727.8 499.1 330.2 317.2 421.8 679.5 1001.1 1247.0 1404.4 1455.0 1548.6 1554.2 1551.4 1497.8 1429.9 1374.6 1373.6 1367.5 1352.3 1317.0 1224.2 1140.5 1141.3 1186.6 1217.3 1275.8 1346.1 1399.6 1375.1 1328.1 1268.4 1224.8 1082.9 871.5 685.7 523.1 417.3 347.1 323.5 290.9 196.5 139.5 140.3 136.6 148.9 175.7 191.9 197.6 190.2 185.6 177.5 171.2 164.0 162.4 142.8 148.4 162.4 168.6 171.2 175.0 177.3 179.4 183.6 185.7 187.1 188.0 187.2 181.9 178.6 190.9 190.2 190.4 189.6 188.4 185.7 182.6 180.2 178.4 176.7 172.4 171.4 171.9 172.2 173.7 175.2 175.7 176.0 177.2 176.7 175.5 166.1 155.7 166.6 167.5 164.0 159.9 155.6 151.4 147.7 142.8 128.9 132.0 144.5 142.4 140.6 140.9 142.6 142.2 142.6 141.9 143.0 139.9 135.2 117.9 134.0 134.7 132.4 129.5 125.3 122.5 121.0 120.0 121.2 115.9 106.8 122.9 126.3 134.9 138.5 139.4 140.7 142.3 141.6 141.7 142.0 142.9 144.4 145.3 146.6 147.8 148.1 148.6 149.3 149.2 148.2 144.2 144.8 143.9 131.9 135.7 146.4 145.8 147.5 148.2 147.3 146.7 147.0 146.6 146.1 146.7 146.5 147.1 147.1 143.2 133.8 132.6 143.2 147.5 147.7 148.1 147.3 148.5 148.3 148.3 148.2 147.6 147.1 150.6 152.7 154.0 155.0 154.3 133.6 138.2 134.2 135.2 139.1 151.9 153.7 154.8 154.2 155.1 152.8 152.7 151.8 151.4 150.2 150.5 149.9 150.0 146.6 145.6 133.5 125.5 137.8 122.9 140.1 146.6 147.8 150.2 152.0 153.5 153.8 155.7 158.6 159.0 158.3 150.3 133.0 146.1 157.6 160.8 162.3 167.8 171.6 177.6 180.4 172.7 165.5 166.1 149.3 170.7 199.3 223.4 215.0 171.5 148.3 131.7 160.5 198.9 219.7 258.0 323.0 355.9 311.8 295.1 296.2 283.1 297.5 310.4 358.9 -9999.0 -9999.0 -9999.0 -9999.0 -9999.0 -9999.0 -9999.0 -9999.0 -9999.0 -9999.0 -9999.0 -9999.0 -9999.0 -9999.0 -9999.0 -9999.0 -9999.0 -9999.0 -9999.0 -9999.0 -9999.0 -9999.0 -9999.0 -9999.0 -9999.0 -9999.0 -9999.0 -9999.0 -9999.0 -9999.0 -9999.0 -9999.0 -9999.0 -9999.0 -9999.0 -9999.0 -9999.0 -9999.0 -9999.0 -9999.0 -9999.0 -9999.0 -9999.0 -9999.0 -9999.0 -9999.0 -9999.0 -9999.0 -9999.0 -9999.0 -9999.0 -9999.0 -9999.0 -9999.0 -9999.0 -9999.0 -9999.0 -9999.0 -9999.0 -9999.0 -9999.0 -9999.0 -9999.0 -9999.0 -9999.0 -9999.0 -9999.0 -9999.0 -9999.0 -9999.0 -9999.0 -9999.0 -9999.0 -9999.0 -9999.0 -9999.0 -9999.0 -9999.0 -9999.0 -9999.0 -9999.0 -9999.0
-9999.0 504.7 440.8 531.0 653.6 770.0 819.7 869.0 915.1 1009.3 1164.1 1340.6 1463.4 1471.0 1463.2 1409.0 1318.3 1216.4 1070.6 934.0 788.7 679.7 589.7 496.8 422.3 387.3 371.7 372.2 371.5 371.9 357.9 359.2 365.1 387.0 409.4 405.3 390.2 379.0 373.4 369.8 365.1 359.6 343.4 313.9 317.1 300.1 270.2 266.8 286.2 289.1 292.2 301.3 329.2 391.1 461.9 465.2 470.5 441.5 382.7 460.4 511.4 525.6 509.5 496.4 491.7 461.5 478.3 510.0 506.2 540.5 607.9 666.4 736.7 809.9 869.1 798.1 691.8 604.6 538.8 526.5 557.9 554.8 587.5 595.9 610.6 647.2 712.6 760.1 781.0 810.4 940.7 1093.7 1204.1 1080.2 965.6 966.0 1000.7 1092.2 1225.8 1382.0 1461.7 1411.2 1310.6 1169.1 1077.0 1025.9 876.4 830.3 611.9 393.1 251.6 338.1 569.3 870.4 1070.8 1095.6 1085.9 1163.8 1283.0 1446.0 1525.0 1490.1 1386.2 1292.1 1321.8 1359.4 1375.1 1342.1 1220.8 1206.0 1192.8 1216.0 1283.3 1367.6 1388.9 1387.8 1377.9 1307.7 1213.1 1158.2 1014.6 824.5 645.7 448.2 317.9 240.6 184.4 138.7 111.8 111.3 107.5 144.5 201.0 196.6 166.9 167.8 164.4 158.1 152.2 151.1 151.2 140.3 138.4 156.1 160.2 164.2 167.7 170.0 173.2 174.3 178.2 180.5 182.7 182.2 183.1 170.2 179.4 182.7 183.4 184.3 183.8 181.9 179.4 176.8 174.8 171.3 169.0 165.6 163.8 162.5 162.8 164.2 165.5 167.5 166.7 167.6 167.1 166.1 165.6 158.7 145.5 154.5 156.6 153.2 149.7 145.6 141.6 132.6 121.1 137.4 139.1 138.2 137.1 136.5 135.9 134.7 128.2 129.8 137.4 136.9 132.8 115.9 131.9 131.4 128.9 127.7 122.8 120.6 119.3 118.8 118.1 114.0 102.1 120.1 124.6 133.0 136.3 137.5 138.9 138.8 138.9 139.0 139.5 140.1 140.7 141.7 142.8 143.9 145.0 144.8 145.4 145.8 145.6 142.4 142.1 137.6 125.2 138.9 144.5 143.7 144.1 144.1 144.2 143.9 143.5 143.5 143.2 143.5 143.4 143.8 140.8 125.5 135.3 142.8 143.9 145.0 144.1 145.2 146.0 145.5 145.1 144.1 145.1 144.1 145.8 148.6 148.5 150.2 150.6 152.9 140.2 126.0 137.3 134.1 142.8 148.3 151.2 152.0 151.7 152.8 151.8 150.3 148.9 148.2 147.9 147.7 147.7 147.3 146.8 145.5 143.4 122.8 123.5 135.2 143.9 145.4 146.3 147.7 149.7 150.9 152.2 154.0 156.2 156.4 156.0 130.5 147.8 156.3 155.9 158.0 160.2 169.8 179.4 185.9 192.3 182.8 164.3 158.7 146.4 172.2 198.5 211.0 234.1 173.1 131.0 140.8 174.3 178.3 194.2 241.9 270.2 285.3 232.1 268.1 306.4 335.2 356.0 -9999.0 -9999.0 -9999.0 -9999.0 -9999.0 -9999.0 -9999.0 -9999.0 -9999.0 -9999.0 -9999.0 -9999.0 -9999.0 -9999.0 -9999.0 -9999.0 -9999.0 -9999.0 -9999.0 -9999.0 -9999.0 -9999.0 -9999.0 -9999.0 -9999.0 -9999.0 -9999.0 -9999.0 -9999.0 -9999.0 -9999.0 -9999.0 -9999.0 -9999.0 -9999.0 -9999.0 -9999.0 -9999.0 -9999.0 -9999.0 -9999.0 -9999.0 -9999.0 -9999.0 -9999.0 -9999.0 -9999.0 -9999.0 -9999.0 -9999.0 -9999.0 -9999.0 -9999.0 -9999.0 -9999.0 -9999.0 -9999.0 -9999.0 -9999.0 -9999.0 -9999.0 -9999.0 -9999.0 -9999.0 -9999.0 -9999.0 -9999.0 -9999.0 -9999.0 -9999.0 -9999.0 -9999.0 -9999.0 -9999.0 -9999.0 -9999.0 -9999.0 -9999.0 -9999.0 -9999.0 -9999.0 -9999.0 -9999.0 -9999.0
-9999.0 497.9 444.4 641.2 747.7 729.0 802.2 876.3 977.5 1090.2 1236.3 1360.3 1446.6 1485.5 1478.9 1429.8 1331.0 1184.6 1011.2 804.2 632.1 532.5 492.6 443.5 397.1 399.4 386.9 360.0 343.8 338.8 349.2 349.6 353.0 351.5 346.1 348.3 352.5 356.2 361.9 364.5 356.6 345.4 329.1 314.5 295.6 279.5 260.5 273.4 280.4 289.8 313.5 365.4 447.0 489.2 554.9 609.4 607.2 551.4 437.5 420.1 522.2 598.8 612.8 601.2 568.5 489.3 513.5 592.7 601.8 549.9 551.4 591.0 650.6 755.6 821.3 774.4 720.0 685.6 631.2 631.6 630.7 585.3 636.7 675.7 689.2 784.5 908.6 974.4 884.7 806.6 890.9 1019.2 1172.9 1135.9 999.3 1057.9 1104.0 1136.8 1230.8 1338.9 1378.5 1224.0 1082.0 936.4 826.9 775.9 694.2 596.5 450.2 266.3 272.7 450.0 678.7 785.0 853.7 814.8 794.9 830.5 971.6 1165.0 1322.2 1367.8 1234.7 1253.2 1283.2 1308.9 1317.6 1311.0 1222.2 1176.3 1130.1 1147.6 1231.8 1317.5 1349.3 1354.0 1297.2 1218.3 1140.7 1108.3 935.6 702.7 535.8 372.9 223.4 161.0 136.5 117.1 102.4 96.9 136.8 181.8 165.7 131.6 127.2 135.4 137.6 135.1 130.6 127.5 125.7 134.3 149.2 154.3 157.3 160.6 163.1 165.5 167.5 170.4 173.0 175.9 176.0 177.5 177.8 161.4 177.9 177.2 177.1 178.4 177.2 175.5 174.0 171.0 168.7 164.3 160.7 156.7 155.6 154.6 153.7 155.2 156.6 158.2 158.2 157.9 158.6 157.7 156.8 156.9 151.0 135.1 143.2 145.7 142.2 138.0 135.5 119.0 127.4 134.1 133.8 133.7 133.1 123.1 113.5 117.7 121.0 129.4 132.0 131.6 122.3 115.4 129.9 128.5 126.7 123.4 120.6 119.4 117.5 117.8 116.5 113.3 98.6 117.2 123.0 131.3 133.3 134.3 135.7 136.0 135.9 135.8 136.3 136.7 137.8 138.9 140.0 141.6 141.5 141.6 142.1 142.0 140.6 139.7 132.4 122.2 131.8 141.9 141.7 141.6 141.1 139.4 141.2 141.2 140.5 140.4 139.3 140.2 140.1 140.8 133.0 123.5 140.7 141.5 141.6 141.5 141.2 141.4 142.4 141.4 141.4 141.4 140.2 141.1 143.0 144.2 146.5 146.5 146.4 146.3 123.7 125.7 143.8 138.4 136.7 146.1 147.4 147.5 148.1 149.8 150.1 147.7 146.6 145.7 145.3 145.3 144.8 144.8 146.1 145.6 141.7 122.5 121.6 140.2 142.4 144.2 144.6 145.8 147.2 148.1 149.6 151.0 153.2 153.1 150.0 120.8 147.8 154.2 155.5 155.4 157.7 167.2 186.7 183.0 197.3 188.8 169.2 150.4 152.4 182.7 182.2 201.0 191.3 150.5 131.6 161.1 230.5 244.8 235.4 229.6 253.6 257.9 203.3 237.2 234.3 261.6 277.8 -9999.0 -9999.0 -9999.0 -9999.0 -9999.0 -9999.0 -9999.0 -9999.0 -9999.0 -9999.0 -9999.0 -9999.0 -9999.0 -9999.0 -9999.0 -9999.0 -9999.0 -9999.0 -9999.0 -9999.0 -9999.0 -9999.0 -9999.0 -9999.0 -9999.0 -9999.0 -9999.0 -9999.0 -9999.0 -9999.0 -9999.0 -9999.0 -9999.0 -9999.0 -9999.0 -9999.0 -9999.0 -9999.0 -9999.0 -9999.0 -9999.0 -9999.0 -9999.0 -9999.0 -9999.0 -9999.0 -9999.0 -9999.0 -9999.0 -9999.0 -9999.0 -9999.0 -9999.0 -9999.0 -9999.0 -9999.0 -9999.0 -9999.0 -9999.0 -9999.0 -9999.0 -9999.0 -9999.0 -9999.0 -9999.0 -9999.0 -9999.0 -9999.0 -9999.0 -9999.0 -9999.0 -9999.0 -9999.0 -9999.0 -9999.0 -9999.0 -9999.0 -9999.0 -9999.0 -9999.0 -9999.0 -9999.0 -9999.0 -9999.0
-9999.0 499.5 439.2 563.8 650.3 638.8 722.4 790.1 844.6 879.1 935.5 1041.0 1134.9 1275.5 1287.8 1230.7 1145.0 1025.5 855.0 671.6 522.7 459.7 432.3 394.4 373.2 382.7 380.0 361.1 345.9 327.9 337.9 340.4 342.2 339.4 345.1 359.6 376.1 380.8 390.7 396.1 389.7 382.8 348.4 301.2 292.4 276.1 255.0 269.4 282.4 341.8 402.8 461.0 558.6 630.7 669.5 700.3 703.1 664.7 553.1 438.4 518.7 682.6 716.3 712.2 696.2 616.4 525.0 604.1 696.6 687.2 613.5 595.9 621.5 691.0 761.8 792.5 802.4 789.1 711.4 762.7 715.3 631.5 708.7 819.8 845.8 817.4 963.6 1076.5 954.1 864.1 878.1 933.6 1046.0 1188.3 1081.2 1068.2 1214.0 1299.4 1318.3 1318.8 1291.7 1150.4 1032.5 890.6 732.0 607.3 479.8 372.5 267.3 242.5 390.0 537.9 619.0 722.2 817.3 769.2 638.7 690.2 780.9 881.3 1030.4 1096.5 1117.3 1218.6 1234.9 1235.8 1225.6 1179.6 1091.3 1016.9 1037.3 1067.8 1131.8 1211.8 1281.0 1252.3 1214.4 1196.9 1117.8 1068.8 924.9 728.2 498.2 302.6 176.1 116.1 100.9 94.5 83.6 164.4 141.8 117.9 116.7 117.8 120.0 120.1 111.9 111.9 118.5 129.5 137.4 143.1 146.6 151.0 152.8 155.9 159.1 159.9 163.4 165.6 169.1 170.4 171.3 173.5 170.1 156.2 171.4 171.0 170.2 170.9 170.4 168.6 167.7 165.4 162.5 158.7 155.0 150.5 148.0 146.2 145.1 145.2 147.7 148.5 148.9 148.4 149.3 148.0 147.5 147.5 146.5 139.2 125.7 138.8 135.4 131.9 128.8 111.9 127.9 128.9 128.7 129.6 128.8 111.4 123.0 128.7 128.2 128.5 128.1 126.2 109.9 125.2 127.0 125.6 115.7 121.3 119.1 117.5 115.8 117.0 114.7 111.9 95.1 114.0 121.2 127.2 130.2 130.9 132.0 133.1 132.9 133.3 133.2 133.3 134.7 135.0 136.8 137.2 137.5 137.8 137.8 136.3 136.0 136.2 119.0 128.5 138.6 139.5 139.7 138.9 138.3 136.7 136.5 137.6 137.1 137.1 136.9 137.3 137.2 138.1 131.1 129.3 140.9 139.8 139.1 138.7 138.7 138.5 138.2 138.7 138.7 137.7 139.1 141.2 141.2 142.4 142.2 143.3 143.1 130.9 120.5 138.2 140.7 125.7 135.2 142.0 143.0 143.2 144.2 146.7 147.1 145.8 143.2 143.0 143.8 142.7 141.7 141.3 141.5 141.1 138.0 117.8 134.9 141.7 141.3 142.2 143.1 144.8 144.7 145.0 146.1 147.9 151.0 156.0 126.4 119.2 141.4 150.0 153.2 154.2 156.4 161.1 166.5 179.1 204.5 190.5 168.1 149.1 154.0 179.4 186.6 188.0 162.2 128.8 131.9 166.5 198.6 231.2 234.2 211.0 237.9 208.3 197.3 242.7 268.8 294.4 308.9 -9999.0 -9999.0 -9999.0 -9999.0 -9999.0 -9999.0 -9999.0 -9999.0 -9999.0 -9999.0 -9999.0 -9999.0 -9999.0 -9999.0 -9999.0 -9999.0 -9999.0 -9999.0 -9999.0 -9999.0 -9999.0 -9999.0 -9999.0 -9999.0 -9999.0 -9999.0 -9999.0 -9999.0 -9999.0 -9999.0 -9999.0 -9999.0 -9999.0 -9999.0 -9999.0 -9999.0 -9999.0 -9999.0 -9999.0 -9999.0 -9999.0 -9999.0 -9999.0 -9999.0 -9999.0 -9999.0 -9999.0 -9999.0 -9999.0 -9999.0 -9999.0 -9999.0 -9999.0 -9999.0 -9999.0 -9999.0 -9999.0 -9999.0 -9999.0 -9999.0 -9999.0 -9999.0 -9999.0 -9999.0 -9999.0 -9999.0 -9999.0 -9999.0 -9999.0 -9999.0 -9999.0 -9999.0 -9999.0 -9999.0 -9999.0 -9999.0 -9999.0 -9999.0 -9999.0 -9999.0 -9999.0 -9999.0 -9999.0 -9999.0
-9999.0 789.6 656.1 505.8 424.5 378.9 388.3 423.9 439.6 447.7 492.5 612.0 777.9 935.7 972.7 918.7 832.9 729.0 638.5 562.6 453.2 439.7 430.2 374.3 340.2 332.9 325.9 329.2 334.3 326.5 317.8 336.5 338.6 353.0 387.1 427.3 450.1 456.1 464.0 414.8 330.0 299.9 293.0 288.5 281.1 267.6 254.1 274.6 352.0 478.8 552.9 600.6 657.7 771.5 810.3 834.8 848.1 773.8 616.7 446.8 497.2 671.0 814.9 848.3 814.1 672.1 574.2 604.1 653.7 762.2 748.5 688.5 675.3 693.7 748.1 801.0 913.0 945.6 814.9 837.7 808.1 697.6 715.1 873.2 979.8 893.0 967.8 1097.7 1000.4 909.1 963.5 962.2 1062.2 1223.3 1130.6 1143.4 1206.3 1205.2 1144.4 1129.1 1084.0 926.5 794.4 723.4 637.6 512.7 336.2 236.7 219.5 376.0 466.5 575.6 701.3 690.8 639.9 586.1 521.4 552.2 624.6 659.7 730.0 761.6 915.2 1014.5 1095.6 1138.1 1023.9 947.3 920.1 964.2 1014.4 1073.0 1128.0 1194.7 1229.3 1182.3 1149.9 1092.6 1058.3 937.5 835.6 732.7 514.9 293.4 114.0 92.5 106.2 82.5 100.0 118.3 105.4 107.8 108.2 106.0 100.1 101.8 110.6 107.4 111.5 126.8 135.1 139.0 142.9 146.2 148.2 151.0 154.7 155.6 158.3 161.8 163.2 163.9 165.7 167.5 161.6 153.2 165.3 163.3 163.2 162.2 162.8 161.5 160.7 157.7 155.0 153.1 149.2 145.7 141.4 139.5 138.2 137.4 138.6 138.8 140.2 140.4 140.0 139.0 138.6 138.2 137.4 135.5 117.5 124.6 129.2 125.9 121.0 106.4 123.5 125.2 123.5 124.6 117.0 110.6 124.0 124.9 125.2 125.9 119.0 109.3 111.3 125.6 125.0 111.8 109.2 119.9 117.8 116.3 114.5 114.7 113.3 109.8 93.4 109.9 117.6 121.6 126.2 127.6 128.9 129.9 130.5 129.6 129.8 130.0 131.3 132.9 132.5 133.4 133.9 133.1 131.8 132.9 134.0 134.7 124.8 123.2 136.0 136.4 136.5 135.3 134.4 133.2 132.9 133.9 134.3 134.3 133.2 133.7 134.3 134.1 124.6 121.5 134.3 136.4 136.3 136.1 135.2 135.8 135.5 136.3 136.8 136.9 136.2 136.8 138.2 139.0 140.4 140.0 136.2 121.2 122.9 138.2 131.4 126.7 139.6 138.8 139.6 139.8 139.0 140.5 142.1 142.2 140.8 140.6 139.5 139.7 138.8 138.4 138.0 137.1 133.3 117.7 138.0 141.2 142.0 144.2 144.5 144.3 144.4 147.5 151.8 151.0 154.7 159.1 117.8 133.7 140.0 145.7 149.4 152.8 168.9 176.1 189.5 201.3 185.1 189.7 166.1 140.8 155.9 172.5 191.5 168.1 139.9 120.0 139.4 154.9 170.8 182.2 178.8 227.6 210.1 178.1 209.3 225.2 255.6 263.0 228.4 -9999.0 -9999.0 -9999.0 -9999.0 -9999.0 -9999.0 -9999.0 -9999.0 -9999.0 -9999.0 -9999.0 -9999.0 -9999.0 -9999.0 -9999.0 -9999.0 -9999.0 -9999.0 -9999.0 -9999.0 -9999.0 -9999.0 -9999.0 -9999.0 -9999.0 -9999.0 -9999.0 -9999.0 -9999.0 -9999.0 -9999.0 -9999.0 -9999.0 -9999.0 -9999.0 -9999.0 -9999.0 -9999.0 -9999.0 -9999.0 -9999.0 -9999.0 -9999.0 -9999.0 -9999.0 -9999.0 -9999.0 -9999.0 -9999.0 -9999.0 -9999.0 -9999.0 -9999.0 -9999.0 -9999.0 -9999.0 -9999.0 -9999.0 -9999.0 -9999.0 -9999.0 -9999.0 -9999.0 -9999.0 -9999.0 -9999.0 -9999.0 -9999.0 -9999.0 -9999.0 -9999.0 -9999.0 -9999.0 -9999.0 -9999.0 -9999.0 -9999.0 -9999.0 -9999.0 -9999.0 -9999.0 -9999.0 -9999.0 -9999.0
-9999.0 1066.0 916.4 788.3 626.0 413.2 347.6 342.5 359.1 373.1 375.3 401.8 445.3 522.3 574.1 583.5 525.5 464.4 480.7 466.8 459.2 420.3 350.0 333.3 326.1 322.0 319.2 319.7 321.7 318.5 309.2 326.2 323.7 330.0 399.3 496.5 548.2 546.0 421.8 299.0 281.3 279.0 278.5 276.4 271.6 259.0 270.2 369.1 494.2 589.8 677.7 748.1 761.0 841.0 931.6 942.0 894.9 763.6 539.2 474.1 470.2 579.8 760.2 921.1 897.1 720.7 666.4 757.0 754.6 744.9 841.8 818.8 814.1 800.5 918.4 931.4 938.3 1063.8 927.8 901.6 944.9 797.9 726.9 817.9 1002.9 1055.2 1069.4 1159.9 1031.7 960.2 1051.0 1061.2 1082.9 1228.7 1179.5 1194.8 1121.5 970.3 925.9 892.6 925.1 839.2 709.2 576.1 452.6 316.5 251.6 208.2 290.4 417.2 567.9 675.5 610.0 508.9 473.7 457.7 453.2 469.2 492.9 518.9 548.1 547.9 623.1 777.2 935.5 948.7 849.5 931.7 983.0 992.2 1021.3 1080.2 1114.1 1110.5 1111.6 1099.4 1073.0 1036.3 939.1 772.0 701.8 574.1 376.9 226.4 107.3 93.7 114.9 81.0 100.8 95.3 98.7 96.5 88.2 94.6 105.6 114.6 117.9 118.7 115.6 110.0 126.3 135.2 138.1 141.0 143.7 145.4 147.8 151.0 154.1 155.7 156.8 159.1 159.9 162.1 152.5 151.3 158.2 156.9 156.5 155.4 154.3 153.9 152.4 150.8 149.7 146.2 143.6 139.7 136.0 133.0 131.2 129.9 129.5 129.6 131.3 132.0 131.0 130.6 129.8 129.2 128.6 128.0 121.3 107.9 121.9 118.9 101.7 108.7 120.5 120.0 119.0 119.3 104.7 115.7 121.0 122.0 122.5 123.0 109.7 113.3 121.9 121.1 110.5 103.3 116.3 117.9 113.6 113.6 112.9 113.2 111.9 106.2 90.6 108.8 115.4 118.3 123.5 125.1 125.7 127.3 126.7 127.1 126.5 127.2 128.5 129.7 129.5 129.9 130.8 128.8 129.2 130.3 130.8 125.7 114.4 124.9 132.2 132.2 132.0 130.4 130.5 130.2 129.8 130.3 130.4 131.3 130.0 130.3 131.3 130.9 121.8 116.2 131.6 132.7 133.4 132.6 133.4 134.2 134.0 132.7 132.5 133.0 133.7 134.2 134.5 136.0 137.2 136.5 130.3 114.8 123.9 135.8 134.7 119.7 134.3 135.4 136.0 136.0 135.3 136.1 136.5 137.1 137.0 137.3 135.6 134.5 134.1 133.4 132.9 133.6 127.3 117.7 132.7 134.1 136.8 140.7 144.2 153.9 153.7 156.5 163.4 167.7 164.9 166.9 132.8 129.2 138.9 145.8 147.7 157.3 161.0 172.7 204.6 240.9 198.9 162.9 154.4 133.7 155.6 177.0 185.2 148.0 127.0 126.1 157.2 167.6 157.0 165.1 169.6 180.8 162.5 200.5 197.3 200.9 245.2 197.6 240.6 -9999.0 -9999.0 -9999.0 -9999.0 -9999.0 -9999.0 -9999.0 -9999.0 -9999.0 -9999.0 -9999.0 -9999.0 -9999.0 178.6 277.7 423.7 453.4 545.0 640.6 658.6 629.6 553.1 462.9 494.0 527.2 -9999.0 -9999.0 -9999.0 -9999.0 -9999.0 -9999.0 -9999.0 -9999.0 -9999.0 -9999.0 -9999.0 -9999.0 -9999.0 -9999.0 -9999.0 -9999.0 -9999.0 -9999.0 -9999.0 -9999.0 -9999.0 -9999.0 -9999.0 -9999.0 -9999.0 -9999.0 -9999.0 -9999.0 -9999.0 -9999.0 -9999.0 -9999.0 -9999.0 -9999.0 -9999.0 -9999.0 -9999.0 -9999.0 -9999.0 -9999.0 -9999.0 -9999.0 -9999.0 -9999.0 -9999.0 -9999.0 -9999.0 -9999.0 -9999.0 -9999.0 -9999.0 -9999.0 -9999.0 -9999.0 -9999.0 -9999.0 -9999.0 -9999.0 -9999.0
-9999.0 1239.5 1127.5 1051.1 847.9 639.7 425.0 349.7 326.2 353.2 360.6 364.5 366.3 372.2 378.7 387.1 419.2 602.3 710.1 558.2 390.7 345.5 338.2 332.4 325.1 320.2 320.5 328.6 346.5 329.0 301.4 306.0 315.1 303.1 293.3 318.1 348.1 335.2 299.7 289.8 295.8 303.1 285.6 271.2 269.7 247.1 353.1 480.0 556.1 643.0 778.2 880.8 927.4 967.8 1049.1 917.9 705.6 579.8 495.5 542.4 561.2 512.0 637.0 780.0 924.6 784.5 741.5 858.8 898.6 862.7 866.9 1012.9 995.6 947.1 1022.2 1094.9 989.5 1103.1 1048.4 968.6 1035.8 896.1 748.9 776.5 919.1 1096.2 1223.8 1248.3 1071.9 1031.4 1160.0 1187.5 1110.8 1203.3 1189.6 1065.6 903.8 764.5 687.9 686.1 714.5 687.8 545.2 410.4 307.6 246.3 228.6 223.6 379.2 511.0 475.0 543.5 528.1 483.2 405.8 400.5 408.5 395.5 401.7 387.6 389.4 398.6 484.4 587.1 690.7 693.8 831.6 903.2 957.3 1004.2 1020.9 1022.8 1035.7 1017.9 1012.2 1004.5 984.2 849.7 767.4 625.4 589.7 446.9 273.6 148.1 92.9 104.0 106.7 71.1 74.6 77.4 81.3 82.9 94.2 104.9 108.9 110.6 113.3 116.6 119.5 117.0 109.4 114.6 125.9 134.7 137.4 140.2 142.7 145.8 148.0 150.3 151.6 154.8 155.4 156.1 142.2 146.7 151.0 150.3 149.7 148.7 147.3 146.9 146.0 144.0 142.6 139.2 136.5 133.7 131.2 128.1 125.0 123.5 121.9 121.7 122.5 122.4 118.5 120.2 121.6 121.4 120.7 119.7 119.6 102.6 111.8 107.4 100.6 115.3 116.3 116.4 115.7 112.5 100.0 116.0 119.2 118.3 118.3 119.2 104.8 111.9 119.2 108.5 103.2 116.0 117.6 116.3 114.4 112.8 111.8 111.1 109.8 102.2 91.0 109.9 112.4 113.3 120.2 123.5 123.7 123.9 123.4 123.4 123.5 124.7 125.7 126.2 126.3 126.3 126.2 125.7 127.0 126.9 128.0 114.9 116.5 128.9 129.3 129.0 128.1 127.4 127.1 126.6 127.6 127.2 127.5 127.9 126.5 127.1 127.2 127.0 119.9 110.2 125.6 129.6 130.7 130.3 131.0 134.5 130.8 129.2 129.5 129.4 130.4 131.3 132.2 133.0 132.7 129.6 125.5 111.9 128.0 132.8 134.0 124.6 124.2 133.8 133.8 133.9 134.1 134.7 135.4 134.6 133.3 133.7 134.0 131.9 131.6 130.4 129.9 131.0 124.5 115.1 128.3 129.6 129.4 130.7 137.0 150.5 164.0 169.8 160.2 169.8 157.8 164.9 148.3 114.7 127.8 141.9 144.0 155.2 165.3 175.9 223.1 228.8 181.4 155.6 136.1 146.9 189.2 206.2 165.1 128.5 118.1 148.2 145.9 158.4 174.1 191.9 187.9 159.9 158.9 183.8 167.2 200.0 229.4 184.9 205.5 200.7 241.0 281.2 310.8 326.9 301.9 316.7 307.7 354.7 362.6 384.0 389.9 403.7 290.6 174.1 213.6 290.6 375.8 487.1 578.4 552.4 509.5 452.2 450.9 446.7 446.5 -9999.0 -9999.0 -9999.0 -9999.0 -9999.0 -9999.0 -9999.0 -9999.0 -9999.0 -9999.0 -9999.0 -9999.0 -9999.0 -9999.0 -9999.0 -9999.0 -9999.0 -9999.0 -9999.0 -9999.0 -9999.0 -9999.0 -9999.0 -9999.0 -9999.0 -9999.0 -9999.0 -9999.0 -9999.0 -9999.0 -9999.0 -9999.0 -9999.0 -9999.0 -9999.0 -9999.0 -9999.0 -9999.0 -9999.0 -9999.0 -9999.0 -9999.0 -9999.0 -9999.0 -9999.0 -9999.0 -9999.0 -9999.0 -9999.0 -9999.0 -9999.0 -9999.0 -9999.0 -9999.0 -9999.0 -9999.0 -9999.0 -9999.0
-9999.0 1157.0 1053.9 948.9 941.8 863.4 669.0 460.1 325.0 338.7 347.4 352.8 354.9 357.7 362.1 366.6 376.4 469.6 521.9 383.7 346.6 339.2 336.7 335.5 334.4 348.1 394.0 421.1 415.5 385.1 356.3 348.9 338.3 315.1 282.2 275.7 285.7 289.5 323.3 394.5 479.7 479.4 416.9 305.5 266.6 247.9 319.9 453.0 576.1 697.8 779.6 952.0 1095.0 1141.3 1070.7 865.2 648.0 526.8 644.4 721.2 769.0 656.6 552.5 677.9 889.3 895.3 779.2 894.9 1028.7 1061.5 973.8 1026.2 1121.4 1183.9 1195.4 1236.0 1091.4 1157.5 1187.6 1090.4 1111.2 1008.2 833.1 763.2 824.7 978.0 1113.2 1246.9 1160.4 1111.4 1175.3 1221.6 1183.5 1129.4 1065.5 1025.2 951.2 779.0 594.3 499.5 496.8 450.3 357.7 270.9 240.4 235.8 208.3 279.9 424.5 331.3 377.4 452.8 452.4 453.5 434.2 343.6 321.8 341.7 336.0 321.2 311.0 309.7 314.9 373.6 445.1 606.1 749.0 779.4 786.1 832.2 860.2 915.9 934.9 937.2 946.3 933.7 886.4 748.5 579.9 481.5 424.3 400.2 232.5 122.6 96.7 112.6 78.9 70.1 83.3 89.3 90.3 93.4 97.9 102.4 104.8 107.4 109.9 112.5 115.8 118.2 120.3 118.4 113.7 112.5 120.6 132.5 138.9 140.6 142.6 142.4 145.2 147.6 148.9 149.0 132.5 143.2 143.5 143.4 143.4 143.2 141.4 139.8 138.7 136.5 134.8 132.8 130.3 127.2 124.5 122.9 120.3 118.1 115.5 114.6 114.2 114.6 114.4 114.0 114.3 113.2 113.2 112.7 113.4 104.6 99.4 93.4 106.0 112.0 112.2 113.4 111.7 99.5 104.4 113.9 115.5 116.6 116.3 111.7 99.5 114.6 116.6 101.3 101.7 116.7 115.5 113.5 112.2 111.0 108.8 109.3 107.6 98.1 92.9 109.4 110.6 110.5 114.0 119.9 121.2 121.1 121.3 121.0 121.4 121.2 120.7 122.0 122.0 122.0 122.5 123.5 123.9 124.2 124.7 112.5 117.2 126.6 126.5 125.3 124.7 123.8 123.1 123.1 123.2 124.0 123.5 124.9 124.0 124.2 123.4 123.5 123.0 109.2 109.6 122.8 124.5 125.8 127.5 130.4 131.2 125.9 126.7 127.0 128.2 129.4 129.2 130.0 128.4 122.7 109.9 116.3 128.2 131.2 133.2 129.2 118.2 132.2 131.8 131.7 132.4 135.5 132.9 130.4 131.0 131.1 130.6 130.1 127.9 127.4 127.5 127.9 126.6 109.7 123.0 125.0 126.8 126.4 126.5 126.6 130.0 136.9 139.4 168.0 156.5 146.5 162.7 133.9 115.0 137.2 144.0 159.3 172.0 176.1 180.1 186.3 166.4 141.7 126.7 162.0 201.4 203.4 147.4 110.9 140.9 138.2 141.1 144.1 156.0 173.8 167.9 146.4 161.1 157.5 167.8 185.5 182.8 166.7 194.3 223.1 231.7 272.6 265.5 277.1 227.7 278.3 287.5 269.0 288.0 253.1 262.2 322.1 377.1 374.8 312.8 191.9 193.5 294.5 409.8 518.0 579.0 518.3 425.4 385.3 384.7 -9999.0 -9999.0 -9999.0 -9999.0 -9999.0 -9999.0 -9999.0 -9999.0 -9999.0 -9999.0 -9999.0 -9999.0 -9999.0 -9999.0 -9999.0 -9999.0 -9999.0 -9999.0 -9999.0 -9999.0 -9999.0 -9999.0 -9999.0 -9999.0 -9999.0 -9999.0 -9999.0 -9999.0 -9999.0 -9999.0 -9999.0 -9999.0 -9999.0 -9999.0 -9999.0 -9999.0 -9999.0 -9999.0 -9999.0 -9999.0 -9999.0 -9999.0 -9999.0 -9999.0 -9999.0 -9999.0 -9999.0 -9999.0 -9999.0 -9999.0 -9999.0 -9999.0 -9999.0 -9999.0 -9999.0 -9999.0 -9999.0 -9999.0
-9999.0 954.0 833.9 739.1 766.4 819.6 624.1 371.6 321.0 330.1 348.8 366.0 389.3 385.1 372.2 372.5 372.6 371.3 364.8 357.5 355.3 360.7 369.4 389.4 433.7 448.8 440.1 437.6 431.4 425.7 423.3 446.3 424.1 401.9 381.2 313.1 280.0 283.4 300.6 306.6 520.6 687.1 600.8 465.9 327.5 242.0 299.4 450.1 643.2 821.8 881.8 953.0 1130.1 1169.3 1004.5 805.5 609.2 569.1 768.7 901.1 963.9 893.2 696.4 617.0 814.3 967.5 914.4 880.1 1025.7 1172.1 1109.9 1013.3 1009.5 1139.0 1225.9 1266.5 1150.8 1166.4 1180.9 1059.9 1113.0 1002.2 894.8 760.0 742.2 958.5 1137.5 1147.4 1119.7 1104.4 1048.2 1059.6 997.4 933.5 812.5 733.9 701.0 616.2 497.4 375.7 326.9 303.8 284.3 278.4 293.0 297.7 248.4 214.3 246.9 237.9 269.7 292.9 367.0 406.5 360.4 319.4 289.5 303.3 309.6 281.0 256.8 258.4 247.8 279.1 364.9 435.2 514.7 570.0 571.8 681.0 802.6 845.2 880.6 872.1 838.1 836.3 790.8 637.3 508.1 402.3 308.2 268.4 182.5 125.4 110.9 106.1 64.9 69.6 86.1 87.0 89.9 92.9 96.4 99.0 99.8 101.8 104.7 108.3 110.1 113.4 115.9 119.5 122.0 122.2 117.4 113.4 121.9 131.5 132.8 126.7 135.1 140.1 142.4 141.1 124.2 139.0 135.6 137.0 136.8 135.8 134.1 133.4 133.3 130.9 128.3 126.0 123.2 119.9 117.8 115.7 115.3 112.7 111.0 108.6 107.8 107.7 108.1 107.8 108.2 107.5 107.0 106.1 106.8 100.0 87.5 95.9 108.5 108.8 107.6 105.6 93.4 97.1 111.1 112.9 112.3 113.7 112.7 95.8 106.4 114.5 114.0 104.7 99.9 115.5 112.9 112.1 110.5 108.5 107.1 106.7 104.3 90.3 96.9 107.6 107.9 109.5 111.3 114.6 118.2 117.7 118.5 118.8 119.9 118.1 117.5 118.3 118.1 119.5 121.0 121.1 120.7 122.2 121.7 104.8 116.4 123.4 122.6 122.8 121.8 120.4 120.3 121.0 120.5 120.2 105.5 116.1 120.9 121.4 121.4 121.1 120.6 118.1 100.7 111.9 120.0 120.8 122.5 123.7 125.2 123.8 122.9 123.3 125.2 126.9 127.1 127.4 127.3 116.5 116.3 127.2 130.0 131.5 131.9 129.5 113.1 129.3 130.1 128.8 129.3 129.7 127.8 127.3 126.4 129.0 127.6 126.6 125.7 125.4 126.0 126.5 125.8 112.2 117.4 122.9 122.4 123.2 123.2 122.4 123.0 122.1 126.7 149.0 166.1 152.3 143.3 143.7 109.9 134.2 140.6 160.8 167.3 163.6 166.2 158.9 151.8 127.6 132.2 146.4 156.2 163.2 147.1 113.9 124.6 145.0 153.5 146.6 136.7 139.1 141.2 152.1 162.3 154.0 150.8 155.7 159.2 185.7 174.4 181.6 190.1 211.9 221.2 198.1 205.1 247.2 284.7 245.6 275.2 214.8 240.3 283.3 324.1 396.5 480.5 424.0 217.9 188.0 269.8 366.1 523.9 650.7 517.4 383.9 351.2 338.4 -9999.0 -9999.0 -9999.0 -9999.0 -9999.0 -9999.0 -9999.0 -9999.0 -9999.0 -9999.0 -9999.0 -9999.0 -9999.0 -9999.0 -9999.0 -9999.0 -9999.0 -9999.0 -9999.0 -9999.0 -9999.0 -9999.0 -9999.0 -9999.0 -9999.0 -9999.0 -9999.0 -9999.0 -9999.0 -9999.0 -9999.0 -9999.0 -9999.0 -9999.0 -9999.0 -9999.0 -9999.0 -9999.0 -9999.0 -9999.0 -9999.0 -9999.0 -9999.0 -9999.0 -9999.0 -9999.0 -9999.0 -9999.0 -9999.0 -9999.0 -9999.0 -9999.0 -9999.0 -9999.0 -9999.0 -9999.0 -9999.0
-9999.0 715.3 666.3 625.2 716.2 558.8 381.8 315.9 315.9 352.5 457.4 568.1 637.5 583.2 517.8 424.8 386.6 377.4 368.1 371.9 369.5 384.3 401.7 426.8 451.0 472.6 514.6 556.1 596.2 637.7 676.6 624.2 637.9 642.8 625.7 519.1 469.5 514.7 441.1 289.0 397.0 636.7 742.0 635.5 410.4 241.7 327.6 582.9 787.7 963.3 1055.8 1099.7 1189.6 1063.4 848.3 674.0 606.9 616.2 702.9 882.9 1049.9 976.7 772.6 645.7 786.1 910.5 1055.8 1054.9 1020.5 1175.5 1256.1 1113.8 936.2 863.2 928.1 854.8 880.6 962.0 782.3 716.5 748.2 816.9 914.9 635.1 548.9 772.6 959.4 920.2 827.3 814.9 764.8 759.7 743.0 672.7 591.5 470.0 388.9 327.1 287.0 287.2 301.5 315.7 353.9 429.1 473.8 402.8 294.5 195.9 182.4 195.2 206.8 262.6 329.2 283.6 296.3 298.6 286.9 263.0 282.6 276.0 222.2 212.8 215.5 239.9 299.6 343.2 348.4 346.3 416.9 532.6 665.4 769.3 799.9 786.5 776.7 709.4 644.8 532.7 456.9 361.8 266.3 199.8 160.9 151.8 151.0 109.2 63.0 77.9 86.7 87.6 89.4 91.1 93.5 95.9 96.3 96.9 100.1 104.0 106.3 109.3 112.7 114.3 117.2 119.8 123.5 122.5 119.6 114.5 112.4 115.9 116.2 114.8 119.3 132.3 118.7 132.6 129.7 130.3 130.0 129.1 127.6 126.0 125.9 124.1 121.8 119.9 117.3 113.9 111.1 111.0 109.2 108.1 106.4 103.9 101.9 102.5 101.8 101.9 102.5 102.0 101.0 102.8 96.9 85.1 97.2 103.4 104.0 103.7 86.8 87.4 96.8 108.0 107.9 109.3 110.3 110.2 102.5 94.9 109.8 109.0 93.5 94.9 107.6 112.7 110.4 109.7 108.1 106.2 104.6 104.9 101.3 84.1 101.7 105.1 106.2 107.2 109.6 111.3 115.8 116.1 115.4 114.8 115.6 115.0 114.2 114.8 115.6 115.8 116.9 117.3 118.5 119.4 118.7 103.3 115.7 119.3 119.5 119.2 118.0 117.6 117.5 117.3 117.8 118.5 111.9 101.6 117.6 118.0 118.0 118.0 118.1 117.0 111.1 98.6 106.9 116.3 117.6 117.3 118.8 120.0 119.6 120.5 122.4 125.6 123.9 124.9 125.7 110.0 122.1 130.3 131.3 131.5 131.4 130.1 114.7 116.9 125.9 127.4 128.9 127.5 126.6 125.6 124.5 125.7 124.6 123.6 122.6 122.8 123.9 125.5 124.6 105.9 115.6 122.5 121.7 120.1 119.9 119.6 118.2 119.3 121.6 124.9 130.1 137.3 132.4 147.7 111.8 128.7 133.1 143.2 146.2 157.0 155.4 148.2 142.7 122.1 133.9 141.4 141.4 139.5 135.6 115.8 124.0 185.1 210.1 190.9 169.2 175.6 169.3 190.3 172.9 195.7 183.7 182.0 163.8 196.6 176.5 160.0 178.8 199.1 202.0 192.1 186.2 201.8 228.4 249.0 241.2 263.7 224.8 201.0 263.2 323.4 401.3 480.0 429.2 265.4 165.5 274.7 418.8 535.7 603.7 527.0 367.2 310.6 -9999.0 -9999.0 -9999.0 -9999.0 -9999.0 -9999.0 -9999.0 -9999.0 -9999.0 -9999.0 -9999.0 -9999.0 -9999.0 -9999.0 -9999.0 -9999.0 -9999.0 -9999.0 -9999.0 -9999.0 -9999.0 -9999.0 -9999.0 -9999.0 -9999.0 -9999.0 -9999.0 -9999.0 -9999.0 -9999.0 -9999.0 -9999.0 -9999.0 -9999.0 -9999.0 -9999.0 -9999.0 -9999.0 -9999.0 -9999.0 -9999.0 -9999.0 -9999.0 -9999.0 -9999.0 -9999.0 -9999.0 -9999.0 -9999.0 -9999.0 -9999.0 -9999.0 -9999.0 -9999.0 -9999.0 -9999.0 -9999.0
-9999.0 579.0 581.2 581.0 639.4 384.3 299.2 314.4 390.2 522.0 647.0 716.7 774.3 787.7 799.7 686.9 497.7 387.5 394.8 410.5 436.9 475.2 482.4 484.8 532.2 614.1 709.7 824.1 914.6 952.7 954.1 917.5 951.1 981.0 954.3 866.5 819.6 816.2 653.2 419.5 260.7 369.0 531.0 482.9 331.5 243.6 318.7 566.2 723.2 884.3 1033.5 1164.6 1221.5 1043.5 840.0 655.6 748.6 813.9 688.4 828.2 1003.7 1022.7 839.1 697.9 764.8 898.6 1066.8 1203.9 1159.2 1205.7 1257.1 1049.5 774.0 617.0 679.8 618.4 706.7 835.4 679.0 551.3 602.1 782.7 696.9 535.9 432.5 615.5 824.1 758.9 632.1 527.1 508.7 501.7 488.2 411.8 333.0 283.1 253.8 245.6 272.2 317.4 378.7 465.0 539.1 503.3 437.3 334.0 266.2 226.3 191.4 173.1 190.0 236.0 208.7 201.1 232.1 248.8 271.7 256.4 240.8 241.5 229.0 199.4 176.8 190.6 239.5 276.0 261.7 246.2 315.6 413.4 561.9 618.1 629.4 638.7 681.5 654.6 558.8 426.4 329.6 287.6 222.4 163.5 143.6 149.8 130.9 80.5 64.2 84.7 86.2 87.0 87.4 89.3 91.1 92.7 93.8 94.6 96.7 100.0 103.7 106.2 107.7 109.9 113.3 115.4 118.5 120.1 122.1 123.7 125.0 125.9 126.1 117.2 127.5 122.5 112.0 124.9 123.1 122.8 123.3 121.4 120.9 119.8 118.1 118.2 116.0 113.4 111.6 109.1 106.3 103.8 103.3 97.2 95.7 99.1 97.2 97.9 96.7 97.0 97.8 97.9 94.6 82.6 84.4 95.6 99.3 99.5 101.7 89.0 83.8 92.3 104.3 104.9 105.6 106.6 107.6 106.8 91.3 99.9 105.6 91.6 98.5 107.7 110.8 109.7 108.0 107.0 105.1 103.3 102.9 101.7 96.5 83.3 102.5 103.9 104.9 107.1 108.4 109.9 111.6 112.7 112.1 111.7 111.5 112.2 111.6 112.0 112.7 113.1 113.9 114.8 116.1 116.4 106.2 100.0 115.5 116.4 116.4 115.4 115.2 114.5 114.6 114.6 114.5 114.9 114.3 100.9 107.0 115.5 114.7 115.2 114.9 114.3 113.6 110.4 97.5 99.8 113.9 112.8 113.6 115.7 114.7 115.4 117.2 117.4 118.2 118.1 107.7 106.5 129.1 129.8 127.8 127.3 127.5 127.9 123.9 111.7 123.9 124.1 125.1 124.1 124.0 124.1 123.4 121.9 121.4 121.1 120.0 120.7 121.4 121.8 121.9 112.6 102.6 113.0 119.1 118.2 117.4 116.2 115.6 116.6 121.0 121.8 122.5 124.8 126.5 126.8 110.0 106.5 124.4 128.9 133.2 135.8 140.5 137.4 127.8 116.1 131.6 138.7 138.2 134.1 129.0 111.4 119.6 147.7 180.7 185.2 177.6 158.9 160.9 157.4 158.6 170.8 200.2 181.1 147.4 176.8 147.8 179.7 200.7 178.6 184.4 163.1 182.5 221.2 263.4 262.7 229.1 218.0 229.7 183.5 213.4 249.8 317.4 438.4 546.1 497.3 294.8 173.1 217.2 336.5 457.6 417.8 294.1 345.0 -9999.0 -9999.0 -9999.0 -9999.0 -9999.0 -9999.0 -9999.0 -9999.0 -9999.0 -9999.0 -9999.0 -9999.0 -9999.0 -9999.0 -9999.0 -9999.0 -9999.0 -9999.0 -9999.0 -9999.0 -9999.0 -9999.0 -9999.0 -9999.0 -9999.0 -9999.0 -9999.0 -9999.0 -9999.0 -9999.0 -9999.0 -9999.0 -9999.0 -9999.0 -9999.0 -9999.0 -9999.0 -9999.0 -9999.0 -9999.0 -9999.0 -9999.0 -9999.0 -9999.0 -9999.0 -9999.0 -9999.0 -9999.0 -9999.0 -9999.0 -9999.0 -9999.0 -9999.0 -9999.0 -9999.0 -9999.0 -9999.0
-9999.0 435.7 466.5 487.3 571.1 454.4 299.2 367.2 565.2 692.2 785.3 856.7 910.6 953.4 940.1 779.3 536.7 400.7 433.6 473.8 524.6 563.6 646.4 705.6 592.0 642.7 826.9 1031.9 1195.4 1289.7 1261.1 1260.6 1269.5 1204.0 1080.9 963.0 865.1 724.0 629.8 463.8 251.2 264.0 289.7 272.1 248.2 262.2 354.3 416.5 547.1 711.0 925.7 1146.7 1195.4 991.6 826.6 683.4 777.5 958.7 904.8 781.1 830.1 957.6 978.8 910.0 883.8 858.3 964.0 1137.4 1281.0 1276.7 1084.6 889.0 741.0 578.2 480.3 575.5 646.3 702.1 546.1 476.4 608.7 780.2 614.4 406.0 380.5 530.8 698.4 574.1 440.4 359.6 325.7 306.9 289.4 261.4 244.1 252.9 276.7 319.4 371.0 374.7 485.0 542.9 494.7 394.1 320.9 370.1 401.6 323.3 214.7 178.1 165.8 180.7 182.4 185.1 187.6 194.1 216.3 242.8 220.7 226.5 239.9 231.3 202.8 166.2 176.4 196.9 183.6 218.3 276.1 327.3 395.1 478.8 535.4 549.3 558.6 555.8 478.8 370.0 218.9 220.3 240.5 223.3 146.5 107.7 93.3 74.3 69.7 83.4 85.3 86.0 86.2 87.4 88.1 88.3 87.7 91.7 94.9 95.7 99.1 99.8 102.9 105.7 108.0 111.0 112.6 111.2 116.0 118.4 117.8 119.0 115.7 105.5 121.1 108.5 112.4 118.2 117.8 117.4 115.4 114.6 113.6 112.8 111.5 108.9 108.4 105.7 105.4 103.7 101.0 98.3 85.2 78.8 85.8 93.9 93.1 92.2 92.1 92.7 93.8 86.9 76.4 87.5 96.3 96.1 96.8 94.8 88.2 80.8 94.8 100.9 101.4 102.3 103.6 104.3 104.6 94.2 90.8 103.2 88.8 96.6 107.5 108.5 108.8 107.4 105.7 104.6 102.7 100.7 100.3 98.4 84.6 88.9 101.4 102.1 103.3 106.0 106.8 108.5 108.9 108.7 109.1 109.4 109.7 109.9 109.1 108.9 108.9 109.9 111.0 112.1 112.1 105.6 95.7 107.0 113.7 113.5 113.0 113.0 112.0 111.9 111.6 111.3 111.6 112.7 112.5 107.9 95.6 111.4 113.4 112.7 111.6 111.8 111.3 110.2 108.1 92.5 108.4 110.2 112.8 113.1 112.5 113.1 114.1 114.6 115.5 107.5 103.9 117.0 121.2 120.5 118.2 118.6 120.2 122.1 117.4 109.3 122.3 122.6 121.7 121.1 121.0 119.5 119.9 118.8 119.3 118.8 117.7 118.9 119.1 118.5 118.8 120.0 116.4 99.8 110.0 116.1 115.6 115.9 114.2 115.2 117.5 119.4 121.6 121.2 120.5 120.9 119.8 103.5 111.6 121.0 125.2 126.0 124.4 111.6 111.6 118.2 129.9 133.3 128.1 102.2 105.3 103.3 118.4 135.1 138.6 138.8 146.2 138.2 144.1 173.0 173.4 185.1 201.5 190.2 143.1 137.6 157.5 196.4 174.9 143.7 172.4 208.3 222.9 265.9 249.9 269.1 270.6 246.8 209.3 176.9 165.3 168.0 215.5 320.7 438.1 536.1 517.4 365.6 222.0 167.9 289.7 290.2 448.7 502.9 -9999.0 -9999.0 -9999.0 -9999.0 -9999.0 -9999.0 -9999.0 -9999.0 -9999.0 -9999.0 -9999.0 -9999.0 -9999.0 -9999.0 -9999.0 -9999.0 -9999.0 -9999.0 -9999.0 -9999.0 -9999.0 -9999.0 -9999.0 -9999.0 -9999.0 -9999.0 -9999.0 -9999.0 -9999.0 -9999.0 -9999.0 -9999.0 -9999.0 -9999.0 -9999.0 -9999.0 -9999.0 -9999.0 -9999.0 -9999.0 -9999.0 -9999.0 -9999.0 -9999.0 -9999.0 -9999.0 -9999.0 -9999.0 -9999.0 -9999.0 -9999.0 -9999.0 -9999.0 -9999.0 -9999.0 -9999.0 -9999.0
-9999.0 357.8 369.5 353.6 330.6 317.3 301.5 441.0 598.2 767.6 883.4 986.0 1036.5 1080.1 983.0 756.1 527.7 420.4 483.7 551.2 670.5 713.9 728.3 880.5 809.9 697.2 765.9 968.3 1195.2 1380.4 1535.3 1493.0 1328.9 1058.1 799.2 717.7 607.1 407.5 289.6 239.6 230.0 235.8 240.2 255.2 360.4 435.1 491.0 604.1 601.7 815.2 982.2 1126.3 1227.2 1087.2 876.7 802.1 756.8 861.9 1014.8 1012.9 922.7 893.1 1014.0 1132.9 1145.8 1039.2 1055.1 1165.5 1200.3 1084.3 958.4 751.6 593.8 478.2 422.3 570.9 663.4 544.8 418.5 464.0 664.6 725.2 542.0 385.8 323.4 384.6 518.2 420.4 302.6 280.2 271.1 254.3 246.4 253.4 275.2 306.5 360.1 439.5 434.0 352.6 358.5 388.6 414.5 433.1 320.9 280.9 292.0 301.1 216.5 188.8 166.2 162.2 173.8 175.5 175.6 174.6 172.8 193.4 220.2 204.1 202.0 212.5 201.4 186.4 151.1 184.5 160.1 183.5 195.3 213.4 245.7 303.1 371.8 421.6 448.3 433.0 375.5 286.3 198.7 232.9 234.3 189.2 128.6 98.6 87.0 79.4 62.4 67.1 82.8 84.5 84.9 84.8 86.1 84.4 86.6 89.9 91.3 91.5 93.4 97.3 98.9 102.1 102.3 107.3 107.4 108.0 109.5 110.7 113.1 112.8 111.3 108.5 114.7 105.9 100.1 112.3 111.1 111.8 110.2 106.9 106.6 105.5 104.6 102.9 101.3 99.8 98.3 98.6 95.5 88.3 73.6 85.7 90.1 90.2 90.2 89.0 89.7 89.4 85.2 72.2 87.9 87.1 82.5 79.6 80.1 79.0 87.0 94.0 97.3 100.3 99.7 100.9 101.1 101.5 98.4 84.6 100.8 96.8 91.3 105.4 105.9 107.4 105.9 105.2 103.6 101.9 100.2 99.0 98.4 94.6 77.5 96.4 100.3 100.4 101.7 103.8 105.5 107.1 107.0 106.4 105.9 106.5 105.6 106.6 106.4 106.7 106.7 107.2 108.8 108.5 107.9 92.0 101.3 110.4 110.1 110.1 110.2 110.0 109.1 108.6 108.7 109.1 109.1 106.7 98.0 93.7 92.9 107.8 109.6 109.0 108.6 109.2 108.6 107.7 106.9 93.7 96.5 109.1 109.5 109.3 110.2 111.3 111.9 112.8 113.5 98.3 108.1 114.7 115.3 115.3 113.4 113.2 108.3 101.2 102.2 107.2 119.2 117.7 117.9 117.2 117.4 116.6 116.3 116.7 118.1 116.9 116.8 116.0 116.1 115.7 115.9 117.2 117.7 112.4 98.5 103.5 113.9 112.5 112.8 112.8 114.5 116.3 114.7 113.2 113.6 116.0 108.7 97.9 117.7 122.7 121.5 118.6 105.4 108.2 125.2 126.7 127.1 125.2 115.3 106.4 153.7 137.8 124.6 125.2 151.5 205.8 157.5 135.1 143.8 148.2 149.7 155.5 188.7 156.0 130.8 155.6 181.6 154.2 137.4 162.4 206.8 229.1 231.0 213.1 201.5 270.9 266.2 246.4 225.4 196.3 211.4 189.2 156.8 184.0 235.7 320.1 444.0 403.7 243.5 143.0 220.0 322.6 459.2 575.7 -9999.0 -9999.0 -9999.0 -9999.0 -9999.0 -9999.0 -9999.0 -9999.0 -9999.0 -9999.0 -9999.0 -9999.0 -9999.0 -9999.0 -9999.0 -9999.0 -9999.0 -9999.0 -9999.0 -9999.0 -9999.0 -9999.0 -9999.0 -9999.0 -9999.0 -9999.0 -9999.0 -9999.0 -9999.0 -9999.0 -9999.0 -9999.0 -9999.0 -9999.0 -9999.0 -9999.0 -9999.0 -9999.0 -9999.0 -9999.0 -9999.0 -9999.0 -9999.0 -9999.0 -9999.0 -9999.0 -9999.0 -9999.0 -9999.0 -9999.0 -9999.0 -9999.0 -9999.0 -9999.0 -9999.0 -9999.0 -9999.0
-9999.0 350.3 426.6 288.0 279.6 362.1 554.5 695.4 726.5 701.3 872.0 1050.1 1138.2 1150.3 999.9 786.9 531.3 440.7 487.2 516.8 610.4 823.9 904.1 970.7 1020.4 938.1 921.8 1000.7 1187.5 1401.9 1477.2 1367.2 1207.4 979.2 710.2 499.2 349.4 248.7 231.0 244.2 268.9 295.9 348.8 464.1 631.8 790.6 800.5 823.3 688.9 896.8 1016.8 1167.5 1310.0 1230.1 1015.9 1000.9 984.6 844.4 903.4 1081.0 1130.1 1045.4 995.6 1154.7 1314.0 1309.9 1267.1 1264.5 1178.8 942.6 759.0 639.7 546.9 424.3 363.9 415.3 498.1 399.7 359.6 488.8 605.8 527.7 505.9 450.6 301.8 294.0 304.3 265.5 250.6 246.3 252.0 267.7 294.4 340.2 359.6 334.8 391.9 364.0 318.4 305.7 353.9 456.5 469.3 405.3 333.1 277.5 215.2 216.6 197.3 187.3 178.9 157.8 163.6 169.2 167.3 167.0 166.2 165.1 187.7 199.4 183.9 176.9 169.5 162.1 139.8 147.8 135.0 148.8 147.9 157.1 193.2 234.3 264.3 342.1 336.3 311.9 297.0 200.7 142.8 151.8 127.1 112.5 102.6 90.3 85.4 82.7 72.2 61.7 77.4 82.7 82.4 82.9 82.8 85.3 88.4 87.6 87.2 88.5 91.8 94.0 94.5 97.4 99.7 102.0 101.9 103.4 104.3 106.7 106.6 105.8 104.1 107.2 106.9 104.0 88.1 103.5 104.5 105.8 105.3 101.9 99.6 99.2 98.1 97.1 94.6 93.9 91.7 89.5 83.3 69.9 77.0 87.1 87.3 87.2 85.4 83.4 79.4 73.8 70.5 82.7 84.5 72.9 83.3 88.2 89.9 93.2 95.5 96.3 96.5 98.2 99.0 98.4 96.4 87.0 82.7 85.4 101.7 88.2 91.6 101.3 103.9 104.8 105.0 103.3 101.1 99.0 97.9 97.7 96.8 88.9 78.8 96.4 98.7 100.2 101.4 103.1 104.2 106.6 104.9 104.5 104.1 103.4 103.5 104.5 104.5 103.8 104.5 105.5 105.1 106.2 102.6 90.8 106.6 107.4 107.7 106.8 107.3 106.2 106.3 107.4 107.1 106.9 102.6 89.6 94.9 100.3 105.6 106.8 106.1 106.3 106.2 106.4 105.3 104.6 104.3 101.8 89.1 102.0 107.2 107.2 108.3 109.2 110.2 111.8 107.8 95.9 110.2 112.3 112.2 112.1 110.0 109.1 95.7 105.8 114.4 116.0 116.2 115.4 115.8 115.5 116.2 114.4 113.8 114.8 115.0 114.8 114.5 113.5 113.1 113.6 115.1 114.8 115.9 116.3 114.0 97.7 104.1 111.0 110.5 111.5 111.4 112.7 111.3 110.7 112.0 108.7 95.3 115.7 121.6 121.4 120.5 103.8 104.1 120.8 122.0 119.1 104.4 100.1 108.5 122.6 146.8 188.6 145.3 179.2 217.5 197.6 147.3 130.9 117.5 118.6 116.2 123.3 143.7 127.5 120.9 148.6 161.7 134.2 129.9 143.5 162.9 195.4 164.8 161.0 180.4 220.1 211.8 186.1 202.1 178.7 203.4 203.9 159.1 149.5 163.1 176.5 199.9 172.0 149.5 218.2 301.7 377.9 471.4 571.9 -9999.0 -9999.0 -9999.0 -9999.0 -9999.0 -9999.0 -9999.0 -9999.0 -9999.0 -9999.0 -9999.0 -9999.0 -9999.0 -9999.0 -9999.0 -9999.0 -9999.0 -9999.0 -9999.0 -9999.0 -9999.0 -9999.0 -9999.0 -9999.0 -9999.0 -9999.0 -9999.0 -9999.0 -9999.0 -9999.0 -9999.0 -9999.0 -9999.0 -9999.0 -9999.0 -9999.0 -9999.0 -9999.0 -9999.0 -9999.0 -9999.0 -9999.0 -9999.0 -9999.0 -9999.0 -9999.0 -9999.0 -9999.0 -9999.0 -9999.0 -9999.0 -9999.0 -9999.0 -9999.0 -9999.0 -9999.0 -9999.0
-9999.0 349.4 403.6 270.5 419.6 656.0 822.9 864.3 852.3 744.8 874.6 1051.0 981.0 945.4 999.0 744.5 505.6 490.0 580.9 690.0 633.5 724.6 962.6 1172.5 1300.5 1263.9 1194.6 1224.6 1346.7 1468.3 1321.2 1169.9 1061.0 817.3 553.7 371.4 242.8 286.5 480.8 548.5 584.1 596.0 595.0 651.9 812.4 1041.6 1146.5 979.9 855.2 847.6 1008.4 1107.0 1222.4 1240.7 1068.1 1137.9 1168.5 1045.5 940.7 974.9 1125.0 1208.2 1142.2 1192.6 1282.4 1298.1 1230.8 1059.8 1103.5 992.3 791.3 633.5 523.2 389.5 324.9 321.9 410.6 348.2 330.6 385.2 356.2 281.6 255.4 256.6 260.4 257.2 250.9 262.9 288.1 326.7 349.8 351.8 353.4 408.5 389.6 333.9 315.3 294.5 285.2 379.4 458.0 442.1 396.5 334.8 302.2 256.4 219.8 184.4 192.5 183.8 177.4 170.1 154.1 153.4 163.3 163.1 161.1 160.2 158.1 168.5 171.5 169.4 163.7 154.4 131.7 138.3 125.8 138.0 138.0 140.0 156.5 169.6 174.3 202.6 190.2 164.5 155.6 130.2 117.8 115.6 99.0 93.3 90.5 88.6 86.0 82.7 79.3 62.6 78.8 81.4 82.5 83.4 83.5 85.8 85.9 84.2 86.2 88.4 89.8 92.2 93.7 95.0 95.5 97.4 98.2 98.1 98.8 101.3 98.9 100.5 101.3 102.0 100.7 99.4 83.0 95.9 99.9 99.5 99.6 98.3 96.2 95.3 93.5 92.2 89.8 88.0 72.3 65.6 67.5 77.4 84.1 85.7 84.5 83.6 75.5 65.2 71.2 69.0 68.7 68.9 71.5 78.8 90.8 92.0 92.6 93.0 94.2 96.0 95.5 96.1 91.3 83.4 78.7 83.9 94.7 98.2 93.3 83.6 94.3 83.9 99.4 103.5 102.7 101.0 99.4 97.4 96.0 95.5 94.4 76.3 85.9 95.9 96.6 98.4 100.3 101.1 103.3 103.9 103.5 102.7 101.7 101.3 100.8 101.7 101.9 100.9 102.7 102.6 102.6 101.6 88.5 93.0 104.3 103.7 103.9 103.9 104.1 103.4 103.6 103.5 103.9 103.5 95.8 89.8 103.4 103.9 104.0 103.3 102.7 102.5 103.1 102.7 102.4 102.1 102.3 102.8 95.3 89.2 105.6 105.9 108.2 108.6 108.6 109.6 106.2 93.8 109.6 110.3 109.6 106.3 96.7 92.0 98.6 109.7 111.8 112.2 112.4 112.8 112.6 112.7 112.9 112.3 111.8 111.6 112.5 111.0 112.0 111.7 110.9 111.2 111.9 112.4 112.4 112.5 112.8 108.7 93.1 105.8 109.4 111.6 108.5 108.3 107.8 109.6 100.1 92.9 106.6 115.7 118.7 118.6 117.2 99.2 109.7 118.0 117.3 109.2 93.2 112.1 118.9 119.2 122.1 153.9 186.1 182.2 201.7 201.0 156.6 127.8 111.6 109.2 109.3 111.6 112.3 114.2 115.0 124.5 134.8 123.4 123.3 133.7 149.5 164.0 143.0 159.8 206.2 214.6 190.2 164.2 161.4 175.3 184.0 201.9 152.5 111.8 125.8 122.1 122.3 144.6 160.9 226.9 328.2 375.4 395.9 447.9 -9999.0 -9999.0 -9999.0 -9999.0 -9999.0 -9999.0 -9999.0 -9999.0 -9999.0 -9999.0 -9999.0 -9999.0 -9999.0 -9999.0 -9999.0 -9999.0 -9999.0 -9999.0 -9999.0 -9999.0 -9999.0 -9999.0 -9999.0 -9999.0 -9999.0 -9999.0 -9999.0 -9999.0 -9999.0 -9999.0 -9999.0 -9999.0 -9999.0 -9999.0 -9999.0 -9999.0 -9999.0 -9999.0 -9999.0 -9999.0 -9999.0 -9999.0 -9999.0 -9999.0 -9999.0 -9999.0 -9999.0 -9999.0 -9999.0 -9999.0 -9999.0 -9999.0 -9999.0 -9999.0 -9999.0 -9999.0 -9999.0
-9999.0 335.1 336.1 272.7 438.4 728.0 926.3 1010.4 976.6 906.6 1006.2 1047.9 868.5 746.6 839.3 719.5 552.4 480.6 596.4 831.8 936.2 839.0 944.3 1127.8 1331.7 1417.2 1389.0 1456.2 1472.8 1408.2 1263.6 1074.3 898.8 750.2 620.5 382.6 232.2 318.3 676.4 807.3 909.6 976.4 919.2 923.7 971.1 1142.4 1277.0 1211.6 1096.3 970.6 936.4 1015.6 1095.1 1217.7 1204.2 1199.5 1260.6 1294.0 1163.0 1065.8 1059.0 1195.7 1276.0 1190.5 1043.3 1070.7 1048.8 808.6 791.5 910.9 954.9 825.8 616.5 372.6 292.0 291.3 301.7 298.2 295.2 290.2 256.0 244.4 261.9 291.6 305.6 325.1 356.7 380.3 411.8 433.8 432.5 380.8 303.3 317.8 295.6 291.1 263.1 261.4 307.1 399.1 363.7 332.2 276.4 250.3 243.3 229.2 207.2 174.9 177.1 178.4 173.5 170.1 168.1 152.7 146.4 143.3 147.6 154.5 153.3 151.8 150.3 152.9 157.5 152.0 141.1 125.7 119.5 118.5 121.5 127.2 130.3 131.0 134.4 131.1 122.0 116.0 112.5 106.6 103.7 100.2 95.0 92.5 91.0 89.5 87.4 84.6 82.3 69.2 68.0 79.8 82.8 83.6 84.3 83.2 83.8 85.4 85.6 86.8 87.8 88.5 90.4 90.0 90.2 92.9 93.0 92.7 92.4 89.6 75.6 93.5 93.9 95.4 94.6 93.6 78.1 92.4 92.7 93.8 94.8 95.3 93.0 91.1 89.6 85.9 82.7 71.3 63.5 79.5 82.2 81.5 82.8 83.4 81.8 80.5 63.7 75.7 69.3 68.1 78.4 84.0 84.6 86.9 88.2 91.5 92.1 91.3 92.0 92.5 92.4 81.9 77.7 84.4 94.0 96.6 97.3 93.5 83.3 87.4 98.3 82.6 99.4 100.8 100.8 99.2 97.6 95.5 93.9 94.2 91.1 73.9 92.0 94.7 94.6 96.5 98.5 100.0 102.4 103.4 102.2 101.4 100.5 100.7 100.1 99.9 100.5 100.8 100.4 99.6 92.3 83.0 90.4 99.2 100.5 100.2 101.0 100.3 100.5 100.8 100.4 100.5 99.4 89.6 85.4 93.8 100.7 100.7 100.3 100.5 99.6 99.4 99.3 100.0 100.6 100.0 100.6 101.5 94.0 90.9 103.8 104.6 105.6 106.6 107.0 107.0 99.8 90.8 107.4 105.5 95.1 89.5 94.3 105.0 108.3 109.1 109.3 109.4 109.3 109.2 109.0 109.2 109.7 108.6 109.2 110.1 110.5 110.4 109.9 109.9 111.3 110.0 109.9 110.5 110.2 109.5 109.1 110.1 103.4 89.9 104.0 104.2 103.7 105.1 107.1 104.9 90.6 109.3 112.4 113.6 114.3 115.1 112.9 93.9 109.2 113.5 110.6 107.6 91.3 107.7 114.7 116.4 116.6 119.2 142.3 192.1 246.4 227.4 170.0 139.5 116.3 112.9 110.2 108.2 110.0 110.9 111.7 112.8 116.4 116.8 120.3 132.5 131.4 137.1 162.4 185.0 201.4 179.9 179.0 176.8 156.8 194.6 176.4 163.3 141.7 109.3 145.0 146.7 148.5 150.7 155.4 182.2 238.3 261.1 291.4 333.9 -9999.0 -9999.0 -9999.0 -9999.0 -9999.0 -9999.0 -9999.0 -9999.0 -9999.0 -9999.0 -9999.0 -9999.0 -9999.0 -9999.0 -9999.0 -9999.0 -9999.0 -9999.0 -9999.0 -9999.0 -9999.0 -9999.0 -9999.0 -9999.0 -9999.0 -9999.0 -9999.0 -9999.0 -9999.0 -9999.0 -9999.0 -9999.0 -9999.0 -9999.0 -9999.0 -9999.0 -9999.0 -9999.0 -9999.0 -9999.0 -9999.0 -9999.0 -9999.0 -9999.0 -9999.0 -9999.0 -9999.0 -9999.0 -9999.0 -9999.0 -9999.0 -9999.0 -9999.0 -9999.0 -9999.0 -9999.0 -9999.0
-9999.0 285.0 265.4 295.4 537.5 819.9 960.0 946.1 1065.1 1134.5 1114.3 1061.6 860.9 689.7 599.9 589.1 517.7 516.9 691.5 977.9 1153.6 1174.5 1075.2 968.5 1025.6 1086.6 1151.8 1286.8 1189.9 1118.2 1165.9 1144.8 1038.7 921.7 775.4 510.5 258.5 250.5 448.1 644.4 824.0 1073.5 1217.9 1198.0 1240.8 1278.4 1371.3 1349.3 1238.1 1082.9 1078.1 1117.2 1133.1 1196.7 1254.1 1306.3 1297.4 1382.3 1315.1 1219.8 1174.5 1256.8 1157.7 948.5 803.1 870.8 926.2 746.7 591.9 741.3 834.4 723.3 550.7 351.8 274.3 274.8 277.2 275.9 272.4 259.6 247.3 288.5 335.9 372.9 395.7 418.5 401.1 391.8 431.1 415.3 361.2 319.2 276.4 254.0 252.6 277.6 244.1 313.5 345.5 311.9 273.7 242.9 244.6 215.6 210.3 214.1 197.2 197.7 164.6 172.5 168.5 167.5 165.6 162.4 161.2 154.7 138.8 138.5 141.1 139.5 128.9 135.1 145.6 143.4 140.6 134.8 120.0 113.9 119.2 108.6 118.1 120.7 118.4 115.0 111.4 108.4 106.8 104.0 101.5 99.3 97.0 94.0 91.1 89.3 87.2 84.4 83.0 78.2 61.4 76.8 83.4 84.4 83.3 81.8 81.5 82.8 83.8 84.2 85.2 85.7 85.9 88.6 89.3 89.5 87.9 88.9 87.3 70.2 79.6 89.3 88.1 91.7 88.1 89.5 75.8 82.1 85.1 87.3 88.8 88.6 88.2 85.9 83.1 79.5 73.9 59.3 73.8 80.4 80.0 81.9 81.5 76.1 70.3 74.7 64.9 70.4 69.0 82.6 83.9 84.3 84.7 85.6 87.2 88.5 88.8 88.8 88.7 87.7 74.8 75.2 80.3 76.5 79.2 94.1 97.3 85.2 79.8 98.2 96.1 83.4 99.3 100.1 99.8 98.3 95.9 94.2 93.3 92.7 89.1 71.7 90.6 92.3 93.1 94.3 97.2 99.3 100.6 101.4 100.5 99.2 98.3 98.7 97.9 97.6 98.8 98.5 98.0 91.2 80.4 87.7 96.7 97.5 97.5 98.6 98.0 97.8 97.3 97.4 97.1 91.5 81.4 85.4 95.2 98.2 97.6 97.1 97.9 98.5 98.0 96.7 96.8 97.0 97.4 98.0 99.1 99.6 87.7 94.1 102.0 102.5 103.1 102.9 103.7 104.0 90.0 100.3 102.2 87.2 93.9 102.0 103.5 104.3 105.4 107.0 107.8 107.7 106.5 106.7 106.5 107.4 106.5 106.4 107.2 107.0 107.8 108.7 109.0 108.1 108.2 108.1 109.5 108.7 108.5 108.4 107.7 107.1 106.7 92.6 82.2 96.9 98.8 101.1 103.7 98.9 94.2 108.6 110.2 110.2 111.8 112.4 100.1 92.1 109.1 106.7 103.4 103.3 91.1 98.0 112.7 112.3 113.0 114.2 115.3 121.4 142.7 163.1 147.3 152.8 149.0 136.1 126.8 118.1 108.9 108.8 109.3 110.9 112.8 114.0 116.3 118.7 123.5 140.1 161.7 175.4 213.9 200.2 170.7 150.7 162.6 201.7 197.9 140.9 112.7 130.1 145.7 146.9 149.6 152.4 157.1 169.0 185.2 196.1 213.9 228.0 -9999.0 -9999.0 -9999.0 -9999.0 -9999.0 -9999.0 -9999.0 -9999.0 -9999.0 -9999.0 -9999.0 -9999.0 -9999.0 -9999.0 -9999.0 -9999.0 -9999.0 -9999.0 -9999.0 -9999.0 -9999.0 -9999.0 -9999.0 -9999.0 -9999.0 -9999.0 -9999.0 -9999.0 -9999.0 -9999.0 -9999.0 -9999.0 -9999.0 -9999.0 -9999.0 -9999.0 -9999.0 -9999.0 -9999.0 -9999.0 -9999.0 -9999.0 -9999.0 -9999.0 -9999.0 -9999.0 -9999.0 -9999.0 -9999.0 -9999.0 -9999.0 -9999.0 -9999.0 -9999.0 -9999.0 -9999.0 -9999.0
-9999.0 281.2 375.1 459.4 627.1 669.5 763.6 781.7 962.1 1170.2 1174.0 1167.4 1103.6 927.9 712.4 588.7 517.6 573.3 751.8 973.5 1179.3 1240.9 1049.0 812.2 756.6 821.7 975.1 1080.6 913.5 834.2 917.1 972.0 769.9 658.8 485.2 326.9 228.9 269.4 436.9 615.5 801.5 1018.8 1136.8 1151.9 1187.0 1180.3 1199.5 1259.9 1298.0 1190.1 1165.4 1232.9 1250.3 1288.4 1395.2 1342.2 1400.0 1373.3 1411.3 1403.3 1345.7 1239.6 1027.5 808.6 647.7 723.6 787.9 584.4 472.0 605.8 595.8 424.2 380.3 275.1 256.9 253.7 250.1 242.6 258.2 302.6 339.1 342.3 352.2 370.1 402.7 374.3 343.6 347.1 344.9 342.8 349.4 320.4 327.7 308.3 290.2 247.4 230.0 252.1 271.2 256.0 249.0 243.6 216.2 198.2 180.3 210.1 184.5 205.5 157.2 165.4 163.3 161.9 162.4 162.6 160.4 156.6 153.5 148.3 141.6 161.0 156.8 127.4 124.8 120.9 120.9 124.3 124.1 111.2 111.6 112.3 104.0 101.9 100.6 105.5 100.1 92.3 93.1 96.5 100.1 99.0 96.7 94.0 92.0 89.5 87.9 81.5 75.5 67.1 64.3 65.5 72.2 81.7 81.2 81.1 81.3 81.8 82.8 83.6 84.7 84.9 85.2 87.0 86.0 85.0 84.1 85.7 83.1 65.8 86.5 83.6 84.1 86.0 82.2 86.0 77.9 70.4 83.2 81.1 82.5 82.6 81.7 71.0 59.7 58.5 60.1 66.4 79.5 79.9 79.8 79.5 68.4 61.3 68.8 63.2 61.7 63.8 79.3 82.1 83.2 83.3 83.5 84.4 84.6 85.7 72.8 71.0 72.3 71.6 75.3 79.2 73.6 86.7 90.5 93.5 94.7 77.4 92.0 98.4 94.6 79.9 98.4 98.2 98.6 95.3 93.2 91.8 90.5 89.7 87.5 69.8 83.8 90.0 91.5 92.9 95.4 97.6 99.6 99.3 99.0 98.1 97.3 95.5 95.3 95.4 95.3 93.7 78.1 78.7 90.3 93.6 94.1 94.6 95.5 96.6 94.8 96.0 95.1 95.2 94.6 87.2 87.2 95.9 95.7 95.6 95.7 95.6 95.5 95.6 94.5 94.0 94.0 94.5 95.5 97.0 97.3 96.9 81.2 94.0 100.2 100.1 100.2 99.9 101.0 92.2 85.8 101.2 86.9 94.9 101.7 101.2 101.7 102.1 103.0 104.4 105.6 106.0 104.4 104.3 103.8 103.0 102.3 103.3 104.6 105.2 106.1 106.6 106.3 105.6 106.2 105.6 106.0 106.7 106.8 107.6 105.3 105.5 104.5 99.3 82.9 80.7 94.2 96.3 99.0 84.4 98.1 105.9 107.8 108.3 107.6 108.4 94.7 95.9 107.9 97.1 88.3 85.9 87.2 95.6 108.9 108.8 109.5 109.5 109.7 109.0 109.0 114.7 138.0 166.2 162.8 145.6 135.1 124.2 101.1 97.2 95.9 95.5 98.3 102.3 113.9 120.1 121.9 134.2 136.7 156.1 191.4 211.2 181.2 168.6 157.9 143.5 115.3 103.8 129.3 145.7 149.8 148.9 149.4 153.4 158.9 164.9 164.7 166.4 168.2 175.2 -9999.0 -9999.0 -9999.0 -9999.0 -9999.0 -9999.0 -9999.0 -9999.0 -9999.0 -9999.0 -9999.0 -9999.0 -9999.0 -9999.0 -9999.0 -9999.0 -9999.0 -9999.0 -9999.0 -9999.0 -9999.0 -9999.0 -9999.0 -9999.0 -9999.0 -9999.0 -9999.0 -9999.0 -9999.0 -9999.0 -9999.0 -9999.0 -9999.0 -9999.0 -9999.0 -9999.0 -9999.0 -9999.0 -9999.0 -9999.0 -9999.0 -9999.0 -9999.0 -9999.0 -9999.0 -9999.0 -9999.0 -9999.0 -9999.0 -9999.0 -9999.0 -9999.0 -9999.0 -9999.0 -9999.0 -9999.0 -9999.0
-9999.0 392.8 458.8 480.3 569.4 656.4 684.3 802.8 1014.2 1106.9 992.4 968.6 954.3 897.0 718.7 602.8 515.4 564.6 655.7 807.5 967.4 1103.4 934.7 769.7 627.4 691.8 844.5 864.6 777.9 656.8 857.1 1010.2 772.5 504.8 289.0 229.3 332.6 528.1 695.7 926.3 989.8 942.5 845.8 856.9 901.7 931.0 990.9 1078.4 1244.2 1350.2 1373.2 1414.5 1429.2 1446.4 1455.1 1445.8 1416.2 1453.8 1460.2 1446.0 1375.2 1172.4 929.7 738.6 569.6 514.7 567.8 521.6 377.6 418.3 367.2 279.4 264.3 247.4 233.5 254.7 294.8 318.1 315.6 313.2 324.9 330.8 312.7 313.2 299.2 297.8 296.5 311.8 297.4 330.8 387.7 409.7 418.2 377.3 332.2 257.3 213.7 203.2 227.0 233.6 218.3 215.2 225.0 199.4 169.5 192.4 182.1 217.2 174.8 152.1 157.6 154.4 158.9 158.9 157.1 153.5 152.6 154.0 164.5 179.2 157.0 140.4 137.1 134.1 129.7 124.1 116.5 113.1 108.2 104.1 101.6 105.1 103.8 97.7 97.6 102.2 96.9 83.5 83.4 85.0 88.4 91.1 91.2 85.2 72.2 71.6 74.2 73.9 82.0 64.9 65.2 81.6 82.0 82.6 81.7 81.8 81.7 83.5 83.7 83.8 83.6 85.2 83.5 81.6 81.9 83.7 70.6 65.0 83.2 80.2 81.4 80.9 80.6 82.1 80.4 62.8 74.4 74.9 64.7 65.0 55.9 60.1 70.8 76.2 78.5 80.4 81.3 80.9 79.0 69.2 59.3 67.5 63.9 64.1 73.8 80.0 81.6 81.3 82.2 82.8 83.0 81.1 75.7 71.3 70.1 80.7 83.9 85.5 71.6 74.7 85.1 90.3 91.1 92.1 82.1 78.6 95.0 96.0 92.1 78.1 95.3 96.3 95.4 93.2 92.1 91.3 89.5 88.7 86.3 77.0 71.2 86.5 89.5 91.2 93.2 95.0 97.1 97.7 96.5 95.6 95.3 94.1 93.5 92.9 92.2 92.5 74.8 88.2 90.7 91.1 92.5 95.5 92.2 92.1 92.3 92.7 91.9 92.1 92.8 82.6 87.3 92.9 92.4 92.6 92.9 92.3 91.7 92.4 91.2 91.5 91.8 92.6 93.9 94.9 95.1 92.8 78.0 91.8 97.0 97.1 97.6 96.9 90.7 82.0 95.4 92.8 81.9 95.2 100.0 99.4 98.7 99.0 100.3 101.4 102.0 102.0 101.1 101.7 101.3 101.5 101.4 100.8 101.5 102.5 102.3 103.1 103.1 102.9 102.8 103.3 103.9 104.7 104.2 104.5 103.4 102.3 102.4 98.0 91.5 73.0 82.4 91.7 86.2 80.8 102.7 102.2 103.9 104.9 104.4 103.4 87.6 100.4 100.6 83.8 83.6 96.0 103.2 105.7 106.2 105.4 104.6 105.1 105.2 104.3 103.9 114.2 125.4 123.1 121.5 116.9 113.1 102.2 90.6 113.3 128.7 133.2 131.9 105.6 109.8 119.8 119.8 134.3 130.5 133.4 152.6 167.7 208.9 221.2 171.3 102.9 106.2 125.8 139.5 140.7 147.3 156.5 172.7 162.2 159.8 164.0 164.0 174.3 188.9 197.0 -9999.0 -9999.0 -9999.0 -9999.0 -9999.0 -9999.0 -9999.0 -9999.0 -9999.0 -9999.0 -9999.0 -9999.0 -9999.0 -9999.0 -9999.0 -9999.0 -9999.0 -9999.0 -9999.0 -9999.0 -9999.0 -9999.0 -9999.0 -9999.0 -9999.0 -9999.0 -9999.0 -9999.0 -9999.0 -9999.0 -9999.0 -9999.0 -9999.0 -9999.0 -9999.0 -9999.0 -9999.0 -9999.0 -9999.0 -9999.0 -9999.0 -9999.0 -9999.0 -9999.0 -9999.0 -9999.0 -9999.0 -9999.0 -9999.0 -9999.0 -9999.0 -9999.0 -9999.0 -9999.0 -9999.0 -9999.0 -9999.0
-9999.0 585.1 609.4 678.2 847.9 952.2 970.1 1014.4 1162.5 1185.6 1077.1 1021.1 934.3 767.7 664.4 554.5 631.7 636.8 651.9 815.1 968.3 1090.6 930.5 762.7 615.7 546.5 661.5 638.6 661.9 547.2 743.0 826.5 746.6 461.7 229.2 327.9 520.8 650.9 749.2 921.0 934.9 743.3 731.1 766.4 808.4 901.8 1005.5 1085.5 1190.4 1317.3 1412.4 1517.6 1542.2 1553.5 1514.8 1491.4 1476.2 1488.7 1429.4 1350.9 1237.0 1133.6 1005.1 773.5 592.6 432.3 375.7 382.4 328.2 315.0 300.5 317.1 341.3 294.4 226.9 263.2 302.8 292.6 324.9 294.6 277.6 262.2 271.3 299.2 285.3 275.7 279.9 276.9 332.8 363.7 393.6 387.5 314.0 290.8 276.4 263.0 217.2 193.0 195.8 202.3 208.3 205.9 190.4 170.1 171.9 191.6 173.5 205.5 200.4 154.0 141.1 145.2 153.1 154.5 151.4 149.4 152.1 168.6 172.7 152.8 140.2 135.1 133.8 132.1 130.0 128.4 125.1 123.3 121.0 116.6 108.9 102.4 102.1 97.9 92.2 88.8 88.0 85.7 82.9 79.9 78.4 75.3 75.5 77.0 80.7 86.4 84.8 83.7 78.7 60.4 76.0 81.1 81.5 80.5 80.3 80.7 81.5 81.7 82.6 81.7 82.7 83.0 82.3 80.1 80.5 77.8 60.5 78.0 80.7 77.6 80.0 77.6 78.9 80.1 78.0 69.9 58.0 53.5 53.6 63.5 70.9 78.4 79.2 79.5 80.2 79.6 80.1 77.6 66.7 58.1 60.0 65.6 77.2 81.9 81.6 80.7 76.9 79.3 77.4 73.1 72.9 65.1 68.7 73.9 80.6 84.9 83.0 72.6 71.2 87.1 88.4 89.6 89.6 80.2 73.8 89.8 95.2 94.5 93.2 75.7 84.7 95.6 93.0 91.8 92.6 90.1 88.7 87.0 85.2 80.5 64.0 81.8 83.0 89.0 90.6 92.0 94.7 95.4 95.7 94.5 94.3 93.7 92.3 92.5 90.6 91.3 79.2 76.7 87.9 88.2 88.8 89.9 89.3 90.3 89.6 90.1 90.1 90.4 90.8 81.8 82.5 90.2 90.7 90.7 89.6 89.2 88.8 89.4 89.0 89.9 90.5 90.9 91.5 91.7 92.3 80.2 80.1 93.6 94.2 94.8 95.0 91.4 79.7 95.4 87.6 80.7 91.2 96.8 98.0 97.5 96.5 97.2 97.8 97.8 98.5 98.5 98.3 98.7 98.8 98.8 98.8 99.7 99.2 99.6 99.7 100.9 100.3 100.8 101.3 100.1 99.5 100.3 101.1 101.3 100.6 100.1 101.2 97.7 94.5 86.3 70.1 70.9 72.1 91.6 99.0 101.1 101.0 103.5 103.5 100.6 82.7 93.8 95.9 80.9 89.7 99.9 102.7 102.6 102.7 102.6 101.7 102.6 101.6 100.2 102.0 107.0 108.5 108.8 99.2 91.2 87.7 93.9 103.5 117.4 128.4 135.4 132.9 119.7 119.1 105.3 108.7 127.3 108.9 111.4 122.9 162.1 216.9 197.4 114.6 92.2 117.4 127.1 137.2 144.8 160.5 147.5 180.6 184.9 194.8 201.1 204.4 209.6 193.7 191.4 -9999.0 -9999.0 -9999.0 -9999.0 -9999.0 -9999.0 -9999.0 -9999.0 -9999.0 -9999.0 -9999.0 -9999.0 -9999.0 -9999.0 -9999.0 -9999.0 -9999.0 -9999.0 -9999.0 -9999.0 -9999.0 -9999.0 -9999.0 -9999.0 -9999.0 -9999.0 -9999.0 -9999.0 -9999.0 -9999.0 -9999.0 -9999.0 -9999.0 -9999.0 -9999.0 -9999.0 -9999.0 -9999.0 -9999.0 -9999.0 -9999.0 -9999.0 -9999.0 -9999.0 -9999.0 -9999.0 -9999.0 -9999.0 -9999.0 -9999.0 -9999.0 -9999.0 -9999.0 -9999.0 -9999.0 -9999.0 -9999.0
-9999.0 689.3 825.4 932.4 1075.6 1150.9 1186.3 1226.5 1222.7 1167.1 1152.1 1058.6 954.6 874.7 647.1 604.6 764.1 823.2 792.1 877.6 1043.4 1153.6 997.1 910.3 717.1 539.7 466.9 436.9 423.7 431.7 524.9 556.8 581.5 304.2 226.3 296.6 286.9 348.4 525.0 775.4 780.7 603.7 655.2 780.2 935.3 1006.8 1115.2 1245.9 1338.4 1395.9 1440.2 1427.5 1433.0 1475.2 1529.6 1516.2 1409.1 1334.1 1271.0 1154.6 1029.1 954.2 814.2 655.8 541.4 427.6 341.1 316.2 307.2 346.3 372.8 349.8 313.3 311.2 254.5 217.5 260.5 276.4 311.3 278.9 251.1 261.7 292.8 343.8 369.0 362.8 306.2 266.0 299.7 304.6 321.2 300.1 275.1 243.9 233.6 219.7 203.1 191.6 183.5 187.4 208.4 224.9 222.4 159.4 158.3 190.0 166.9 194.8 197.4 187.7 156.0 130.4 133.0 144.4 147.4 146.4 159.7 180.5 171.9 138.7 132.1 130.5 128.6 127.1 124.9 122.1 122.9 119.6 118.1 116.0 112.7 114.3 110.2 106.9 104.8 102.2 102.0 100.5 96.7 93.3 81.7 75.8 74.4 75.6 76.6 69.7 72.1 68.5 61.4 58.7 58.9 61.9 71.1 79.7 80.2 80.3 81.2 82.2 81.2 81.1 81.9 81.7 80.3 79.6 78.0 60.3 67.7 79.7 78.8 75.9 78.0 75.5 79.3 78.0 75.7 76.1 69.3 51.6 71.0 78.3 77.6 79.8 79.6 80.2 79.2 77.8 77.3 61.4 56.5 73.5 77.5 79.0 80.3 80.4 79.6 63.2 59.6 60.9 62.4 69.8 72.3 78.0 82.7 82.4 82.6 82.1 67.1 75.3 84.1 85.9 87.6 88.1 80.1 74.2 86.1 91.0 93.3 93.0 89.6 74.8 83.8 93.9 92.5 91.6 91.7 88.6 86.8 85.8 84.9 80.6 62.8 78.2 81.6 86.0 88.5 90.3 92.2 93.2 92.6 92.7 92.4 91.7 91.3 90.5 89.4 88.4 87.3 72.4 76.3 85.8 86.1 85.7 86.3 86.5 86.9 87.2 88.3 88.5 86.8 72.2 82.0 88.8 88.4 88.5 87.7 86.7 86.3 87.6 88.2 88.1 88.6 88.9 89.2 89.6 90.0 83.1 72.7 89.9 91.6 91.5 92.7 88.6 80.1 95.7 82.3 77.5 93.9 94.5 95.0 95.0 95.6 94.7 94.8 95.2 95.9 95.7 95.8 96.1 96.1 97.1 97.6 97.2 97.2 97.2 96.8 97.6 97.8 98.3 98.0 97.6 97.6 98.0 97.8 97.5 97.5 96.7 98.9 97.4 95.1 91.4 86.6 71.4 69.6 85.4 93.3 95.8 99.1 101.7 100.4 98.0 80.9 92.6 80.9 82.7 96.5 97.9 98.7 97.8 98.7 99.1 99.1 98.6 97.2 98.4 105.3 107.9 106.8 85.0 87.1 96.2 103.0 107.2 106.9 107.2 117.2 123.2 134.1 123.0 119.2 116.5 110.7 117.2 129.2 124.2 131.4 153.7 173.3 120.8 98.6 97.7 126.6 135.9 142.2 144.2 149.6 142.9 144.2 154.1 155.0 159.3 179.5 181.4 187.7 168.9 -9999.0 -9999.0 -9999.0 -9999.0 -9999.0 -9999.0 -9999.0 -9999.0 -9999.0 -9999.0 -9999.0 -9999.0 -9999.0 -9999.0 -9999.0 -9999.0 -9999.0 -9999.0 -9999.0 -9999.0 -9999.0 -9999.0 -9999.0 -9999.0 -9999.0 -9999.0 -9999.0 -9999.0 -9999.0 -9999.0 -9999.0 -9999.0 -9999.0 -9999.0 -9999.0 -9999.0 -9999.0 -9999.0 -9999.0 -9999.0 -9999.0 -9999.0 -9999.0 -9999.0 -9999.0 -9999.0 -9999.0 -9999.0 -9999.0 -9999.0 -9999.0 -9999.0 -9999.0 -9999.0 -9999.0 -9999.0 -9999.0
-9999.0 751.6 921.6 1024.7 1181.3 1271.3 1311.3 1213.7 1131.2 1084.9 1076.5 1053.4 955.7 740.6 612.4 671.8 759.8 921.7 1076.3 1084.4 1226.2 1361.1 1252.0 1122.0 863.1 811.8 658.8 512.8 465.6 442.4 431.8 368.8 475.6 397.9 236.9 223.1 226.3 260.0 451.1 692.6 645.8 462.7 594.3 756.3 861.7 1003.9 1176.0 1287.0 1367.5 1441.3 1440.9 1392.7 1403.8 1468.6 1449.6 1331.5 1198.4 1151.8 1054.1 963.3 883.9 733.7 658.5 617.0 493.1 372.6 344.6 348.4 323.4 302.8 308.8 314.2 270.9 260.3 257.8 217.1 206.7 225.9 271.2 277.1 258.4 340.9 354.2 362.1 393.2 368.0 321.3 265.9 243.5 255.2 283.2 327.4 297.7 266.4 245.7 249.0 260.4 265.4 226.7 181.1 177.2 203.9 240.7 192.9 141.5 170.7 158.6 184.7 201.4 181.9 171.3 156.6 135.8 129.1 142.6 152.1 165.5 163.1 155.6 132.8 126.3 125.8 124.8 124.5 123.5 120.1 117.9 117.0 115.3 112.5 111.5 109.7 107.9 105.4 102.7 100.0 98.9 98.5 96.5 93.9 91.5 89.5 88.2 84.8 75.2 74.7 73.6 75.9 78.3 77.6 70.4 57.4 57.4 77.9 78.8 79.5 80.6 81.2 80.4 79.9 79.4 78.6 79.2 77.6 71.9 57.2 76.3 78.7 77.4 74.6 76.5 74.5 77.1 76.4 73.9 67.7 57.2 52.5 73.0 77.6 78.0 78.7 78.1 77.9 77.6 77.4 69.4 55.8 63.9 77.5 78.2 78.4 78.7 77.8 69.3 58.5 73.4 75.7 78.2 79.7 80.5 81.6 81.7 81.1 78.9 74.3 67.7 83.5 85.2 85.7 78.1 74.7 70.2 83.1 88.2 89.7 90.9 91.3 77.0 80.2 91.5 92.4 91.6 91.0 89.2 87.3 85.6 83.3 83.7 80.2 62.0 71.5 80.2 84.6 86.7 87.6 89.0 91.0 91.0 90.5 90.8 90.2 89.8 89.8 88.5 87.3 86.8 83.6 71.1 71.8 82.4 84.8 85.6 86.2 85.8 84.9 85.1 85.1 79.0 71.6 85.4 85.1 85.4 86.3 85.4 85.0 85.4 87.0 87.5 87.2 87.2 87.4 87.3 85.7 81.7 74.9 70.0 85.5 89.3 89.8 90.3 79.9 83.1 91.3 82.9 77.6 91.5 92.0 92.3 92.1 92.5 92.3 92.2 92.6 93.9 93.9 93.7 93.7 94.9 95.0 94.9 94.6 94.8 95.4 95.6 95.7 97.4 96.8 96.5 95.5 95.2 95.8 96.0 95.3 94.9 95.0 95.2 94.5 93.8 91.0 89.3 86.6 75.4 71.8 86.7 90.5 94.5 97.1 98.9 96.2 80.0 90.8 80.4 82.1 94.9 95.4 95.7 94.9 95.5 95.2 97.7 95.3 94.3 95.8 97.7 99.1 84.4 82.0 95.1 99.8 100.1 93.9 90.8 93.6 110.3 112.4 114.1 115.5 117.1 118.0 119.8 121.9 123.5 121.9 111.2 106.6 104.2 99.5 89.0 117.9 132.5 137.4 137.6 139.0 137.6 137.3 140.7 174.0 193.0 170.9 189.3 180.9 181.8 182.4 -9999.0 -9999.0 -9999.0 -9999.0 -9999.0 -9999.0 -9999.0 -9999.0 -9999.0 -9999.0 -9999.0 -9999.0 -9999.0 -9999.0 -9999.0 -9999.0 -9999.0 -9999.0 -9999.0 -9999.0 -9999.0 -9999.0 -9999.0 -9999.0 -9999.0 -9999.0 -9999.0 -9999.0 -9999.0 -9999.0 -9999.0 -9999.0 -9999.0 -9999.0 -9999.0 -9999.0 -9999.0 -9999.0 -9999.0 -9999.0 -9999.0 -9999.0 -9999.0 -9999.0 -9999.0 -9999.0 -9999.0 -9999.0 -9999.0 -9999.0 -9999.0 -9999.0 -9999.0 -9999.0 -9999.0 -9999.0 -9999.0
-9999.0 667.5 797.6 904.1 1074.8 1143.6 1306.0 1369.5 1292.9 1285.7 1246.6 1048.9 799.9 668.1 731.7 825.4 925.5 1121.1 1350.2 1460.8 1524.6 1443.0 1291.5 1179.3 1115.6 1022.3 818.5 751.4 659.5 700.7 589.2 370.1 388.9 538.6 467.8 302.2 259.2 220.3 319.6 513.0 519.6 387.5 518.5 594.5 707.1 847.8 1023.8 1161.4 1250.2 1233.9 1168.0 1157.7 1241.9 1384.2 1334.2 1175.9 1018.0 891.6 789.5 792.3 765.9 682.1 554.7 463.1 434.1 418.3 413.3 376.9 316.4 299.2 270.9 259.9 258.5 246.4 240.1 237.2 227.0 211.2 221.2 231.3 261.9 335.6 282.4 289.9 306.9 296.5 272.3 265.2 237.6 252.1 305.6 309.3 316.6 305.9 262.9 250.7 286.9 319.5 300.6 222.0 167.5 166.2 188.2 208.0 149.0 141.4 149.8 162.7 199.3 190.0 164.2 152.1 141.2 125.7 140.1 153.8 153.1 150.1 146.9 125.9 122.4 122.4 121.7 121.9 120.0 118.3 117.1 114.5 113.2 111.1 108.5 105.8 103.1 103.6 102.5 99.3 97.3 95.9 93.9 93.8 90.7 88.3 87.1 85.6 85.5 85.4 82.7 82.0 79.4 78.7 74.1 58.1 62.1 78.0 79.4 79.6 78.7 78.8 78.8 79.0 77.5 77.9 78.3 77.7 63.4 62.5 76.1 75.6 76.0 73.3 75.5 74.8 75.8 67.9 53.3 51.8 58.9 68.3 76.3 77.1 78.3 77.0 76.5 75.4 74.7 60.0 55.3 59.6 75.4 77.7 77.0 77.1 79.0 76.2 72.1 59.0 76.0 79.1 78.6 79.4 80.0 79.9 79.4 70.9 62.2 66.0 71.0 83.3 83.3 69.0 71.8 69.2 73.2 86.2 86.9 88.3 88.6 89.7 80.4 78.1 90.5 90.9 91.4 90.0 87.6 85.2 83.9 82.8 82.5 80.1 69.8 61.5 78.3 82.8 84.4 85.4 86.3 88.7 89.6 89.1 90.4 88.8 88.1 87.6 87.9 86.9 86.1 84.7 82.3 71.3 66.1 83.5 87.6 87.2 84.4 83.0 83.7 83.9 70.8 74.8 83.2 82.9 83.6 83.8 84.4 83.1 83.6 84.0 84.3 84.7 85.2 86.0 84.3 68.8 71.8 78.5 79.8 85.2 87.0 87.5 87.5 76.4 82.2 88.3 80.8 73.0 89.0 89.1 87.4 86.3 90.2 90.4 90.1 90.3 90.9 91.6 91.6 91.5 92.6 93.0 93.2 94.5 92.8 93.1 93.4 93.8 94.5 95.2 93.7 92.8 93.7 93.5 93.8 93.0 92.9 94.9 93.4 92.8 93.1 92.7 89.8 87.5 84.1 69.4 78.0 86.3 90.4 93.5 93.9 93.5 84.8 76.5 74.5 81.0 94.8 103.6 106.6 94.5 92.0 92.5 91.6 91.9 94.7 92.6 89.2 83.7 80.1 85.1 86.4 83.8 85.5 92.7 102.9 108.7 111.0 110.8 111.5 113.6 115.1 116.4 116.6 118.8 118.5 104.2 98.9 98.9 99.8 84.7 100.7 123.0 130.8 132.5 134.4 133.2 131.0 131.0 133.2 138.4 179.1 230.8 214.0 232.3 224.9 208.6 -9999.0 -9999.0 -9999.0 -9999.0 -9999.0 -9999.0 -9999.0 -9999.0 -9999.0 -9999.0 -9999.0 -9999.0 -9999.0 -9999.0 -9999.0 -9999.0 -9999.0 -9999.0 -9999.0 -9999.0 -9999.0 -9999.0 -9999.0 -9999.0 -9999.0 -9999.0 -9999.0 -9999.0 -9999.0 -9999.0 -9999.0 -9999.0 -9999.0 -9999.0 -9999.0 -9999.0 -9999.0 -9999.0 -9999.0 -9999.0 -9999.0 -9999.0 -9999.0 -9999.0 -9999.0 -9999.0 -9999.0 -9999.0 -9999.0 -9999.0 -9999.0 -9999.0 -9999.0 -9999.0 -9999.0 -9999.0 -9999.0
-9999.0 862.6 848.0 867.4 1052.7 1192.4 1325.3 1406.1 1299.8 1228.6 1148.0 890.6 763.3 821.0 833.4 959.0 1105.0 1452.4 1548.2 1507.5 1464.4 1405.3 1276.2 1167.7 1071.0 891.8 726.8 568.3 489.4 489.6 546.9 499.8 339.8 379.0 448.3 374.1 309.2 277.5 242.6 312.3 430.8 326.5 366.6 424.0 533.7 723.0 922.9 1061.0 1042.3 953.1 958.0 1011.2 1123.8 1216.0 1258.6 1172.8 1055.6 896.8 719.2 603.3 603.4 553.3 448.9 394.7 402.9 420.9 361.3 322.2 291.7 270.4 268.5 275.1 282.0 316.1 338.9 333.7 343.6 328.4 258.7 209.7 196.4 231.5 247.4 283.8 327.1 336.9 335.9 312.3 258.8 226.0 246.2 275.3 245.4 225.7 219.9 224.4 259.5 298.8 299.8 245.4 185.1 159.5 166.3 192.0 182.5 137.6 127.4 148.3 170.2 186.7 187.0 156.4 139.9 127.3 139.0 159.5 154.8 135.8 125.8 122.9 120.6 119.5 118.0 116.2 115.0 114.8 112.7 111.3 109.3 107.3 104.1 102.5 101.8 99.9 98.2 96.6 95.1 93.5 92.7 91.5 90.0 87.4 85.6 84.4 82.9 82.5 82.7 80.4 78.8 77.4 62.0 54.3 64.4 77.7 78.0 78.3 76.9 76.3 78.1 77.9 77.0 76.6 76.5 77.4 61.1 69.1 75.5 74.2 72.5 73.9 74.6 75.4 73.6 55.3 62.0 70.6 73.8 75.3 75.9 77.0 75.7 70.8 56.3 55.1 56.0 60.2 65.2 73.1 77.3 76.1 75.6 72.1 61.5 57.4 57.3 64.5 78.4 78.4 77.9 78.7 79.3 79.0 65.6 61.9 73.4 80.7 82.1 83.0 70.4 72.5 84.1 81.1 66.6 79.0 86.3 87.6 88.5 89.5 79.3 74.0 90.1 89.7 90.8 88.8 87.5 85.6 83.9 81.1 81.4 79.2 75.0 57.0 75.1 80.4 82.1 82.5 84.3 87.2 87.8 87.6 87.4 87.2 85.4 86.4 86.1 85.6 84.8 84.0 82.9 84.7 75.1 64.6 80.6 84.1 80.7 81.5 82.1 82.5 72.8 70.7 85.6 82.6 82.5 82.4 82.3 82.5 82.1 82.0 82.5 82.7 82.2 82.6 68.9 72.3 83.1 83.5 83.5 84.6 85.4 85.3 84.3 69.8 79.6 85.5 75.3 72.0 86.1 86.6 85.1 84.4 87.4 87.4 87.6 87.9 88.2 89.4 90.0 89.7 89.6 89.4 90.6 91.8 90.1 91.1 91.3 91.3 91.7 91.5 91.8 90.8 90.7 91.2 91.0 91.2 90.5 91.3 91.3 90.7 90.2 91.5 90.7 88.3 86.5 76.0 69.5 84.6 87.7 89.6 89.8 91.8 86.9 71.7 81.7 108.3 138.8 159.5 132.3 93.0 88.5 88.0 82.3 75.8 76.4 76.2 81.7 89.7 94.3 97.8 98.5 99.2 101.7 103.1 104.3 106.8 108.4 109.3 109.9 110.7 113.4 115.0 116.8 116.5 109.8 102.1 98.2 99.5 101.2 83.0 113.3 123.6 128.3 129.6 130.4 129.2 127.6 128.7 128.7 133.5 145.8 184.3 213.7 200.9 184.2 172.7 -9999.0 -9999.0 -9999.0 -9999.0 -9999.0 -9999.0 -9999.0 -9999.0 -9999.0 -9999.0 -9999.0 -9999.0 -9999.0 -9999.0 -9999.0 -9999.0 -9999.0 -9999.0 -9999.0 -9999.0 -9999.0 -9999.0 -9999.0 -9999.0 -9999.0 -9999.0 -9999.0 -9999.0 -9999.0 -9999.0 -9999.0 -9999.0 -9999.0 -9999.0 -9999.0 -9999.0 -9999.0 -9999.0 -9999.0 -9999.0 -9999.0 -9999.0 -9999.0 -9999.0 -9999.0 -9999.0 -9999.0 -9999.0 -9999.0 -9999.0 -9999.0 -9999.0 -9999.0 -9999.0 -9999.0 -9999.0 -9999.0
-9999.0 1135.8 1098.6 1020.6 1093.6 1158.3 1272.2 1402.9 1372.8 1305.7 1046.3 853.2 957.9 1047.8 1047.5 1229.4 1379.8 1560.4 1520.5 1455.9 1355.3 1272.3 1176.6 1005.7 853.0 784.4 716.9 625.7 633.5 496.7 397.3 404.6 376.8 307.5 288.3 312.8 317.8 302.7 266.4 223.1 278.1 299.1 373.7 490.0 642.6 793.8 907.3 882.5 777.3 732.0 790.8 920.4 1058.8 1054.4 1041.8 1020.3 965.0 861.4 703.7 580.4 515.5 533.2 417.8 337.9 339.4 321.5 308.6 301.1 309.9 329.0 376.0 405.4 404.8 378.9 359.5 348.4 293.6 277.4 273.3 249.2 191.0 204.4 290.7 325.8 289.1 254.4 237.1 224.0 219.3 213.9 228.3 247.1 241.3 206.0 209.1 238.7 272.9 292.2 287.9 281.9 235.8 173.8 152.0 158.3 179.4 171.5 128.6 129.8 161.9 153.1 169.0 173.5 140.6 127.7 124.1 149.5 149.2 143.6 129.1 117.2 116.5 114.0 112.6 111.4 110.5 110.3 109.0 108.7 105.3 103.4 101.2 99.8 99.4 98.8 96.1 94.2 93.2 90.7 88.8 87.9 86.6 85.2 85.3 83.5 82.8 80.7 79.6 78.6 77.6 77.3 63.1 57.9 76.7 76.5 76.1 76.2 76.4 77.2 77.2 77.3 78.0 76.9 75.2 76.3 66.3 56.0 57.2 66.0 57.9 63.6 73.0 74.4 69.9 51.3 65.7 74.3 75.1 72.2 60.2 61.8 57.2 54.5 54.4 61.9 63.5 74.3 76.3 76.3 76.0 75.6 74.4 56.3 63.9 72.3 74.7 77.3 78.1 76.7 75.9 77.2 77.4 75.2 60.2 75.8 79.6 81.2 81.2 82.8 66.7 78.8 79.4 66.0 68.2 80.7 85.1 86.1 85.9 85.2 70.6 84.3 89.9 89.8 89.7 87.7 85.5 83.6 81.6 80.3 79.9 77.9 75.0 56.0 69.3 78.3 78.8 80.1 82.6 83.3 84.0 84.4 84.3 84.8 84.4 84.4 84.3 84.4 83.7 84.6 82.5 83.6 86.3 66.9 74.9 81.3 79.8 80.3 81.5 79.9 74.5 66.6 80.5 80.4 80.9 80.8 81.0 81.7 80.9 80.1 80.7 80.9 80.9 76.2 63.1 76.4 81.3 81.5 82.9 84.1 83.1 83.3 81.3 66.5 82.0 83.0 72.9 68.6 83.2 84.7 84.3 84.4 84.1 83.9 84.2 85.3 85.6 87.0 87.1 87.6 87.8 87.7 88.3 88.7 89.0 89.1 89.7 89.5 90.2 91.0 89.8 88.6 88.4 88.6 89.1 89.2 88.6 89.2 88.9 88.6 88.8 89.8 89.9 89.6 87.9 85.0 73.3 68.9 86.2 88.9 86.4 87.3 81.8 74.2 115.7 113.8 99.3 93.9 90.5 79.1 73.7 72.1 75.9 84.2 88.5 91.0 93.2 95.3 95.9 96.9 97.8 99.5 101.1 101.8 103.0 104.1 106.6 107.2 108.9 110.8 111.5 113.0 113.7 109.7 102.7 99.7 95.6 91.4 88.1 92.1 115.8 125.3 125.2 126.7 125.6 124.7 124.4 124.3 125.4 133.0 137.5 147.9 144.5 146.9 148.5 144.9 -9999.0 -9999.0 -9999.0 -9999.0 -9999.0 -9999.0 -9999.0 -9999.0 -9999.0 -9999.0 -9999.0 -9999.0 -9999.0 -9999.0 -9999.0 -9999.0 -9999.0 -9999.0 -9999.0 -9999.0 -9999.0 -9999.0 -9999.0 -9999.0 -9999.0 -9999.0 -9999.0 -9999.0 -9999.0 -9999.0 -9999.0 -9999.0 -9999.0 -9999.0 -9999.0 -9999.0 -9999.0 -9999.0 -9999.0 -9999.0 -9999.0 -9999.0 -9999.0 -9999.0 -9999.0 -9999.0 -9999.0 -9999.0 -9999.0 -9999.0 -9999.0 -9999.0 -9999.0 -9999.0 -9999.0 -9999.0 -9999.0
-9999.0 1148.1 1272.2 1222.6 1217.2 1221.5 1327.2 1432.3 1476.6 1301.1 1065.4 1083.8 1162.3 1287.6 1461.5 1565.0 1618.5 1583.0 1491.9 1445.6 1308.0 1147.9 1150.9 1138.2 1035.4 996.1 954.4 813.9 758.3 563.7 423.7 353.1 321.4 309.5 290.0 269.6 299.6 288.4 216.8 217.1 238.3 261.5 311.1 406.8 515.1 631.9 718.3 615.1 541.4 644.9 793.7 916.6 944.9 834.6 789.8 815.4 846.1 782.8 683.7 518.2 414.9 414.8 364.6 303.2 286.4 276.6 317.7 382.8 389.4 448.0 445.7 386.9 327.2 304.2 309.4 323.1 356.5 374.5 342.5 282.4 221.8 183.9 187.5 204.2 212.2 209.6 208.7 210.8 209.9 213.8 221.3 231.5 236.2 215.6 208.5 262.0 279.9 276.6 270.5 273.1 265.3 226.1 172.6 145.7 151.3 166.3 131.6 119.9 154.4 143.2 140.4 153.6 148.0 128.6 116.1 144.8 142.4 130.6 118.4 113.2 108.0 107.6 106.2 107.0 107.3 105.1 106.3 105.1 102.6 101.2 100.3 99.2 97.4 95.5 93.9 92.0 92.0 90.3 87.6 86.4 84.7 83.9 82.0 81.4 81.1 79.0 78.8 76.7 76.7 74.7 56.4 65.2 75.6 76.2 74.1 74.5 75.2 77.1 76.9 77.8 78.2 76.6 75.2 74.1 73.5 71.3 62.2 59.7 62.1 52.0 64.8 73.9 72.4 53.6 65.4 73.4 72.8 61.0 61.1 66.6 60.6 62.3 73.8 75.5 75.3 75.5 75.3 75.4 74.8 74.6 72.1 54.0 70.5 73.4 76.2 75.9 75.5 75.0 74.6 75.5 75.5 70.4 59.5 75.9 79.2 79.7 79.9 79.8 64.7 77.5 64.4 73.4 84.8 84.0 83.6 83.7 84.5 69.7 72.7 89.0 90.3 89.7 89.7 87.9 86.9 83.7 81.6 79.5 78.3 77.8 75.4 60.2 61.0 75.5 76.6 77.5 79.5 80.8 81.2 82.7 82.6 82.6 82.1 82.6 82.9 83.3 83.1 83.4 82.0 81.5 80.2 69.3 64.5 80.6 82.0 79.2 80.6 77.8 76.9 60.3 67.4 78.9 79.1 79.6 80.3 80.0 80.4 79.0 78.4 79.5 76.1 61.2 72.2 80.0 80.3 79.3 80.3 80.3 80.4 80.3 80.3 66.7 81.0 80.8 64.1 78.2 81.7 82.7 82.9 82.5 82.8 82.4 83.0 81.5 81.3 84.7 85.6 85.3 86.2 86.0 85.9 87.5 87.3 86.9 86.5 87.6 88.7 88.7 87.9 87.1 86.2 86.2 86.9 87.8 88.0 87.0 86.8 88.3 88.2 88.5 87.4 88.9 87.6 87.1 88.1 72.1 78.9 86.9 85.4 85.8 82.4 68.8 81.6 86.7 84.4 83.8 81.9 69.1 80.6 84.0 89.3 89.8 89.3 90.5 91.3 93.3 94.5 95.8 97.1 98.7 100.3 101.3 103.0 105.1 105.3 106.9 107.4 109.1 110.3 108.8 100.8 92.6 83.7 77.8 83.0 91.4 105.8 114.8 120.4 122.3 123.1 122.5 121.4 120.7 120.8 122.1 124.1 130.5 145.2 149.0 150.0 134.2 137.9 135.0 -9999.0 -9999.0 -9999.0 -9999.0 -9999.0 -9999.0 -9999.0 -9999.0 -9999.0 -9999.0 -9999.0 -9999.0 -9999.0 -9999.0 -9999.0 -9999.0 -9999.0 -9999.0 -9999.0 -9999.0 -9999.0 -9999.0 -9999.0 -9999.0 -9999.0 -9999.0 -9999.0 -9999.0 -9999.0 -9999.0 -9999.0 -9999.0 -9999.0 -9999.0 -9999.0 -9999.0 -9999.0 -9999.0 -9999.0 -9999.0 -9999.0 -9999.0 -9999.0 -9999.0 -9999.0 -9999.0 -9999.0 -9999.0 -9999.0 -9999.0 -9999.0 -9999.0 -9999.0 -9999.0 -9999.0 -9999.0 -9999.0
-9999.0 1082.3 1206.5 1335.0 1390.8 1400.1 1424.5 1389.4 1400.1 1290.4 1115.2 1173.0 1257.5 1389.6 1601.5 1592.1 1462.4 1387.4 1286.4 1238.9 1187.4 1195.6 1268.6 1115.1 845.3 729.4 710.7 696.8 592.7 458.1 378.3 340.5 320.5 299.7 280.2 255.0 263.9 272.3 206.7 219.3 232.7 277.8 318.4 360.5 459.8 584.7 500.3 406.8 505.2 657.6 712.5 698.2 690.4 611.1 598.0 668.5 630.7 600.3 559.9 439.4 350.6 332.3 306.5 287.0 263.4 319.4 385.2 457.2 441.0 396.7 338.0 296.7 292.4 260.5 280.9 255.5 253.2 239.8 219.7 211.5 211.6 199.1 185.7 174.6 198.9 204.9 203.6 207.2 204.8 214.1 221.8 221.0 204.9 201.9 190.0 228.2 259.1 259.2 230.3 230.1 243.0 215.0 170.5 148.1 140.3 142.4 134.4 114.2 138.6 143.9 132.3 136.1 135.6 127.3 109.6 120.5 124.6 120.7 116.4 110.8 107.9 104.6 104.4 103.6 103.1 102.1 101.5 103.1 100.0 97.7 97.1 96.2 95.4 94.6 92.7 92.9 91.5 89.7 87.2 85.7 84.2 82.9 82.7 81.0 78.7 77.8 76.9 76.5 75.6 75.5 65.6 55.3 72.0 72.9 74.0 75.7 75.3 76.6 76.5 77.0 76.8 75.7 74.8 75.0 73.9 72.5 71.9 73.0 71.2 56.4 53.5 71.3 62.4 52.5 69.2 64.2 56.0 57.6 73.4 75.2 75.1 75.2 75.6 75.7 75.1 74.7 67.2 58.6 59.3 62.3 55.0 56.2 74.1 75.0 75.0 75.3 74.5 73.3 73.4 72.0 71.5 65.1 59.6 77.2 78.6 79.1 78.5 68.0 63.6 78.5 63.4 77.6 82.0 81.5 81.1 82.3 83.5 74.9 68.7 81.7 88.1 88.0 87.1 87.3 85.6 82.9 81.3 79.0 76.7 76.3 74.9 68.5 52.7 70.0 71.1 73.5 76.2 76.5 77.4 78.5 79.3 79.3 80.1 80.6 81.6 83.2 82.3 81.2 81.0 80.5 80.4 77.6 63.5 73.2 79.6 78.9 77.7 77.1 70.3 57.8 74.7 77.6 77.6 77.4 77.3 78.9 79.1 78.0 77.7 78.3 66.2 68.2 77.7 79.1 79.3 77.8 78.4 77.9 78.4 79.9 76.8 64.4 78.7 79.5 67.2 71.4 81.4 80.4 80.9 79.9 80.3 81.5 81.1 81.1 80.4 81.9 82.9 82.0 83.8 83.7 84.3 84.6 84.6 85.1 84.9 85.9 86.3 87.5 87.8 84.9 84.6 85.2 85.7 87.2 86.4 85.5 85.3 86.2 86.0 85.2 85.4 86.1 86.5 87.0 88.1 82.0 69.7 85.9 84.5 84.7 85.3 70.8 77.2 83.1 82.9 78.9 66.6 74.8 84.4 84.8 86.1 88.0 88.5 89.8 90.9 91.9 93.5 94.0 95.9 97.6 98.9 101.2 103.1 111.3 112.1 119.0 109.3 107.9 102.4 93.6 73.9 83.4 88.6 94.9 101.9 108.7 111.8 116.9 117.7 117.0 120.3 118.6 117.4 116.8 115.3 120.2 121.8 130.1 137.4 133.6 137.8 146.6 133.0 125.9 -9999.0 -9999.0 -9999.0 -9999.0 -9999.0 -9999.0 -9999.0 -9999.0 -9999.0 -9999.0 -9999.0 -9999.0 -9999.0 -9999.0 -9999.0 -9999.0 -9999.0 -9999.0 -9999.0 -9999.0 -9999.0 -9999.0 -9999.0 -9999.0 -9999.0 -9999.0 -9999.0 -9999.0 -9999.0 -9999.0 -9999.0 -9999.0 -9999.0 -9999.0 -9999.0 -9999.0 -9999.0 -9999.0 -9999.0 -9999.0 -9999.0 -9999.0 -9999.0 -9999.0 -9999.0 -9999.0 -9999.0 -9999.0 -9999.0 -9999.0 -9999.0 -9999.0 -9999.0 -9999.0 -9999.0 -9999.0 -9999.0
