ncols   256
nrows   55
xllcorner    11.0658
yllcorner    42.191804
cellsize    0.005016
NODATA_value -9999
-9999.0 -9999.0 -9999.0 -9999.0 -9999.0 -9999.0 -9999.0 -9999.0 -9999.0 -9999.0 -9999.0 -9999.0 -9999.0 -9999.0 -9999.0 -9999.0 -9999.0 -9999.0 -9999.0 -9999.0 -9999.0 -9999.0 -9999.0 -9999.0 -9999.0 35.2 30.5 35.4 38.7 43.5 57.5 61.1 51.2 63.0 66.7 74.6 117.7 202.4 263.4 273.8 273.4 291.6 323.3 317.5 327.6 324.1 261.8 284.3 263.4 243.8 180.2 147.8 105.5 102.5 114.4 115.1 128.6 154.8 200.8 218.9 206.5 212.9 172.7 127.0 114.5 113.1 125.6 137.6 160.6 195.2 250.7 353.9 419.8 397.0 320.3 245.0 195.1 174.3 177.5 202.4 200.6 201.9 184.0 167.1 209.1 239.6 259.7 283.3 296.5 301.9 270.5 208.9 195.4 223.5 250.5 249.8 224.0 207.9 179.2 146.7 165.9 168.7 187.3 191.5 193.0 226.2 238.7 185.1 140.0 132.9 153.1 168.7 177.4 193.4 203.4 207.2 215.3 215.9 217.0 223.8 224.6 232.7 254.5 289.1 377.6 436.0 384.2 358.5 332.9 310.0 296.7 295.7 269.9 242.2 268.7 255.4 293.4 277.7 264.5 284.2 322.1 334.0 310.9 293.0 317.8 325.6 300.0 314.5 310.7 314.1 321.6 328.3 338.3 322.8 333.4 349.6 334.7 322.2 310.3 289.7 322.0 323.8 313.8 313.1 304.4 297.4 308.0 285.3 298.4 302.1 302.5 282.6 293.6 294.1 288.1 287.5 271.4 286.5 289.7 285.6 307.5 313.8 312.9 316.6 318.6 302.2 339.5 330.9 338.1 329.2 352.3 375.5 392.9 399.7 403.3 397.4 394.0 391.3 385.1 381.0 377.2 370.7 368.4 372.0 370.0 374.9 369.2 373.6 377.9 359.3 377.0 332.1 343.4 393.2 388.9 405.8 380.0 395.5 388.6 356.3 355.4 368.6 356.6 343.3 331.9 335.0 335.2 350.0 351.8 355.7 338.2 355.6 366.9 369.5 344.6 335.1 326.8 305.4 349.2 356.6 342.9 352.9 351.1 354.6 374.4 381.6 371.7 362.5 304.0 219.1 227.4 168.3 141.5 138.2 -9999.0 -9999.0
-9999.0 -9999.0 -9999.0 -9999.0 -9999.0 -9999.0 -9999.0 -9999.0 -9999.0 -9999.0 -9999.0 -9999.0 -9999.0 -9999.0 -9999.0 -9999.0 -9999.0 -9999.0 -9999.0 -9999.0 -9999.0 -9999.0 -9999.0 -9999.0 39.0 34.4 31.3 35.1 35.2 36.1 48.3 53.4 45.7 47.4 55.0 62.6 80.9 131.7 182.8 229.8 233.6 218.4 246.6 264.3 319.5 354.0 291.9 269.2 275.0 254.1 178.2 122.9 93.4 83.9 111.7 133.6 150.3 150.5 175.9 196.3 184.5 160.3 143.9 129.0 114.1 112.1 132.5 146.8 145.2 178.3 231.7 288.5 286.1 305.3 256.2 211.8 184.2 165.7 183.7 186.2 187.5 169.3 146.7 173.4 215.2 219.5 271.9 291.6 267.6 265.5 259.9 198.5 173.0 189.1 194.7 194.2 190.1 174.9 157.5 137.4 152.9 165.7 176.4 173.8 187.8 210.9 211.1 179.1 144.6 122.5 150.9 164.1 170.5 177.3 191.2 199.0 201.2 203.9 206.4 205.8 212.7 220.1 234.7 279.3 334.6 402.7 431.0 431.0 355.4 309.8 288.1 265.6 265.2 221.7 248.9 274.5 277.1 250.8 254.7 285.1 300.3 305.4 275.5 296.7 305.4 293.9 295.4 297.1 297.9 292.2 295.1 318.8 304.1 320.7 335.4 341.8 339.8 334.9 315.2 282.8 309.1 309.9 305.5 302.5 294.6 292.5 295.4 277.7 295.1 293.9 293.1 272.1 279.9 283.9 278.0 274.1 262.9 279.1 269.1 282.7 291.2 295.7 287.9 293.1 299.7 325.4 329.9 324.4 323.8 340.6 365.8 395.2 404.8 404.8 414.9 409.1 393.6 376.7 382.6 378.1 374.5 369.0 373.4 372.5 381.1 386.3 387.3 390.6 394.6 358.1 393.9 391.8 363.6 384.6 403.8 417.3 405.0 416.5 389.7 380.1 376.5 378.3 372.4 361.3 338.3 354.9 343.4 357.4 362.5 355.8 346.4 364.1 363.4 358.0 346.0 343.6 311.7 304.6 321.2 345.2 348.4 353.1 360.8 368.2 373.7 377.6 375.1 358.7 353.3 340.5 329.4 236.6 202.1 170.9 -9999.0 -9999.0
-9999.0 -9999.0 -9999.0 -9999.0 -9999.0 -9999.0 -9999.0 -9999.0 -9999.0 -9999.0 -9999.0 -9999.0 -9999.0 -9999.0 -9999.0 -9999.0 -9999.0 -9999.0 -9999.0 -9999.0 -9999.0 -9999.0 -9999.0 -9999.0 35.3 32.7 33.3 35.2 35.1 35.3 36.9 38.7 48.4 45.3 49.6 54.8 61.2 83.4 116.9 157.0 164.7 162.9 195.7 237.2 218.2 265.6 250.9 225.4 196.8 204.4 152.3 122.3 89.7 80.1 94.6 120.5 162.0 177.8 192.8 173.4 196.6 182.6 139.5 113.1 97.6 94.4 108.0 120.0 151.5 188.4 224.6 238.0 225.4 246.4 257.0 224.3 184.3 161.9 169.9 175.1 170.2 159.5 143.4 166.9 191.5 190.7 242.0 254.1 219.5 242.9 232.8 193.5 152.5 171.6 167.8 175.8 170.8 171.0 147.7 128.8 154.0 165.3 161.9 165.0 177.5 197.9 191.1 159.3 139.5 126.5 153.3 160.7 166.1 170.9 176.4 182.1 186.4 183.6 173.6 182.5 190.4 195.0 203.9 224.5 276.7 337.9 332.8 347.4 338.6 312.7 305.9 254.2 233.5 229.1 262.5 267.1 260.9 245.6 246.7 264.4 280.6 277.3 268.8 287.9 273.0 277.8 296.1 271.1 269.3 288.6 277.1 286.6 306.0 320.3 318.3 334.5 333.6 325.3 315.3 280.4 297.9 298.9 295.1 295.0 287.5 278.4 284.3 272.8 288.5 289.5 280.8 267.5 269.2 273.1 272.6 253.6 257.9 273.2 259.5 276.0 284.3 273.0 280.2 270.6 290.4 291.9 297.8 294.3 324.0 350.9 367.9 392.7 404.8 408.0 406.2 397.9 388.8 370.6 379.7 377.3 374.3 370.1 374.5 378.1 385.7 393.3 398.7 401.9 398.1 374.3 371.3 407.2 404.4 392.6 421.8 425.7 425.9 427.9 403.0 402.1 403.3 396.6 389.2 359.4 372.4 362.4 357.6 376.8 375.7 354.8 363.0 368.3 360.5 355.2 325.8 326.3 333.6 323.6 338.2 315.5 336.6 343.4 352.3 357.9 361.1 365.2 367.7 365.8 364.0 361.4 347.7 327.0 299.8 230.2 -9999.0 -9999.0
-9999.0 -9999.0 -9999.0 -9999.0 -9999.0 -9999.0 -9999.0 -9999.0 -9999.0 -9999.0 -9999.0 -9999.0 -9999.0 -9999.0 -9999.0 -9999.0 -9999.0 -9999.0 -9999.0 -9999.0 -9999.0 -9999.0 -9999.0 38.4 35.1 29.0 34.7 35.0 34.7 33.7 33.1 31.6 32.4 33.8 34.3 42.3 56.6 68.3 88.6 119.6 128.1 183.9 217.8 227.3 186.6 184.2 202.0 236.0 204.8 167.7 116.4 101.4 73.8 83.1 88.1 101.2 112.5 144.6 167.3 128.8 121.2 138.3 126.5 102.9 88.4 93.9 89.6 127.5 171.3 200.5 214.6 223.1 214.6 207.6 199.1 175.3 169.7 164.6 148.8 151.4 146.2 157.7 135.5 149.2 156.2 153.7 171.7 182.7 195.3 205.9 180.5 177.8 144.4 155.7 152.2 160.0 156.3 159.4 144.1 128.9 153.7 156.0 151.1 150.6 156.9 174.1 170.8 149.1 134.8 122.2 150.7 156.6 161.8 167.6 171.2 170.9 162.9 171.5 180.2 182.1 183.0 182.3 184.5 190.0 211.8 241.6 273.0 291.0 291.0 264.8 284.1 264.6 208.0 249.4 252.7 245.0 250.4 226.3 239.2 258.8 266.6 248.4 263.9 271.5 255.8 278.6 272.1 259.2 266.0 273.6 274.7 274.5 302.8 301.3 308.4 332.3 326.0 317.8 310.4 273.1 290.8 286.9 286.7 284.0 276.5 267.0 271.2 272.3 281.9 283.2 273.6 254.3 264.0 269.1 252.0 258.5 254.6 270.0 252.9 273.4 277.9 256.6 276.6 260.7 273.3 279.1 264.2 283.8 318.7 342.7 361.0 383.5 378.9 392.2 392.2 390.5 380.4 370.6 374.3 375.5 376.5 375.0 377.9 381.7 387.1 395.4 402.4 409.3 408.5 388.1 411.7 393.6 419.3 400.8 435.2 443.3 442.7 439.6 424.9 423.0 429.7 414.9 412.4 388.0 388.8 375.1 371.1 395.2 390.8 359.6 380.8 366.0 357.0 347.3 340.8 352.1 327.1 332.6 343.6 327.1 312.8 322.7 326.6 342.3 352.1 356.9 359.7 365.2 354.8 338.0 342.1 334.4 330.4 292.8 -9999.0 -9999.0
-9999.0 -9999.0 -9999.0 -9999.0 -9999.0 -9999.0 -9999.0 -9999.0 -9999.0 -9999.0 -9999.0 -9999.0 -9999.0 -9999.0 -9999.0 -9999.0 -9999.0 -9999.0 -9999.0 -9999.0 -9999.0 -9999.0 -9999.0 35.6 33.4 27.1 29.1 29.6 30.9 33.1 36.3 40.7 45.3 48.3 48.6 48.2 55.7 62.3 69.7 78.5 101.9 149.8 162.0 181.6 152.0 180.7 212.5 192.5 134.5 112.9 93.5 89.1 66.8 80.2 95.0 109.6 141.5 161.4 159.6 128.8 102.8 109.0 97.7 90.4 76.5 88.6 86.9 129.5 159.1 179.7 163.1 150.2 155.4 179.7 171.3 156.1 145.4 157.2 157.9 148.0 139.7 133.5 132.4 140.4 138.2 138.8 148.8 155.3 155.1 150.4 150.6 156.6 141.0 151.1 141.4 144.0 148.2 140.0 121.6 133.1 151.9 143.4 136.4 137.3 151.5 156.6 151.9 149.6 133.0 117.5 140.2 150.1 155.3 157.5 155.2 161.7 171.4 175.8 177.5 178.5 178.3 178.6 178.5 180.1 185.3 201.5 219.5 235.3 242.6 236.4 255.8 212.4 221.8 240.1 241.6 228.2 233.8 226.8 221.9 248.1 244.5 238.2 252.2 254.7 248.0 262.2 247.9 246.4 264.5 258.8 265.1 275.5 279.1 288.0 313.2 315.5 316.9 307.9 294.8 266.5 283.4 279.8 263.6 272.1 258.5 252.6 255.8 270.1 275.2 277.6 263.4 244.6 259.8 262.7 240.7 260.7 245.4 265.6 247.9 257.4 266.4 247.5 267.0 252.0 268.7 270.3 259.3 276.7 295.1 328.5 358.1 380.0 351.7 378.8 383.1 379.5 371.1 357.8 371.3 371.8 372.1 374.1 376.7 382.7 388.7 394.6 402.3 411.4 417.8 396.9 424.5 399.8 424.8 424.4 418.2 457.0 457.3 451.6 444.7 430.1 448.4 437.3 437.7 409.9 416.2 401.5 390.6 415.1 414.5 382.2 390.1 376.5 368.5 348.0 357.8 350.9 332.0 350.2 338.4 341.9 320.0 333.5 344.0 335.1 348.0 349.1 338.8 336.3 321.3 312.0 310.8 313.3 337.6 310.6 -9999.0 -9999.0
-9999.0 -9999.0 -9999.0 -9999.0 -9999.0 -9999.0 -9999.0 -9999.0 199.9 -9999.0 -9999.0 -9999.0 -9999.0 -9999.0 -9999.0 -9999.0 -9999.0 -9999.0 -9999.0 -9999.0 -9999.0 -9999.0 36.1 33.5 28.5 32.3 35.2 38.1 41.2 48.8 49.8 47.0 43.0 40.2 36.8 36.0 37.7 43.0 48.5 52.8 59.1 74.1 91.6 118.6 133.7 117.8 144.6 148.7 107.6 95.4 82.6 97.9 91.6 77.6 95.1 124.5 194.6 232.2 189.1 152.9 103.6 78.2 69.9 70.7 81.8 79.1 81.6 98.9 125.8 131.0 117.1 111.5 114.6 132.0 130.3 136.8 137.0 133.9 149.3 161.5 167.7 142.5 124.3 134.4 115.4 135.4 136.6 145.9 143.0 134.7 129.0 127.8 142.6 136.6 135.4 132.6 136.7 129.9 109.8 137.2 146.4 120.4 131.8 140.6 144.7 146.2 141.3 139.5 130.4 109.7 120.6 118.8 135.2 159.6 164.0 167.7 170.7 172.6 174.2 175.8 176.7 176.1 175.7 176.8 177.5 186.8 193.7 199.3 204.7 224.8 204.5 202.9 222.7 228.3 224.6 218.4 212.7 223.0 210.9 231.7 222.9 239.3 246.6 238.0 249.0 239.2 249.5 240.2 250.3 252.3 227.6 268.1 288.1 289.4 295.5 286.4 290.9 295.3 284.8 263.7 275.3 274.7 253.2 256.3 228.2 257.0 246.7 267.0 265.1 266.5 249.0 247.7 254.3 255.8 237.5 255.1 239.5 258.9 254.7 240.6 238.6 251.4 254.7 244.1 259.9 258.6 253.5 265.7 279.8 314.4 350.3 365.1 330.7 351.7 366.4 360.6 348.3 360.6 365.2 366.4 368.8 371.3 372.4 379.1 384.9 390.1 396.9 407.6 422.0 408.2 430.5 418.2 422.0 441.8 435.2 438.4 466.0 469.8 463.3 448.9 474.1 467.7 473.4 446.7 442.2 430.5 418.3 435.6 448.3 428.7 410.6 381.3 377.5 377.1 368.5 349.4 350.0 359.8 334.9 348.3 322.2 342.0 354.1 355.5 356.9 346.2 339.1 339.8 348.5 354.6 337.5 292.0 319.9 315.3 -9999.0 -9999.0
-9999.0 -9999.0 -9999.0 -9999.0 -9999.0 -9999.0 -9999.0 167.0 240.4 165.0 -9999.0 -9999.0 -9999.0 -9999.0 -9999.0 -9999.0 -9999.0 -9999.0 -9999.0 -9999.0 -9999.0 32.9 30.3 27.3 31.5 32.5 35.9 37.9 42.5 38.7 35.4 34.9 34.8 34.2 34.2 33.0 33.2 33.0 33.1 34.7 37.7 49.1 59.9 70.1 86.5 121.3 151.0 149.9 92.9 78.7 74.2 77.9 74.8 65.6 77.7 99.5 160.3 227.6 186.4 128.4 89.7 68.8 77.1 88.7 99.4 78.8 81.8 97.0 143.2 156.5 118.2 120.3 100.4 97.4 106.6 118.9 144.7 124.5 136.8 155.1 159.7 135.9 107.3 120.6 105.3 123.3 130.7 129.7 130.1 118.5 112.8 129.7 130.5 128.7 142.8 129.5 124.6 112.3 116.5 139.5 118.8 130.8 138.7 134.8 142.5 148.1 139.9 132.4 138.2 109.5 109.4 121.5 113.7 152.2 160.5 163.1 167.6 170.3 173.4 173.3 174.6 173.5 173.3 173.3 176.1 171.4 177.5 176.9 166.4 172.7 173.0 200.7 215.4 212.8 212.5 206.9 195.5 206.6 218.2 230.4 215.4 233.6 232.8 226.5 244.4 230.0 236.5 223.6 244.4 251.6 212.7 268.2 277.7 266.0 266.6 268.1 271.6 266.4 261.7 264.0 266.8 265.9 239.8 247.6 230.3 228.3 254.0 261.7 261.4 261.9 245.5 243.1 249.6 241.9 246.7 251.4 239.1 247.4 243.1 225.5 241.7 247.5 248.4 236.0 237.5 239.7 251.7 257.4 270.0 298.6 296.9 329.8 314.7 326.8 335.0 347.6 358.3 359.5 360.0 361.0 363.5 368.5 373.0 381.5 387.8 393.9 400.3 408.7 424.8 420.5 433.6 442.0 431.8 453.1 458.6 438.2 466.1 488.2 482.8 478.2 542.9 530.0 523.9 474.0 475.9 489.6 481.7 469.3 505.6 479.5 424.6 414.8 405.3 393.5 378.1 354.2 370.1 357.8 337.3 342.2 332.4 353.9 360.2 359.3 348.3 358.8 356.8 355.6 345.5 333.9 324.5 311.3 275.0 262.9 -9999.0 -9999.0
-9999.0 -9999.0 -9999.0 -9999.0 -9999.0 -9999.0 -9999.0 229.5 254.8 198.6 105.2 90.8 180.0 166.8 -9999.0 -9999.0 -9999.0 -9999.0 -9999.0 37.9 40.1 61.9 48.1 47.1 45.6 41.1 35.3 31.8 31.3 31.5 31.2 31.3 31.5 31.7 32.9 33.2 34.4 35.4 33.9 31.6 28.7 36.5 53.2 62.1 80.9 113.0 152.0 130.5 91.6 73.8 72.2 78.5 73.5 54.5 64.9 70.5 102.7 131.6 109.5 95.5 77.0 62.2 103.2 111.5 120.0 88.1 75.1 91.4 111.3 114.1 103.0 108.4 99.9 83.0 92.6 110.3 109.9 109.5 124.7 149.7 141.7 117.4 101.0 120.7 97.6 113.0 123.4 121.9 114.9 104.6 117.9 118.9 107.2 124.0 136.8 128.9 116.0 98.7 128.6 116.6 123.2 135.1 141.2 134.3 152.8 152.7 149.5 128.0 136.0 132.9 129.9 127.8 112.6 143.9 153.8 157.6 163.9 165.0 163.9 167.3 170.6 170.5 170.2 170.1 170.2 158.8 153.5 142.5 152.7 169.6 181.5 193.1 198.6 199.2 184.6 185.5 203.3 187.2 216.8 200.8 219.6 228.6 216.2 230.3 230.3 215.6 205.5 227.9 242.5 243.3 203.0 242.3 256.2 252.0 253.2 260.7 260.0 249.0 247.3 260.6 262.6 263.5 220.3 222.6 232.2 229.3 258.3 253.9 257.0 257.9 240.8 235.4 244.9 228.2 245.4 244.0 233.0 239.8 222.6 223.3 243.1 239.0 238.1 232.0 244.2 241.2 235.6 242.0 248.9 266.3 303.3 318.7 285.3 317.8 339.9 350.7 356.1 356.9 357.9 361.0 364.6 370.1 376.9 380.4 385.5 393.3 401.9 410.2 424.0 437.8 446.9 456.9 442.8 471.5 473.9 481.6 458.6 494.0 535.6 536.4 527.0 564.6 571.7 538.1 545.2 546.8 575.1 532.4 538.1 483.4 456.1 437.9 437.9 399.9 384.9 377.5 370.5 352.8 349.8 350.4 339.1 359.7 362.4 351.8 356.8 365.5 361.7 343.4 320.9 324.0 301.9 292.8 277.7 272.8 -9999.0 -9999.0
-9999.0 -9999.0 -9999.0 -9999.0 -9999.0 -9999.0 212.8 263.2 218.1 153.3 93.2 130.6 190.7 111.7 137.1 170.2 177.7 151.5 132.6 116.2 85.3 99.1 67.4 61.9 72.6 71.0 51.2 35.5 35.6 35.1 35.2 36.1 37.1 41.6 48.7 54.9 58.6 60.5 58.8 53.3 46.2 42.5 53.4 79.2 107.5 153.8 142.2 114.2 103.4 78.3 74.1 78.0 68.6 54.7 47.8 50.3 68.6 80.3 53.6 60.2 71.0 60.6 80.1 84.4 82.9 67.9 74.9 79.4 84.3 87.6 83.9 76.2 88.4 72.7 85.8 93.7 99.4 101.8 127.5 143.7 118.9 105.9 92.3 102.0 95.3 110.9 114.3 112.1 100.6 94.3 115.9 99.7 111.4 125.5 125.1 116.5 104.3 103.4 125.0 107.3 127.2 141.5 143.0 131.2 147.1 144.2 138.2 126.4 130.6 137.2 125.1 129.4 122.2 120.5 144.4 151.7 156.6 159.9 159.8 162.0 167.0 167.4 166.0 165.2 158.5 144.0 131.4 152.3 161.7 171.5 180.3 182.4 182.2 169.6 182.1 201.4 203.8 179.3 193.8 201.8 219.0 220.2 210.0 222.9 218.8 198.2 214.9 226.5 229.4 227.8 197.2 229.8 241.0 246.0 247.4 253.4 249.8 241.2 247.5 257.9 257.2 258.0 218.1 230.5 195.0 236.3 255.9 250.8 247.5 251.6 234.4 234.5 228.3 241.8 240.6 228.0 234.5 228.6 214.3 228.8 242.2 225.5 217.5 226.9 228.9 229.3 233.4 240.0 252.8 267.8 285.6 286.7 269.7 298.1 317.4 338.9 350.3 350.4 351.6 357.5 363.8 366.6 373.6 378.5 380.8 389.6 403.0 415.7 427.2 439.6 456.8 472.1 478.2 491.7 507.4 512.2 502.8 513.4 519.2 543.6 563.4 607.5 623.0 595.3 635.8 671.0 680.1 606.9 550.4 551.0 515.1 490.5 459.2 424.6 413.4 388.9 365.9 364.8 367.8 358.3 342.5 367.3 366.2 349.0 366.9 366.2 354.5 336.5 334.5 312.0 318.5 318.0 316.0 294.9 -9999.0 -9999.0
-9999.0 -9999.0 -9999.0 -9999.0 -9999.0 182.9 295.3 296.1 201.8 132.2 106.7 157.0 187.6 155.1 252.2 271.2 304.4 274.6 263.4 214.8 155.6 113.5 79.3 80.7 85.3 96.9 101.2 40.1 36.1 37.5 43.4 52.3 60.7 65.9 -9999.0 -9999.0 -9999.0 -9999.0 -9999.0 -9999.0 -9999.0 -9999.0 -9999.0 80.7 82.3 111.8 97.3 71.9 70.7 74.1 77.1 73.8 67.9 63.5 59.9 45.0 38.0 54.6 46.3 66.9 72.8 67.3 57.6 57.4 61.5 56.7 69.6 74.0 70.6 63.6 69.3 78.3 82.2 66.5 84.4 90.3 92.0 93.4 100.1 103.7 101.2 95.0 81.9 96.0 80.4 99.0 100.8 86.8 94.9 104.1 108.2 88.7 113.5 116.4 116.0 106.1 90.9 112.6 108.7 112.6 131.3 133.8 135.6 127.6 139.5 132.9 126.0 122.5 124.5 134.4 126.4 121.8 119.8 92.1 128.0 142.6 148.6 156.4 154.3 165.9 168.8 160.6 158.0 154.6 147.0 138.7 127.3 156.4 162.6 167.6 175.0 172.3 164.4 190.8 190.1 198.5 193.5 173.2 186.4 205.5 211.0 212.6 203.8 207.5 189.0 205.8 220.0 216.7 200.9 192.1 223.9 234.0 233.4 234.8 239.9 245.0 244.2 231.2 248.8 251.7 250.7 236.9 195.8 217.4 192.2 240.7 252.9 242.5 242.2 235.2 220.6 225.9 225.1 245.3 237.3 218.0 243.3 214.2 211.0 233.1 240.6 208.5 232.4 245.2 247.0 248.4 250.9 252.7 247.9 248.7 256.8 269.9 286.1 302.2 315.0 325.7 338.5 342.4 345.7 351.0 354.5 354.2 356.3 362.6 378.2 393.2 401.1 407.3 418.5 437.7 458.3 476.0 490.9 506.7 523.0 545.5 554.2 530.4 568.3 588.7 608.5 710.9 757.2 658.0 715.1 775.4 783.7 714.1 661.9 588.2 550.4 528.1 486.3 435.5 396.2 379.6 376.9 376.8 369.6 365.1 348.0 365.1 370.7 352.7 371.8 371.5 348.3 348.4 347.6 339.4 336.6 345.3 327.1 317.4 -9999.0 -9999.0
-9999.0 -9999.0 -9999.0 -9999.0 -9999.0 -9999.0 300.9 340.9 212.9 148.6 136.5 198.2 197.9 159.5 285.5 344.2 392.2 395.9 324.3 232.5 171.9 121.4 100.3 96.7 125.1 148.8 164.5 65.4 53.7 -9999.0 -9999.0 -9999.0 -9999.0 -9999.0 -9999.0 -9999.0 -9999.0 -9999.0 -9999.0 -9999.0 -9999.0 -9999.0 -9999.0 96.0 79.6 69.7 75.2 69.1 68.9 68.1 67.6 70.4 66.8 64.6 64.4 59.6 49.5 37.2 58.3 64.4 65.9 66.1 65.1 64.3 64.0 63.0 54.2 61.5 58.4 69.9 74.1 76.5 78.7 60.9 81.5 79.1 78.8 85.2 87.2 91.5 86.3 74.7 89.6 93.2 87.9 76.1 83.1 85.7 100.6 101.6 90.7 95.6 107.0 104.9 106.7 87.0 97.1 114.2 96.7 115.2 121.5 129.2 123.1 124.9 129.7 113.0 100.5 115.4 124.8 119.5 120.4 124.0 118.6 80.9 125.3 136.1 137.5 140.9 144.7 147.4 151.2 150.8 149.9 146.1 140.8 124.0 139.9 152.9 157.6 151.0 154.4 164.5 180.9 183.9 186.0 190.6 186.4 159.6 188.9 199.9 203.0 205.6 184.6 169.0 199.3 210.1 210.0 200.2 192.1 217.8 226.8 227.0 228.5 234.1 239.2 239.9 233.8 233.4 245.2 246.3 225.6 200.2 191.7 191.6 230.2 245.2 245.0 235.9 238.4 213.2 223.8 213.0 237.1 242.4 227.5 225.0 234.0 205.2 217.8 232.2 218.7 216.5 243.0 244.5 246.2 245.7 244.7 240.4 241.1 248.3 257.6 275.1 282.8 285.0 297.0 317.3 326.7 328.5 326.8 323.3 328.7 336.8 346.7 346.1 358.5 369.7 395.4 418.5 436.7 454.1 461.9 485.1 505.1 527.6 538.2 569.3 606.1 593.0 618.5 697.4 667.5 700.9 757.3 736.0 816.4 914.8 943.2 889.3 777.3 693.9 622.9 575.2 520.5 458.1 434.1 404.9 391.3 384.5 367.7 361.8 367.0 371.1 370.4 350.8 375.0 376.7 358.2 369.0 359.4 350.3 347.8 335.8 328.1 331.9 -9999.0 -9999.0
-9999.0 -9999.0 -9999.0 -9999.0 -9999.0 -9999.0 290.7 340.6 264.3 229.7 222.7 204.9 254.0 206.2 268.8 373.9 444.0 496.4 401.7 347.8 297.0 195.6 178.8 175.8 201.7 170.4 121.2 79.9 -9999.0 -9999.0 -9999.0 -9999.0 -9999.0 -9999.0 -9999.0 -9999.0 -9999.0 -9999.0 -9999.0 -9999.0 -9999.0 -9999.0 -9999.0 -9999.0 125.0 -9999.0 -9999.0 -9999.0 54.0 51.0 50.8 50.9 50.9 49.8 47.7 46.2 43.1 29.3 51.0 58.9 61.8 62.2 61.0 63.3 64.8 65.3 65.7 59.6 50.7 64.8 69.1 72.3 69.4 59.2 75.3 64.8 77.4 79.1 78.3 71.2 70.9 83.6 89.5 86.3 84.0 71.4 73.2 88.9 94.3 91.6 76.7 95.6 96.6 98.9 90.0 87.0 99.7 104.5 91.5 114.4 117.5 121.2 113.0 113.2 99.9 105.2 120.9 129.9 132.4 121.3 101.3 101.5 105.6 92.5 124.4 130.2 130.9 131.8 133.4 134.3 137.3 137.5 137.6 136.2 123.6 118.2 137.3 140.3 140.7 160.3 173.1 173.8 178.2 174.3 177.9 184.5 167.4 166.4 188.3 193.4 191.8 184.7 155.7 177.6 194.1 196.3 200.5 175.3 207.2 220.4 222.7 222.0 227.6 229.7 234.0 236.1 209.6 235.1 235.6 240.8 211.1 183.2 179.6 223.1 242.4 241.2 240.1 232.0 213.7 219.2 214.4 216.4 236.3 233.4 208.8 230.2 217.5 215.2 228.1 212.6 202.2 233.8 238.5 232.2 227.5 236.3 245.8 254.4 262.0 266.9 269.1 273.4 284.6 294.5 300.3 306.6 309.4 300.3 316.2 331.6 339.5 350.4 356.1 365.4 371.3 375.8 383.9 404.1 434.3 464.1 485.5 494.8 514.2 537.0 582.6 642.7 648.2 644.9 660.2 671.9 697.0 718.2 736.1 795.8 916.2 1021.4 1047.1 979.0 863.8 753.5 695.8 635.4 589.7 543.7 456.7 422.7 408.6 386.7 391.9 389.6 391.1 384.8 363.6 360.6 381.6 379.0 365.5 376.1 365.3 360.9 351.0 342.0 339.3 342.6 -9999.0 -9999.0
-9999.0 -9999.0 -9999.0 -9999.0 -9999.0 -9999.0 230.8 287.7 344.5 318.4 289.5 338.7 302.8 286.0 327.6 368.5 441.9 527.9 519.5 453.4 388.3 340.8 291.0 201.7 134.2 103.9 86.9 90.1 -9999.0 -9999.0 -9999.0 -9999.0 -9999.0 -9999.0 -9999.0 -9999.0 -9999.0 -9999.0 -9999.0 -9999.0 -9999.0 -9999.0 -9999.0 -9999.0 -9999.0 -9999.0 -9999.0 -9999.0 -9999.0 -9999.0 -9999.0 -9999.0 -9999.0 -9999.0 -9999.0 57.9 53.5 43.5 31.6 23.7 28.3 46.4 54.9 59.1 62.2 66.4 69.4 68.8 65.6 54.2 54.2 59.1 56.0 68.8 67.9 65.4 74.5 64.8 63.2 74.3 80.4 85.1 87.5 81.2 70.0 78.0 72.5 82.5 87.2 78.2 78.1 88.0 91.8 96.3 81.0 90.2 98.4 85.3 93.9 106.0 110.4 113.1 107.1 92.9 106.0 121.1 127.1 129.8 132.1 121.7 109.4 93.5 71.0 95.8 121.7 119.3 115.4 119.7 121.6 127.7 121.9 118.8 116.6 114.8 122.9 133.3 139.5 147.1 161.9 174.5 176.8 166.9 171.1 166.1 172.0 165.9 149.9 176.2 184.1 182.2 166.4 158.1 175.5 178.2 187.7 182.3 172.0 197.4 209.6 217.9 219.2 222.6 223.7 226.1 229.3 210.2 212.7 227.5 231.8 236.5 219.9 163.5 217.9 236.9 238.1 235.8 232.4 221.9 193.2 217.8 196.6 230.0 228.3 232.9 205.0 222.8 203.8 218.3 218.9 186.1 224.9 225.5 218.1 228.6 237.1 240.8 247.9 252.9 257.1 263.0 271.4 278.3 272.1 279.5 279.5 284.1 291.9 304.8 310.7 318.3 323.3 331.9 341.6 353.6 360.2 371.7 382.3 404.2 439.6 455.0 486.5 528.5 545.0 561.5 600.1 734.3 807.3 770.2 703.5 709.8 711.0 726.7 756.8 818.8 939.7 1061.5 1065.7 996.1 897.0 816.4 766.3 672.0 588.1 520.4 486.7 450.6 416.5 424.8 418.8 410.3 400.0 379.3 367.8 381.3 389.9 384.7 383.3 377.9 365.9 356.7 342.9 341.5 324.1 332.2 -9999.0 -9999.0
-9999.0 -9999.0 -9999.0 -9999.0 -9999.0 -9999.0 -9999.0 236.1 357.5 387.7 398.3 388.9 336.0 327.6 327.4 371.3 442.1 483.9 521.4 559.1 458.6 399.8 307.4 194.4 140.1 95.3 58.5 68.0 -9999.0 -9999.0 -9999.0 -9999.0 -9999.0 -9999.0 -9999.0 -9999.0 -9999.0 -9999.0 -9999.0 -9999.0 -9999.0 -9999.0 -9999.0 -9999.0 -9999.0 -9999.0 -9999.0 -9999.0 -9999.0 -9999.0 -9999.0 -9999.0 -9999.0 -9999.0 -9999.0 -9999.0 -9999.0 -9999.0 -9999.0 -9999.0 -9999.0 24.5 15.3 36.5 49.7 56.9 58.4 66.8 68.7 68.3 65.6 62.0 51.5 61.2 55.2 68.2 64.7 61.3 74.8 78.2 77.3 79.3 85.0 82.2 62.6 78.7 63.9 81.1 84.0 66.6 79.7 86.5 91.2 91.8 76.0 86.5 85.6 87.5 98.9 102.1 104.3 107.2 96.6 92.1 114.2 118.4 118.1 118.2 125.3 129.6 114.0 86.1 69.9 78.3 116.5 88.1 110.6 114.1 115.1 113.6 116.7 112.4 117.2 120.0 140.4 148.3 153.8 157.8 163.1 175.4 190.3 162.4 161.7 158.5 151.8 139.7 165.0 176.2 175.5 169.3 149.3 158.2 157.2 165.1 168.1 168.3 188.5 197.6 210.1 217.1 216.3 217.6 219.1 216.2 182.6 193.1 225.2 220.1 229.1 230.3 217.0 166.3 213.2 232.4 230.5 230.1 219.7 197.9 189.8 195.8 220.6 227.3 223.3 222.1 199.2 214.9 188.8 211.7 192.0 215.6 219.0 220.0 234.1 239.7 233.0 237.5 240.9 247.6 254.6 261.9 265.8 259.7 266.5 256.3 267.4 266.7 258.3 282.7 304.9 311.3 319.3 327.0 336.5 346.8 361.0 377.8 395.1 428.3 460.6 487.3 499.6 508.3 548.5 588.3 615.2 650.3 719.9 738.8 738.1 746.0 755.0 765.4 796.6 829.8 880.5 938.3 984.5 990.3 889.0 791.2 726.0 682.6 611.3 544.2 499.4 457.4 442.9 432.2 419.2 418.1 402.9 386.7 393.2 396.7 395.3 390.0 370.5 360.9 352.2 337.1 321.6 313.3 309.4 291.3 -9999.0 -9999.0
-9999.0 -9999.0 -9999.0 -9999.0 -9999.0 -9999.0 -9999.0 279.9 324.1 309.4 324.2 359.8 339.6 316.6 276.8 321.7 354.3 379.5 479.2 585.9 504.8 437.2 349.1 232.9 135.4 101.0 87.6 93.8 -9999.0 -9999.0 -9999.0 -9999.0 -9999.0 -9999.0 -9999.0 -9999.0 -9999.0 -9999.0 -9999.0 -9999.0 -9999.0 -9999.0 -9999.0 -9999.0 -9999.0 -9999.0 -9999.0 -9999.0 -9999.0 -9999.0 -9999.0 -9999.0 -9999.0 -9999.0 -9999.0 -9999.0 -9999.0 -9999.0 -9999.0 -9999.0 -9999.0 -9999.0 -9999.0 -9999.0 -9999.0 -9999.0 55.9 49.8 50.5 56.1 63.6 67.6 65.1 61.0 54.1 52.8 52.0 66.3 72.2 76.6 71.8 78.0 81.0 80.2 61.0 71.3 66.9 75.7 63.1 69.7 80.5 84.7 84.2 89.4 80.3 72.9 73.3 92.6 94.1 95.2 101.1 100.2 86.6 92.2 103.4 106.7 108.2 115.5 120.4 126.9 113.1 95.3 83.1 65.4 90.6 82.8 118.9 124.4 124.4 118.5 115.6 122.5 131.1 136.9 143.3 148.3 148.7 150.3 159.3 173.1 177.3 151.6 149.1 134.9 137.7 158.8 164.2 161.2 145.9 144.4 142.1 156.1 172.9 199.6 192.1 186.7 195.1 206.0 217.2 213.4 210.1 214.1 217.1 202.0 172.8 197.0 213.9 213.7 221.4 223.4 220.6 166.6 205.2 223.1 226.2 222.8 211.5 176.2 201.9 222.0 225.8 227.6 217.1 209.4 201.1 196.6 206.0 220.9 182.5 208.5 208.1 228.2 231.1 225.7 225.0 229.1 239.1 249.0 247.7 238.3 233.0 243.9 256.8 274.3 275.5 282.9 297.9 306.2 314.1 324.6 335.2 344.9 355.2 354.1 357.1 378.2 397.5 424.0 453.9 491.4 522.2 548.7 562.6 599.6 640.9 667.8 695.5 723.0 746.8 764.7 778.5 785.4 806.8 825.3 860.7 900.3 934.1 902.6 791.5 712.2 710.8 653.0 573.6 535.6 509.2 489.9 478.6 461.8 448.1 423.9 411.5 409.4 407.6 377.3 367.3 386.1 388.6 376.3 361.5 354.1 350.8 349.1 346.7 338.5 -9999.0 -9999.0
-9999.0 -9999.0 -9999.0 -9999.0 -9999.0 -9999.0 -9999.0 -9999.0 -9999.0 -9999.0 -9999.0 -9999.0 277.8 302.6 238.3 292.8 271.7 284.9 366.1 550.2 573.6 491.5 387.0 267.8 180.0 117.4 101.2 91.0 -9999.0 -9999.0 -9999.0 -9999.0 -9999.0 -9999.0 -9999.0 -9999.0 -9999.0 -9999.0 -9999.0 -9999.0 -9999.0 -9999.0 -9999.0 -9999.0 -9999.0 -9999.0 -9999.0 -9999.0 -9999.0 -9999.0 -9999.0 -9999.0 -9999.0 -9999.0 -9999.0 -9999.0 -9999.0 -9999.0 -9999.0 -9999.0 -9999.0 -9999.0 -9999.0 -9999.0 -9999.0 -9999.0 -9999.0 -9999.0 -9999.0 -9999.0 -9999.0 50.0 49.6 55.5 62.0 64.0 57.5 54.2 67.0 72.2 66.9 73.5 77.4 78.0 68.7 58.3 55.5 60.1 73.8 79.1 78.9 71.5 83.3 89.4 82.5 66.8 82.5 89.2 88.4 92.9 96.3 95.2 72.4 88.1 95.8 102.6 111.8 116.1 119.5 123.5 126.7 119.1 89.9 76.9 66.5 93.7 119.5 124.7 124.9 109.8 127.4 129.8 131.7 134.6 138.4 140.2 141.4 148.8 156.4 161.4 152.5 130.5 122.2 141.4 152.5 139.0 144.1 150.0 150.0 155.1 147.2 173.3 191.0 210.3 213.3 198.3 203.3 208.1 210.2 207.6 206.9 211.4 213.6 212.4 182.2 168.6 204.6 205.5 214.4 218.2 220.6 161.5 204.8 207.8 218.8 212.8 194.5 189.1 214.0 222.3 223.4 220.5 212.0 199.3 187.1 198.5 215.4 218.5 177.1 195.3 212.9 214.4 212.2 210.8 225.6 230.7 216.2 219.2 233.6 255.9 259.2 267.9 273.4 277.9 280.8 281.6 287.8 295.5 312.1 323.9 334.2 345.0 353.4 370.3 381.4 377.3 402.0 432.4 461.7 486.1 515.7 550.6 590.0 608.7 640.5 668.9 707.2 733.5 760.8 771.7 789.3 800.4 809.4 817.2 838.5 853.3 841.7 782.1 719.5 658.1 617.4 574.3 541.2 521.3 501.6 470.3 451.5 452.7 444.1 437.1 426.0 399.7 375.3 385.9 388.1 359.6 363.6 377.5 368.5 359.0 344.3 327.9 319.6 309.7 -9999.0 -9999.0
-9999.0 -9999.0 -9999.0 -9999.0 -9999.0 -9999.0 -9999.0 -9999.0 -9999.0 -9999.0 -9999.0 -9999.0 -9999.0 -9999.0 163.7 151.4 210.5 243.4 326.2 446.9 591.4 546.9 434.6 309.9 222.0 147.3 -9999.0 -9999.0 -9999.0 -9999.0 -9999.0 -9999.0 -9999.0 -9999.0 -9999.0 -9999.0 -9999.0 -9999.0 -9999.0 -9999.0 -9999.0 -9999.0 -9999.0 -9999.0 -9999.0 -9999.0 -9999.0 -9999.0 -9999.0 -9999.0 -9999.0 -9999.0 -9999.0 -9999.0 -9999.0 -9999.0 -9999.0 -9999.0 -9999.0 -9999.0 -9999.0 -9999.0 -9999.0 -9999.0 -9999.0 -9999.0 -9999.0 -9999.0 -9999.0 -9999.0 -9999.0 -9999.0 -9999.0 -9999.0 54.5 51.3 48.8 60.3 64.4 64.2 65.6 70.0 71.4 70.5 75.2 67.2 55.5 74.3 79.8 81.0 65.4 72.4 83.1 82.3 65.7 76.7 84.1 82.7 85.4 88.3 82.7 71.7 79.8 95.6 102.8 102.4 105.9 110.5 116.1 119.6 122.2 122.6 104.6 89.3 67.5 99.9 120.0 122.7 120.2 114.8 126.8 122.8 126.9 130.0 131.4 139.4 149.2 156.2 152.7 141.7 123.9 123.5 141.5 154.9 131.0 135.7 161.2 166.7 189.9 183.4 150.1 177.5 189.7 193.2 200.5 202.6 197.3 206.2 207.1 204.6 205.2 208.5 210.7 206.5 182.1 161.8 184.4 196.2 200.9 215.6 208.9 164.7 165.0 183.5 191.9 186.7 178.6 220.2 224.4 224.3 219.5 213.3 208.1 180.9 200.9 209.5 213.8 196.8 173.2 189.5 186.1 194.1 201.2 198.3 195.3 203.5 229.9 242.5 252.9 257.2 259.0 256.5 260.1 269.9 281.2 289.1 299.2 309.4 314.4 323.8 326.9 338.6 359.4 366.7 372.7 400.0 417.7 435.5 468.4 500.5 542.0 570.7 592.6 626.4 658.2 700.9 720.3 742.1 772.2 793.2 799.6 809.9 819.3 821.5 813.9 803.4 802.0 782.5 759.8 690.9 627.2 608.0 585.4 520.3 486.7 490.1 488.0 445.5 429.5 412.2 405.8 391.3 388.4 381.1 375.6 374.1 359.8 340.3 348.0 355.5 348.4 338.7 331.0 322.0 -9999.0 -9999.0
-9999.0 -9999.0 -9999.0 -9999.0 -9999.0 -9999.0 -9999.0 -9999.0 -9999.0 -9999.0 -9999.0 -9999.0 -9999.0 -9999.0 -9999.0 122.1 188.8 205.3 270.1 400.5 567.4 521.8 425.8 272.8 -9999.0 -9999.0 -9999.0 -9999.0 -9999.0 -9999.0 -9999.0 -9999.0 -9999.0 -9999.0 -9999.0 -9999.0 -9999.0 -9999.0 -9999.0 -9999.0 -9999.0 -9999.0 -9999.0 -9999.0 -9999.0 -9999.0 -9999.0 -9999.0 -9999.0 -9999.0 -9999.0 -9999.0 -9999.0 -9999.0 -9999.0 -9999.0 -9999.0 -9999.0 -9999.0 -9999.0 -9999.0 -9999.0 -9999.0 -9999.0 -9999.0 -9999.0 -9999.0 -9999.0 -9999.0 -9999.0 -9999.0 -9999.0 -9999.0 -9999.0 -9999.0 -9999.0 -9999.0 62.1 62.3 63.7 66.0 70.2 69.5 68.7 67.5 64.8 54.5 71.1 80.0 76.4 57.1 76.0 81.2 66.2 68.3 78.8 81.9 76.0 73.1 68.2 76.2 85.1 89.7 95.9 96.5 101.0 107.3 109.2 111.1 107.2 101.7 103.1 115.2 116.3 95.8 72.4 110.0 117.8 107.6 113.0 115.2 117.9 122.2 127.3 138.9 144.0 144.1 149.4 132.4 134.7 111.5 140.2 136.3 129.0 126.1 149.4 162.9 183.2 201.6 184.0 169.1 184.3 203.8 196.0 204.8 203.3 190.4 195.5 204.3 202.0 203.0 205.9 209.0 209.7 198.0 169.8 151.7 183.8 195.3 211.1 209.6 172.7 154.3 146.7 191.9 164.0 197.0 213.6 217.1 218.1 212.4 203.4 186.8 188.6 204.9 204.6 194.1 166.0 185.6 191.7 199.7 201.8 208.4 214.0 224.3 233.9 240.4 242.4 243.9 249.6 260.6 267.2 272.0 279.7 286.7 293.9 302.6 316.6 325.8 335.8 349.2 353.2 362.8 389.3 407.0 409.6 435.4 456.8 478.0 506.3 548.7 593.5 638.8 677.4 697.2 708.5 753.2 776.7 796.2 811.3 814.4 826.1 835.7 830.1 805.6 776.7 749.8 732.5 711.7 663.4 597.7 568.0 537.9 548.8 541.8 509.3 473.3 449.3 435.0 431.3 426.2 414.6 411.3 399.6 389.9 375.7 355.7 341.7 311.1 307.3 300.8 295.7 294.3 294.3 -9999.0 -9999.0
-9999.0 -9999.0 -9999.0 -9999.0 -9999.0 -9999.0 -9999.0 -9999.0 -9999.0 -9999.0 -9999.0 -9999.0 -9999.0 -9999.0 -9999.0 -9999.0 -9999.0 239.0 345.8 402.3 435.6 369.0 331.6 220.5 -9999.0 -9999.0 -9999.0 -9999.0 -9999.0 -9999.0 -9999.0 -9999.0 -9999.0 -9999.0 -9999.0 -9999.0 -9999.0 -9999.0 -9999.0 -9999.0 -9999.0 -9999.0 -9999.0 -9999.0 -9999.0 -9999.0 -9999.0 -9999.0 -9999.0 -9999.0 -9999.0 -9999.0 -9999.0 -9999.0 -9999.0 -9999.0 -9999.0 -9999.0 -9999.0 -9999.0 -9999.0 -9999.0 -9999.0 -9999.0 -9999.0 -9999.0 -9999.0 -9999.0 -9999.0 -9999.0 -9999.0 -9999.0 -9999.0 -9999.0 -9999.0 -9999.0 -9999.0 -9999.0 -9999.0 -9999.0 62.4 63.4 64.3 65.9 63.5 51.7 58.9 68.5 65.2 53.3 61.7 76.8 68.2 56.8 69.0 63.4 62.4 63.9 66.3 63.4 77.0 84.9 80.5 78.6 88.4 98.3 103.5 104.5 97.3 85.2 78.4 78.5 82.2 88.5 81.2 69.7 98.8 95.6 91.5 102.2 112.6 131.9 133.6 136.3 138.4 135.5 139.9 142.3 126.2 119.3 104.8 116.3 119.7 136.0 142.3 156.1 152.8 181.6 198.8 186.3 183.6 185.3 201.5 214.3 209.2 204.6 200.0 192.9 187.4 198.7 200.6 203.7 204.8 203.5 204.8 195.6 147.7 174.6 204.3 206.8 209.9 200.7 193.6 173.0 158.4 188.0 203.6 193.0 206.0 209.7 199.8 188.5 181.8 193.1 177.6 179.9 187.7 194.2 196.6 205.6 207.4 219.1 225.9 229.3 231.7 237.8 242.9 244.9 249.8 254.3 257.7 252.7 257.9 263.6 273.0 285.0 305.3 318.1 328.3 342.7 354.3 376.8 388.9 404.1 425.9 433.5 450.4 473.0 496.0 526.3 557.8 603.9 656.9 703.3 735.7 759.0 762.1 781.4 816.7 835.7 831.9 846.4 848.6 843.2 815.9 780.3 771.9 754.1 719.7 690.4 663.0 599.8 591.1 575.6 529.7 492.0 489.1 475.5 462.1 449.7 430.8 415.7 396.2 378.0 375.5 358.5 348.2 339.3 326.7 335.5 339.0 329.8 325.9 315.9 -9999.0 -9999.0
-9999.0 -9999.0 -9999.0 -9999.0 -9999.0 -9999.0 -9999.0 -9999.0 -9999.0 -9999.0 -9999.0 -9999.0 -9999.0 -9999.0 -9999.0 -9999.0 -9999.0 -9999.0 274.4 259.9 228.1 160.1 200.8 185.5 -9999.0 -9999.0 -9999.0 -9999.0 -9999.0 -9999.0 -9999.0 -9999.0 -9999.0 -9999.0 -9999.0 -9999.0 -9999.0 -9999.0 -9999.0 -9999.0 -9999.0 -9999.0 -9999.0 -9999.0 -9999.0 -9999.0 -9999.0 -9999.0 -9999.0 -9999.0 -9999.0 -9999.0 -9999.0 -9999.0 -9999.0 -9999.0 -9999.0 -9999.0 -9999.0 -9999.0 -9999.0 -9999.0 -9999.0 -9999.0 -9999.0 -9999.0 -9999.0 -9999.0 -9999.0 -9999.0 -9999.0 -9999.0 -9999.0 -9999.0 -9999.0 -9999.0 -9999.0 -9999.0 -9999.0 -9999.0 -9999.0 -9999.0 -9999.0 61.8 60.6 50.7 51.4 53.6 48.8 52.1 56.5 60.6 48.0 51.7 52.8 68.5 75.9 78.2 80.7 82.8 76.4 77.3 82.9 87.1 90.4 93.3 96.9 100.0 84.2 75.9 72.7 73.4 71.5 64.5 66.8 73.3 87.7 104.5 97.4 105.2 119.5 125.0 133.5 138.0 131.7 123.3 132.0 117.6 104.6 113.9 125.9 140.6 137.7 148.2 161.0 187.2 176.1 178.8 187.2 196.9 186.8 191.7 200.1 211.4 214.1 206.4 203.0 200.5 193.1 182.8 194.0 201.3 200.1 201.0 205.0 182.7 143.8 187.9 191.8 197.8 209.4 207.4 198.6 161.6 189.8 208.1 201.0 172.9 176.7 181.3 173.7 191.4 193.4 171.9 192.9 205.0 205.8 210.5 212.1 211.2 214.0 220.6 222.3 203.0 206.1 213.8 216.7 233.9 243.3 238.5 242.7 258.1 269.3 277.0 282.6 287.5 290.1 308.4 336.9 368.2 379.5 386.7 394.5 412.2 433.7 454.9 464.8 487.4 515.5 542.7 586.0 636.0 674.6 721.0 757.0 792.0 816.2 818.6 825.3 858.3 861.8 871.3 863.7 858.4 836.4 815.7 808.7 777.2 736.6 695.1 666.0 650.9 613.7 575.2 563.2 528.4 500.2 464.8 449.7 433.1 411.7 408.3 400.0 384.6 368.0 369.3 365.9 350.4 338.2 305.4 329.6 323.8 315.2 315.8 -9999.0 -9999.0
-9999.0 -9999.0 -9999.0 -9999.0 -9999.0 -9999.0 -9999.0 -9999.0 -9999.0 -9999.0 -9999.0 -9999.0 -9999.0 -9999.0 -9999.0 -9999.0 -9999.0 -9999.0 -9999.0 -9999.0 -9999.0 -9999.0 -9999.0 -9999.0 -9999.0 -9999.0 -9999.0 -9999.0 -9999.0 -9999.0 -9999.0 -9999.0 -9999.0 -9999.0 -9999.0 -9999.0 -9999.0 -9999.0 -9999.0 -9999.0 -9999.0 -9999.0 -9999.0 -9999.0 -9999.0 -9999.0 -9999.0 -9999.0 -9999.0 -9999.0 -9999.0 -9999.0 -9999.0 -9999.0 -9999.0 -9999.0 -9999.0 -9999.0 -9999.0 -9999.0 -9999.0 -9999.0 -9999.0 -9999.0 -9999.0 -9999.0 -9999.0 -9999.0 -9999.0 -9999.0 -9999.0 -9999.0 -9999.0 -9999.0 -9999.0 -9999.0 -9999.0 -9999.0 -9999.0 -9999.0 -9999.0 -9999.0 -9999.0 -9999.0 -9999.0 -9999.0 52.4 37.5 41.3 33.6 33.6 34.5 40.2 57.1 67.2 77.7 82.4 84.9 86.8 86.8 88.8 89.9 89.7 92.7 91.8 93.4 92.7 91.9 64.0 63.5 60.1 65.1 64.4 73.9 82.8 95.6 99.4 105.8 121.6 120.5 121.9 127.5 132.9 139.0 135.0 115.5 107.4 103.7 123.8 127.6 135.9 147.3 157.0 146.5 172.3 205.7 207.0 204.4 203.3 196.5 196.9 202.5 207.8 213.7 214.1 212.4 211.2 204.9 198.9 195.0 179.7 192.9 195.9 198.5 191.5 171.8 142.5 169.4 186.9 196.9 206.4 200.0 184.1 158.2 196.9 205.5 187.9 169.0 165.9 177.7 178.5 186.4 169.1 178.8 187.3 189.9 185.0 186.2 187.3 179.6 182.3 191.9 195.4 212.8 227.4 234.3 237.1 227.8 219.9 239.7 251.0 259.3 268.3 278.9 291.3 303.0 311.3 325.3 343.3 367.8 396.7 415.7 424.3 423.7 438.3 460.1 487.4 505.5 533.7 570.5 606.2 661.7 718.7 765.1 801.2 848.4 866.9 870.5 868.7 894.7 907.9 906.2 907.9 886.9 851.3 823.8 789.0 757.7 719.7 696.3 668.4 639.2 628.5 614.4 580.9 530.4 483.9 486.8 457.7 441.1 430.9 404.6 389.0 372.5 367.4 353.5 339.1 325.8 320.7 307.4 310.6 314.6 302.9 289.4 -9999.0 -9999.0
-9999.0 -9999.0 -9999.0 -9999.0 -9999.0 -9999.0 -9999.0 -9999.0 -9999.0 -9999.0 -9999.0 -9999.0 -9999.0 -9999.0 -9999.0 -9999.0 -9999.0 -9999.0 -9999.0 -9999.0 -9999.0 -9999.0 -9999.0 -9999.0 -9999.0 -9999.0 -9999.0 -9999.0 -9999.0 -9999.0 -9999.0 -9999.0 -9999.0 -9999.0 -9999.0 -9999.0 -9999.0 -9999.0 -9999.0 -9999.0 -9999.0 -9999.0 -9999.0 -9999.0 -9999.0 -9999.0 -9999.0 -9999.0 -9999.0 -9999.0 -9999.0 -9999.0 -9999.0 -9999.0 -9999.0 -9999.0 -9999.0 -9999.0 -9999.0 -9999.0 -9999.0 -9999.0 -9999.0 -9999.0 -9999.0 -9999.0 -9999.0 -9999.0 -9999.0 -9999.0 -9999.0 -9999.0 -9999.0 -9999.0 -9999.0 -9999.0 -9999.0 -9999.0 -9999.0 -9999.0 -9999.0 -9999.0 -9999.0 -9999.0 -9999.0 -9999.0 -9999.0 -9999.0 -9999.0 52.2 52.6 55.5 61.0 66.2 70.3 76.6 77.8 76.2 68.1 84.3 85.3 84.2 86.5 88.2 86.7 79.9 58.6 65.0 63.9 73.4 74.3 74.7 79.4 87.4 100.8 109.9 113.8 116.7 123.4 125.7 125.4 129.6 128.3 129.7 117.1 94.7 105.8 124.6 140.8 142.1 138.0 148.9 168.7 163.3 188.1 203.2 207.3 202.1 200.4 193.8 194.0 203.6 210.8 233.6 224.1 227.6 227.4 205.7 188.5 194.3 182.8 179.6 194.6 200.7 199.1 180.0 141.1 170.5 186.2 199.6 200.6 170.5 154.0 146.8 164.1 162.3 160.0 164.2 179.2 194.8 201.2 203.3 183.8 185.0 197.8 204.2 203.2 203.1 207.2 206.0 203.3 201.0 201.5 209.4 212.4 221.2 238.2 245.9 248.6 241.9 239.5 259.1 270.8 284.3 297.6 321.4 333.4 341.7 371.2 392.3 406.5 416.3 425.5 444.9 455.6 477.7 500.1 539.5 569.7 591.4 650.4 708.8 759.8 817.4 853.6 873.5 854.1 842.7 866.2 901.2 917.4 830.3 817.7 858.3 886.1 857.2 812.3 767.2 758.4 735.9 698.7 671.9 638.1 609.2 575.3 523.4 547.5 511.7 461.5 451.9 444.9 428.1 406.7 384.7 353.1 338.1 336.5 321.8 309.6 300.1 294.3 307.4 300.3 296.7 -9999.0 -9999.0
-9999.0 -9999.0 -9999.0 -9999.0 -9999.0 -9999.0 -9999.0 -9999.0 -9999.0 -9999.0 -9999.0 -9999.0 -9999.0 -9999.0 -9999.0 -9999.0 -9999.0 -9999.0 -9999.0 -9999.0 -9999.0 -9999.0 -9999.0 -9999.0 -9999.0 -9999.0 -9999.0 -9999.0 -9999.0 -9999.0 -9999.0 -9999.0 -9999.0 -9999.0 -9999.0 -9999.0 -9999.0 -9999.0 -9999.0 -9999.0 -9999.0 -9999.0 -9999.0 -9999.0 -9999.0 -9999.0 -9999.0 -9999.0 -9999.0 -9999.0 -9999.0 -9999.0 -9999.0 -9999.0 -9999.0 -9999.0 -9999.0 -9999.0 -9999.0 -9999.0 -9999.0 -9999.0 -9999.0 -9999.0 -9999.0 -9999.0 -9999.0 -9999.0 -9999.0 -9999.0 -9999.0 -9999.0 -9999.0 -9999.0 -9999.0 -9999.0 -9999.0 -9999.0 -9999.0 -9999.0 -9999.0 -9999.0 -9999.0 -9999.0 -9999.0 -9999.0 -9999.0 -9999.0 -9999.0 -9999.0 -9999.0 58.4 61.3 68.3 72.0 75.3 77.7 74.0 65.3 72.3 72.9 71.2 63.9 60.7 62.8 58.0 70.7 74.6 74.3 81.4 99.7 89.5 93.6 95.1 104.3 110.3 109.6 115.7 120.3 119.9 125.4 126.1 126.1 113.3 89.6 106.4 123.4 127.0 131.8 142.4 152.0 159.5 176.6 199.6 193.8 200.0 207.3 196.8 188.5 185.9 178.7 191.1 197.6 218.2 231.0 221.7 214.7 207.2 200.6 194.3 190.6 175.2 195.7 209.4 227.5 196.7 146.2 144.2 177.5 188.7 171.8 153.2 201.7 210.2 217.3 214.0 205.3 220.1 229.7 219.2 214.7 209.8 207.1 175.6 205.9 207.9 209.3 212.5 211.9 214.4 220.6 224.2 223.9 218.5 224.1 227.0 219.0 238.7 249.9 257.0 255.5 251.1 282.9 301.3 315.3 333.8 356.0 368.2 381.0 397.9 414.5 434.1 445.1 451.7 462.3 496.8 524.7 560.6 599.7 641.2 682.7 750.3 790.8 745.6 693.0 667.0 641.2 634.9 651.2 686.1 725.8 675.0 664.3 687.7 808.5 879.1 850.6 820.8 774.2 718.6 678.8 655.4 620.4 589.2 559.2 546.3 535.4 499.8 495.6 483.3 450.5 408.3 382.5 369.4 353.4 341.3 323.1 308.0 297.5 289.1 275.9 292.9 295.6 290.1 -9999.0 -9999.0
-9999.0 -9999.0 -9999.0 -9999.0 -9999.0 -9999.0 -9999.0 -9999.0 -9999.0 -9999.0 -9999.0 -9999.0 -9999.0 -9999.0 -9999.0 -9999.0 -9999.0 -9999.0 -9999.0 -9999.0 -9999.0 -9999.0 -9999.0 -9999.0 -9999.0 -9999.0 -9999.0 -9999.0 -9999.0 -9999.0 -9999.0 -9999.0 -9999.0 -9999.0 -9999.0 -9999.0 -9999.0 -9999.0 -9999.0 -9999.0 -9999.0 -9999.0 -9999.0 -9999.0 -9999.0 -9999.0 -9999.0 -9999.0 -9999.0 -9999.0 -9999.0 -9999.0 -9999.0 -9999.0 -9999.0 -9999.0 -9999.0 -9999.0 -9999.0 -9999.0 -9999.0 -9999.0 -9999.0 -9999.0 -9999.0 -9999.0 -9999.0 -9999.0 -9999.0 -9999.0 -9999.0 -9999.0 -9999.0 -9999.0 -9999.0 -9999.0 -9999.0 -9999.0 -9999.0 -9999.0 -9999.0 -9999.0 -9999.0 -9999.0 -9999.0 -9999.0 -9999.0 -9999.0 -9999.0 -9999.0 -9999.0 -9999.0 -9999.0 -9999.0 68.5 66.2 68.0 70.5 67.2 55.4 63.8 63.5 59.9 56.5 77.2 78.6 87.0 97.7 100.0 99.6 103.2 103.4 101.0 89.9 107.4 108.5 106.9 111.5 109.0 116.4 116.2 111.7 96.5 92.0 103.4 121.8 121.4 135.4 150.0 145.5 157.7 188.8 201.4 202.2 209.7 218.3 211.3 201.2 196.1 191.7 163.1 180.5 197.7 210.7 229.2 231.6 231.7 218.7 205.6 198.0 185.8 175.8 196.8 210.3 221.8 189.4 162.9 135.6 160.4 181.1 136.7 165.4 207.4 230.9 251.4 262.1 270.7 271.2 251.5 243.8 222.8 214.5 216.4 194.4 190.2 215.0 215.5 217.4 221.1 219.6 225.0 229.6 234.1 229.4 232.0 237.5 244.4 235.1 234.4 255.9 265.7 264.3 261.5 281.8 298.7 324.3 343.9 360.1 373.2 395.1 415.7 433.5 447.6 465.2 488.1 507.2 532.4 581.9 629.9 674.6 719.2 778.3 697.2 617.3 597.8 586.0 587.2 589.8 595.2 618.6 660.1 682.9 687.5 664.6 673.7 747.1 811.3 800.8 754.8 699.9 656.8 610.7 589.4 584.4 575.7 560.1 544.0 526.7 515.9 480.1 458.0 429.0 399.7 379.2 363.5 332.6 312.1 305.5 306.0 306.7 296.9 271.7 268.9 281.1 -9999.0 -9999.0
-9999.0 -9999.0 -9999.0 -9999.0 -9999.0 -9999.0 -9999.0 -9999.0 -9999.0 -9999.0 -9999.0 -9999.0 -9999.0 -9999.0 -9999.0 -9999.0 -9999.0 -9999.0 -9999.0 -9999.0 -9999.0 -9999.0 -9999.0 -9999.0 -9999.0 -9999.0 -9999.0 -9999.0 -9999.0 -9999.0 -9999.0 -9999.0 -9999.0 -9999.0 -9999.0 -9999.0 -9999.0 -9999.0 -9999.0 -9999.0 -9999.0 -9999.0 -9999.0 -9999.0 -9999.0 -9999.0 -9999.0 -9999.0 -9999.0 -9999.0 -9999.0 -9999.0 -9999.0 -9999.0 -9999.0 -9999.0 -9999.0 -9999.0 -9999.0 -9999.0 -9999.0 -9999.0 -9999.0 -9999.0 -9999.0 -9999.0 -9999.0 -9999.0 -9999.0 -9999.0 -9999.0 -9999.0 -9999.0 -9999.0 -9999.0 -9999.0 -9999.0 -9999.0 -9999.0 -9999.0 -9999.0 -9999.0 -9999.0 -9999.0 -9999.0 -9999.0 -9999.0 -9999.0 -9999.0 -9999.0 -9999.0 -9999.0 -9999.0 -9999.0 -9999.0 -9999.0 -9999.0 64.5 61.7 55.3 62.9 67.6 44.9 60.2 82.4 91.6 93.3 94.8 98.4 103.9 103.8 101.6 87.0 99.4 105.6 107.5 102.5 105.6 98.5 101.6 103.9 87.6 93.1 104.0 117.0 121.3 133.0 140.9 153.3 165.6 179.6 193.4 190.7 210.1 222.4 229.7 216.1 208.7 202.4 191.6 158.6 172.2 192.5 222.7 243.0 240.6 255.5 246.1 227.2 208.7 185.2 172.2 191.4 200.5 194.7 182.4 179.5 137.4 173.2 170.5 121.6 152.0 184.3 229.2 242.6 277.7 292.2 281.7 275.3 250.7 221.4 215.8 217.4 214.8 182.1 198.1 203.9 210.0 211.5 212.7 224.2 229.7 236.7 238.8 237.1 240.5 244.3 254.4 253.5 253.2 278.3 287.3 285.8 288.9 305.6 324.1 345.7 360.3 374.9 384.0 400.4 422.1 441.7 460.1 476.9 507.7 558.7 607.8 658.5 711.4 762.5 803.6 664.5 589.5 576.1 571.3 572.1 573.6 583.3 645.1 737.5 840.8 800.3 709.8 631.1 624.7 657.3 751.6 758.9 719.1 681.6 636.4 595.1 556.8 538.0 548.0 539.7 524.2 505.6 488.7 458.8 430.1 399.4 372.3 354.7 341.6 326.7 314.6 304.9 290.0 282.4 277.6 266.0 249.1 -9999.0 -9999.0
-9999.0 -9999.0 -9999.0 -9999.0 -9999.0 -9999.0 -9999.0 -9999.0 -9999.0 -9999.0 -9999.0 -9999.0 -9999.0 -9999.0 -9999.0 -9999.0 -9999.0 -9999.0 -9999.0 -9999.0 -9999.0 -9999.0 -9999.0 -9999.0 -9999.0 -9999.0 -9999.0 -9999.0 -9999.0 -9999.0 -9999.0 -9999.0 -9999.0 -9999.0 -9999.0 -9999.0 -9999.0 -9999.0 -9999.0 -9999.0 -9999.0 -9999.0 -9999.0 -9999.0 -9999.0 -9999.0 -9999.0 -9999.0 -9999.0 -9999.0 -9999.0 -9999.0 -9999.0 -9999.0 -9999.0 -9999.0 -9999.0 -9999.0 -9999.0 -9999.0 -9999.0 -9999.0 -9999.0 -9999.0 -9999.0 -9999.0 -9999.0 -9999.0 -9999.0 -9999.0 -9999.0 -9999.0 -9999.0 -9999.0 -9999.0 -9999.0 -9999.0 -9999.0 -9999.0 -9999.0 -9999.0 -9999.0 -9999.0 -9999.0 -9999.0 -9999.0 -9999.0 -9999.0 -9999.0 -9999.0 -9999.0 -9999.0 -9999.0 -9999.0 -9999.0 -9999.0 -9999.0 -9999.0 -9999.0 62.2 61.3 61.6 36.3 53.6 73.4 83.7 91.7 93.1 97.0 101.0 93.3 82.3 88.5 100.6 105.8 104.1 91.1 80.3 76.1 77.3 86.5 93.4 106.6 116.7 121.0 127.8 136.3 143.5 155.3 170.4 187.5 172.4 193.7 213.8 206.9 221.9 230.6 216.4 208.8 192.7 173.4 157.4 193.6 208.6 224.7 250.9 254.2 267.7 241.3 220.9 184.6 167.4 195.1 213.7 199.8 181.3 180.6 129.4 156.5 157.5 114.0 170.3 193.8 228.5 259.9 274.7 288.5 271.9 268.5 253.5 231.4 222.0 219.8 217.9 179.8 196.6 207.8 206.6 211.2 212.9 203.8 227.8 237.3 241.4 248.5 253.3 257.2 255.4 263.2 267.2 266.6 287.6 302.7 307.3 315.7 326.8 340.9 351.6 370.2 390.5 412.6 425.0 443.5 462.1 491.7 530.9 575.3 625.7 672.4 705.5 758.7 827.0 677.7 590.6 573.6 563.3 557.8 557.9 570.2 608.4 687.4 806.1 825.6 689.1 611.5 602.1 614.8 699.6 754.4 697.8 655.0 641.6 610.2 577.9 550.7 513.3 496.2 503.5 497.0 476.2 456.9 427.0 403.7 387.6 356.1 338.3 326.9 318.0 308.0 298.2 291.8 284.0 279.0 278.2 -9999.0 -9999.0
-9999.0 -9999.0 -9999.0 -9999.0 -9999.0 -9999.0 -9999.0 -9999.0 -9999.0 -9999.0 -9999.0 -9999.0 -9999.0 -9999.0 -9999.0 -9999.0 -9999.0 -9999.0 -9999.0 -9999.0 -9999.0 -9999.0 -9999.0 -9999.0 -9999.0 -9999.0 -9999.0 -9999.0 -9999.0 -9999.0 -9999.0 -9999.0 -9999.0 -9999.0 -9999.0 -9999.0 -9999.0 -9999.0 -9999.0 -9999.0 -9999.0 -9999.0 -9999.0 -9999.0 -9999.0 -9999.0 -9999.0 -9999.0 -9999.0 -9999.0 -9999.0 -9999.0 -9999.0 -9999.0 -9999.0 -9999.0 -9999.0 -9999.0 -9999.0 -9999.0 -9999.0 -9999.0 -9999.0 -9999.0 -9999.0 -9999.0 -9999.0 -9999.0 -9999.0 -9999.0 -9999.0 -9999.0 -9999.0 -9999.0 -9999.0 -9999.0 -9999.0 -9999.0 -9999.0 -9999.0 -9999.0 -9999.0 -9999.0 -9999.0 -9999.0 -9999.0 -9999.0 -9999.0 -9999.0 -9999.0 -9999.0 -9999.0 -9999.0 -9999.0 -9999.0 -9999.0 -9999.0 -9999.0 -9999.0 -9999.0 56.2 40.6 41.9 56.2 68.3 79.9 85.2 86.4 87.6 76.2 81.6 87.9 93.8 102.0 100.8 82.0 78.0 89.6 98.3 102.5 105.4 108.3 114.9 119.7 124.9 138.1 141.1 136.8 148.9 160.4 162.3 180.5 204.4 208.6 195.9 212.5 219.7 217.0 209.7 201.2 186.1 140.5 174.9 202.2 235.1 257.5 269.3 251.3 228.5 198.7 183.3 170.3 175.8 196.2 178.9 168.6 153.6 104.0 104.8 104.1 106.0 149.8 186.5 213.0 239.2 265.0 280.1 269.9 257.7 249.0 242.5 227.9 220.2 222.2 197.2 193.4 219.6 224.5 228.6 230.4 220.2 218.3 227.9 243.7 253.1 257.9 264.1 267.2 261.6 269.9 280.3 280.3 288.8 303.0 322.9 337.0 346.1 356.1 373.3 390.3 406.6 423.1 444.1 460.5 491.0 535.9 580.5 617.4 655.8 696.9 765.5 842.8 781.2 645.3 594.2 562.4 548.3 548.1 549.7 573.1 597.1 634.8 626.3 596.1 578.2 583.4 599.9 689.8 762.1 721.6 689.7 641.4 599.4 559.2 538.7 530.1 501.5 467.8 454.8 463.5 433.8 411.4 390.0 367.9 357.7 337.2 323.8 308.7 304.2 303.5 300.5 283.3 276.9 270.5 -9999.0 -9999.0
-9999.0 -9999.0 -9999.0 -9999.0 -9999.0 -9999.0 -9999.0 -9999.0 -9999.0 -9999.0 -9999.0 -9999.0 -9999.0 -9999.0 -9999.0 -9999.0 -9999.0 -9999.0 -9999.0 -9999.0 -9999.0 -9999.0 -9999.0 -9999.0 -9999.0 -9999.0 -9999.0 -9999.0 -9999.0 -9999.0 -9999.0 -9999.0 -9999.0 -9999.0 -9999.0 -9999.0 -9999.0 -9999.0 -9999.0 -9999.0 -9999.0 -9999.0 -9999.0 -9999.0 -9999.0 -9999.0 -9999.0 -9999.0 -9999.0 -9999.0 -9999.0 -9999.0 -9999.0 -9999.0 -9999.0 -9999.0 -9999.0 -9999.0 -9999.0 -9999.0 -9999.0 -9999.0 -9999.0 -9999.0 -9999.0 -9999.0 -9999.0 -9999.0 -9999.0 -9999.0 -9999.0 -9999.0 -9999.0 -9999.0 -9999.0 -9999.0 -9999.0 -9999.0 -9999.0 -9999.0 -9999.0 -9999.0 -9999.0 -9999.0 -9999.0 -9999.0 -9999.0 -9999.0 -9999.0 -9999.0 -9999.0 -9999.0 -9999.0 -9999.0 -9999.0 -9999.0 -9999.0 -9999.0 -9999.0 -9999.0 -9999.0 -9999.0 51.8 57.3 67.0 71.9 75.4 78.3 68.3 79.8 90.7 95.9 95.6 98.0 92.8 69.9 97.1 102.9 106.8 110.0 111.7 104.5 97.1 100.3 109.8 114.0 117.4 135.3 139.6 141.4 147.3 160.2 178.4 191.4 208.5 208.8 190.0 207.5 213.8 200.5 192.1 134.3 160.2 193.5 219.5 239.1 259.7 250.5 219.7 213.0 196.1 176.7 163.9 186.1 157.9 136.4 110.6 98.2 113.7 117.2 125.5 147.2 177.4 201.6 216.3 243.3 276.0 271.9 267.5 253.6 237.6 228.6 225.6 224.0 206.7 199.1 211.3 223.4 224.7 229.9 234.7 235.6 232.3 222.9 227.2 232.4 241.7 244.0 251.0 268.4 283.9 298.3 305.1 302.7 313.9 336.9 350.5 361.0 374.1 393.3 409.9 426.4 442.0 461.8 490.8 528.1 574.2 612.1 657.1 691.6 742.7 819.3 897.7 859.0 749.4 632.8 554.2 548.1 549.5 565.4 569.3 558.6 550.9 549.1 549.0 563.4 585.4 632.1 741.1 705.3 654.9 621.4 569.4 546.9 517.7 480.7 479.6 472.0 427.9 416.5 415.6 402.9 379.8 353.1 340.5 328.2 320.1 318.3 314.1 306.6 300.2 294.2 288.0 284.3 -9999.0 -9999.0
-9999.0 -9999.0 -9999.0 -9999.0 -9999.0 -9999.0 -9999.0 -9999.0 -9999.0 -9999.0 -9999.0 -9999.0 -9999.0 -9999.0 -9999.0 -9999.0 -9999.0 -9999.0 -9999.0 -9999.0 -9999.0 -9999.0 -9999.0 -9999.0 -9999.0 -9999.0 -9999.0 -9999.0 -9999.0 -9999.0 -9999.0 -9999.0 -9999.0 -9999.0 -9999.0 -9999.0 -9999.0 -9999.0 -9999.0 -9999.0 -9999.0 -9999.0 -9999.0 -9999.0 -9999.0 -9999.0 -9999.0 -9999.0 -9999.0 -9999.0 -9999.0 -9999.0 -9999.0 -9999.0 -9999.0 -9999.0 -9999.0 -9999.0 -9999.0 -9999.0 -9999.0 -9999.0 -9999.0 -9999.0 -9999.0 -9999.0 -9999.0 -9999.0 -9999.0 -9999.0 -9999.0 -9999.0 -9999.0 -9999.0 -9999.0 -9999.0 -9999.0 -9999.0 -9999.0 -9999.0 -9999.0 -9999.0 -9999.0 -9999.0 -9999.0 -9999.0 -9999.0 -9999.0 -9999.0 -9999.0 -9999.0 -9999.0 -9999.0 -9999.0 -9999.0 -9999.0 -9999.0 -9999.0 -9999.0 -9999.0 -9999.0 -9999.0 -9999.0 -9999.0 58.3 59.5 59.4 62.5 73.9 84.4 91.5 94.3 94.4 90.2 70.3 83.6 96.5 101.8 104.8 102.1 89.0 91.7 102.5 105.7 110.0 118.3 125.7 120.2 126.3 146.9 151.6 161.4 190.5 188.6 212.2 174.9 181.8 207.8 198.0 182.7 144.4 111.0 139.7 182.3 198.2 231.1 235.5 256.3 242.6 224.0 217.6 188.8 159.7 179.9 181.3 142.7 100.1 102.8 155.4 157.2 154.4 170.9 184.1 210.1 230.3 245.7 264.8 264.9 271.6 251.2 246.7 249.7 235.2 225.2 196.6 201.7 205.5 213.5 220.7 228.5 233.7 240.5 246.0 243.1 229.5 238.7 251.7 259.9 270.7 278.2 286.6 285.1 291.2 302.8 315.8 330.9 338.4 349.5 364.9 379.2 394.6 410.8 428.3 456.6 495.8 529.8 562.5 596.2 632.8 675.2 733.4 806.1 888.6 983.1 955.7 754.1 583.5 548.2 548.1 550.0 551.9 548.3 548.1 548.1 548.3 559.1 582.8 640.5 717.0 677.1 627.7 596.9 546.8 511.6 516.2 489.6 459.8 443.0 434.2 424.4 392.0 377.1 362.6 348.9 349.3 342.1 333.6 325.3 318.2 308.7 300.2 295.3 289.8 284.1 -9999.0 -9999.0
-9999.0 -9999.0 -9999.0 -9999.0 -9999.0 -9999.0 -9999.0 -9999.0 -9999.0 -9999.0 -9999.0 -9999.0 -9999.0 -9999.0 -9999.0 -9999.0 -9999.0 -9999.0 -9999.0 -9999.0 -9999.0 -9999.0 -9999.0 -9999.0 -9999.0 -9999.0 -9999.0 -9999.0 -9999.0 -9999.0 -9999.0 -9999.0 -9999.0 -9999.0 -9999.0 -9999.0 -9999.0 -9999.0 -9999.0 -9999.0 -9999.0 -9999.0 -9999.0 -9999.0 -9999.0 -9999.0 -9999.0 -9999.0 -9999.0 -9999.0 -9999.0 -9999.0 -9999.0 -9999.0 -9999.0 -9999.0 -9999.0 -9999.0 -9999.0 -9999.0 -9999.0 -9999.0 -9999.0 -9999.0 -9999.0 -9999.0 -9999.0 -9999.0 -9999.0 -9999.0 -9999.0 -9999.0 -9999.0 -9999.0 -9999.0 -9999.0 -9999.0 -9999.0 -9999.0 -9999.0 -9999.0 -9999.0 -9999.0 -9999.0 -9999.0 -9999.0 -9999.0 -9999.0 -9999.0 -9999.0 -9999.0 -9999.0 -9999.0 -9999.0 -9999.0 -9999.0 -9999.0 -9999.0 -9999.0 -9999.0 -9999.0 -9999.0 -9999.0 -9999.0 -9999.0 64.6 65.1 69.9 74.0 77.7 80.9 86.5 92.7 88.6 69.2 66.4 88.4 96.9 89.2 84.4 97.9 108.0 111.7 114.6 120.5 115.5 114.2 126.3 139.2 147.3 127.5 156.5 164.5 177.0 202.2 173.4 205.6 208.2 181.1 171.8 168.4 122.9 133.4 186.4 197.8 211.6 232.1 248.3 256.2 233.7 233.8 208.5 162.4 149.5 172.3 142.7 104.5 95.2 123.0 164.3 178.0 188.4 189.7 198.6 205.7 210.3 227.0 236.6 238.7 231.8 258.9 265.4 249.6 220.5 204.3 196.9 215.1 217.2 221.0 225.4 226.2 223.7 233.4 240.2 245.2 242.3 252.3 250.5 260.4 275.8 286.8 302.0 317.3 328.2 331.4 329.9 353.4 370.5 380.3 401.9 421.2 433.1 445.2 462.9 494.3 520.7 550.7 582.4 622.3 673.5 732.6 786.7 848.8 921.2 832.7 663.3 560.1 548.1 548.1 548.1 548.1 548.1 548.1 548.1 553.5 568.4 586.3 660.6 678.8 631.9 594.6 542.7 545.1 496.2 478.5 472.4 461.1 436.2 432.7 405.3 394.2 378.8 368.1 356.7 334.2 324.8 315.5 306.5 305.4 302.3 287.0 278.4 272.4 266.3 -9999.0 -9999.0
-9999.0 -9999.0 -9999.0 -9999.0 -9999.0 -9999.0 -9999.0 -9999.0 -9999.0 -9999.0 -9999.0 -9999.0 -9999.0 -9999.0 -9999.0 -9999.0 -9999.0 -9999.0 -9999.0 -9999.0 -9999.0 -9999.0 -9999.0 -9999.0 -9999.0 -9999.0 -9999.0 -9999.0 -9999.0 -9999.0 -9999.0 -9999.0 -9999.0 -9999.0 -9999.0 -9999.0 -9999.0 -9999.0 -9999.0 -9999.0 -9999.0 -9999.0 -9999.0 -9999.0 -9999.0 -9999.0 -9999.0 -9999.0 -9999.0 -9999.0 -9999.0 -9999.0 -9999.0 -9999.0 -9999.0 -9999.0 -9999.0 -9999.0 -9999.0 -9999.0 -9999.0 -9999.0 -9999.0 -9999.0 -9999.0 -9999.0 -9999.0 -9999.0 -9999.0 -9999.0 -9999.0 -9999.0 -9999.0 -9999.0 -9999.0 -9999.0 -9999.0 -9999.0 -9999.0 -9999.0 -9999.0 -9999.0 -9999.0 -9999.0 -9999.0 -9999.0 -9999.0 -9999.0 -9999.0 -9999.0 -9999.0 -9999.0 -9999.0 -9999.0 -9999.0 -9999.0 -9999.0 -9999.0 -9999.0 -9999.0 -9999.0 -9999.0 -9999.0 -9999.0 -9999.0 -9999.0 -9999.0 67.5 69.6 71.6 76.6 80.8 79.9 85.0 85.6 68.2 62.5 76.6 87.2 98.2 102.8 105.1 108.3 113.7 117.8 104.7 116.2 119.0 123.6 115.9 118.2 129.6 137.2 149.4 156.7 184.9 207.4 217.2 200.5 185.5 170.9 131.5 115.9 150.9 189.7 201.6 214.4 240.1 234.9 206.5 211.2 190.1 137.4 123.3 118.7 116.8 125.4 117.7 123.2 131.8 147.1 153.8 151.9 162.1 185.8 209.1 205.8 214.9 237.9 245.4 260.3 277.3 255.8 215.6 219.5 204.0 221.1 222.4 230.3 235.3 239.1 239.5 235.0 252.7 258.2 248.4 263.7 272.8 273.4 277.9 284.6 291.6 305.6 314.2 330.7 342.0 362.2 373.2 393.5 415.6 437.6 449.5 451.1 455.8 481.2 506.9 534.5 567.6 606.9 647.3 698.5 754.8 806.3 850.3 741.1 582.9 548.9 548.1 548.1 548.1 548.1 548.1 548.1 548.1 548.6 564.0 617.8 662.6 634.5 590.2 552.4 522.9 490.0 488.1 459.5 445.9 438.0 428.8 416.6 400.5 384.7 370.4 360.1 342.5 333.9 322.9 315.2 302.5 295.2 290.6 287.7 281.3 272.8 268.0 -9999.0 -9999.0
-9999.0 -9999.0 -9999.0 -9999.0 -9999.0 -9999.0 -9999.0 -9999.0 -9999.0 -9999.0 -9999.0 -9999.0 -9999.0 -9999.0 -9999.0 -9999.0 -9999.0 -9999.0 -9999.0 -9999.0 -9999.0 -9999.0 -9999.0 -9999.0 -9999.0 -9999.0 -9999.0 -9999.0 -9999.0 -9999.0 -9999.0 -9999.0 -9999.0 -9999.0 -9999.0 -9999.0 -9999.0 -9999.0 -9999.0 -9999.0 -9999.0 -9999.0 -9999.0 -9999.0 -9999.0 -9999.0 -9999.0 -9999.0 -9999.0 -9999.0 -9999.0 -9999.0 -9999.0 -9999.0 -9999.0 -9999.0 -9999.0 -9999.0 -9999.0 -9999.0 -9999.0 -9999.0 -9999.0 -9999.0 -9999.0 -9999.0 -9999.0 -9999.0 -9999.0 -9999.0 -9999.0 -9999.0 -9999.0 -9999.0 -9999.0 -9999.0 -9999.0 -9999.0 -9999.0 -9999.0 -9999.0 -9999.0 -9999.0 -9999.0 -9999.0 -9999.0 -9999.0 -9999.0 -9999.0 -9999.0 -9999.0 -9999.0 -9999.0 -9999.0 -9999.0 -9999.0 -9999.0 -9999.0 -9999.0 -9999.0 -9999.0 -9999.0 -9999.0 -9999.0 -9999.0 -9999.0 -9999.0 -9999.0 -9999.0 67.3 70.6 69.3 69.4 67.6 54.6 63.3 77.6 88.0 93.7 97.1 99.0 103.5 107.6 105.8 95.0 93.7 98.7 113.1 121.4 131.4 143.5 148.6 167.0 181.4 183.2 192.0 200.6 177.4 155.6 181.3 147.6 108.4 107.3 144.2 134.3 159.0 189.9 158.2 159.5 145.2 139.3 124.9 92.9 95.0 106.1 150.3 167.1 163.8 146.0 140.5 142.6 151.3 184.2 197.4 193.0 201.2 215.7 222.2 255.1 271.0 295.5 280.9 238.6 228.8 234.9 204.6 198.9 227.2 232.9 237.6 242.7 248.3 250.0 255.3 264.5 270.0 258.3 261.8 272.8 288.5 293.7 304.1 325.2 348.3 346.7 365.6 365.2 389.7 414.6 430.5 444.8 452.1 452.6 456.2 475.0 507.1 529.6 557.5 583.8 617.1 668.5 718.8 758.7 789.8 693.0 555.8 548.1 548.1 548.1 548.1 548.1 548.1 548.1 548.1 548.4 571.4 636.6 638.8 601.2 574.7 551.5 524.0 496.4 461.2 459.2 434.1 413.3 395.6 392.8 397.5 394.0 381.7 369.5 358.0 347.0 334.7 328.2 320.9 312.4 306.0 298.7 289.8 282.9 277.3 -9999.0 -9999.0
-9999.0 -9999.0 -9999.0 -9999.0 -9999.0 -9999.0 -9999.0 -9999.0 -9999.0 -9999.0 -9999.0 -9999.0 -9999.0 -9999.0 -9999.0 -9999.0 -9999.0 -9999.0 -9999.0 -9999.0 -9999.0 -9999.0 -9999.0 -9999.0 -9999.0 -9999.0 -9999.0 -9999.0 -9999.0 -9999.0 -9999.0 -9999.0 -9999.0 -9999.0 -9999.0 -9999.0 -9999.0 -9999.0 -9999.0 -9999.0 -9999.0 -9999.0 -9999.0 -9999.0 -9999.0 -9999.0 -9999.0 -9999.0 -9999.0 -9999.0 -9999.0 -9999.0 -9999.0 -9999.0 -9999.0 -9999.0 -9999.0 -9999.0 -9999.0 -9999.0 -9999.0 -9999.0 -9999.0 -9999.0 -9999.0 -9999.0 -9999.0 -9999.0 -9999.0 -9999.0 -9999.0 -9999.0 -9999.0 -9999.0 -9999.0 -9999.0 -9999.0 -9999.0 -9999.0 -9999.0 -9999.0 -9999.0 -9999.0 -9999.0 -9999.0 -9999.0 -9999.0 -9999.0 -9999.0 -9999.0 -9999.0 -9999.0 -9999.0 -9999.0 -9999.0 -9999.0 -9999.0 -9999.0 -9999.0 -9999.0 -9999.0 -9999.0 -9999.0 -9999.0 -9999.0 -9999.0 -9999.0 -9999.0 -9999.0 -9999.0 -9999.0 59.8 60.1 44.5 57.5 73.3 82.9 86.3 93.8 94.2 98.5 102.5 96.8 86.9 98.2 102.0 113.9 121.5 127.7 128.6 137.7 153.5 163.9 173.4 189.3 200.4 204.3 188.2 127.4 166.1 150.9 104.0 105.9 119.7 134.9 127.3 145.8 135.4 107.9 101.9 110.0 130.6 114.3 90.8 127.1 167.4 176.1 174.6 175.8 181.4 192.7 188.4 202.9 220.3 238.5 222.2 210.4 227.6 260.1 296.5 317.8 287.9 239.7 259.9 256.3 220.6 197.8 228.8 235.4 236.4 240.4 244.9 254.2 260.9 266.0 271.4 276.6 281.8 281.7 276.0 287.7 301.8 329.8 376.0 382.3 377.7 389.3 395.7 417.2 437.0 445.1 451.9 455.7 461.9 475.8 496.0 521.7 541.2 554.5 588.5 632.0 669.3 701.4 742.9 689.3 564.7 549.4 548.2 548.1 548.2 548.1 549.0 553.3 554.3 560.8 586.1 619.9 596.6 571.1 546.8 519.7 508.6 485.7 462.5 432.2 432.2 417.8 405.0 393.4 380.3 365.9 353.3 348.2 338.4 321.6 320.2 320.6 316.5 315.3 310.6 301.0 292.0 287.8 279.3 -9999.0 -9999.0
-9999.0 -9999.0 -9999.0 -9999.0 -9999.0 -9999.0 -9999.0 -9999.0 -9999.0 -9999.0 -9999.0 -9999.0 -9999.0 -9999.0 -9999.0 -9999.0 -9999.0 -9999.0 -9999.0 -9999.0 -9999.0 -9999.0 -9999.0 -9999.0 -9999.0 -9999.0 -9999.0 -9999.0 -9999.0 -9999.0 -9999.0 -9999.0 -9999.0 -9999.0 -9999.0 -9999.0 -9999.0 -9999.0 -9999.0 -9999.0 -9999.0 -9999.0 -9999.0 -9999.0 -9999.0 -9999.0 -9999.0 -9999.0 -9999.0 -9999.0 -9999.0 -9999.0 -9999.0 -9999.0 -9999.0 -9999.0 -9999.0 -9999.0 -9999.0 -9999.0 -9999.0 -9999.0 -9999.0 -9999.0 -9999.0 -9999.0 -9999.0 -9999.0 -9999.0 -9999.0 -9999.0 -9999.0 -9999.0 -9999.0 -9999.0 -9999.0 -9999.0 -9999.0 -9999.0 -9999.0 -9999.0 -9999.0 -9999.0 -9999.0 -9999.0 -9999.0 -9999.0 -9999.0 -9999.0 -9999.0 -9999.0 -9999.0 -9999.0 -9999.0 -9999.0 -9999.0 -9999.0 -9999.0 -9999.0 -9999.0 -9999.0 -9999.0 -9999.0 -9999.0 -9999.0 -9999.0 -9999.0 -9999.0 -9999.0 -9999.0 -9999.0 -9999.0 -9999.0 39.3 59.0 68.4 76.6 80.5 85.5 92.7 94.9 82.8 82.3 98.7 106.9 108.2 109.2 114.5 113.9 112.5 119.0 126.0 141.0 171.3 179.7 191.2 188.0 150.6 134.9 129.8 157.9 114.7 115.2 151.9 107.9 100.5 87.7 95.1 81.4 87.0 96.3 99.7 117.4 108.7 89.4 113.9 134.5 146.9 172.9 184.9 212.1 215.8 229.7 258.4 272.2 274.5 236.1 258.4 296.2 322.2 305.3 266.4 259.2 271.2 252.2 214.3 217.4 213.6 211.8 220.1 236.3 242.0 250.3 256.5 263.8 271.4 276.9 282.9 287.3 291.2 291.8 307.8 330.4 382.5 398.0 400.8 412.0 420.9 422.5 430.7 444.9 446.3 457.6 464.8 476.0 491.1 515.6 539.2 556.8 562.5 585.3 618.6 653.9 694.3 701.7 642.8 607.4 595.1 590.0 594.2 576.1 583.9 596.4 616.1 609.6 598.8 579.6 576.8 551.2 523.6 486.8 483.7 467.5 453.8 434.1 407.4 398.5 400.5 392.0 390.0 384.2 376.7 366.1 355.2 341.8 333.8 327.3 317.2 300.0 287.6 281.9 273.6 275.0 277.6 -9999.0 -9999.0
-9999.0 -9999.0 -9999.0 -9999.0 -9999.0 -9999.0 -9999.0 -9999.0 -9999.0 -9999.0 -9999.0 -9999.0 -9999.0 -9999.0 -9999.0 -9999.0 -9999.0 -9999.0 -9999.0 -9999.0 -9999.0 -9999.0 -9999.0 -9999.0 -9999.0 -9999.0 -9999.0 -9999.0 -9999.0 -9999.0 -9999.0 -9999.0 -9999.0 -9999.0 -9999.0 -9999.0 -9999.0 -9999.0 -9999.0 -9999.0 -9999.0 -9999.0 -9999.0 -9999.0 -9999.0 -9999.0 -9999.0 -9999.0 -9999.0 -9999.0 -9999.0 -9999.0 -9999.0 -9999.0 -9999.0 -9999.0 -9999.0 -9999.0 -9999.0 -9999.0 -9999.0 -9999.0 -9999.0 -9999.0 -9999.0 -9999.0 -9999.0 -9999.0 -9999.0 -9999.0 -9999.0 -9999.0 -9999.0 -9999.0 -9999.0 -9999.0 -9999.0 -9999.0 -9999.0 -9999.0 -9999.0 -9999.0 -9999.0 -9999.0 -9999.0 -9999.0 -9999.0 -9999.0 -9999.0 -9999.0 -9999.0 -9999.0 -9999.0 -9999.0 -9999.0 -9999.0 -9999.0 -9999.0 -9999.0 -9999.0 -9999.0 -9999.0 -9999.0 -9999.0 -9999.0 -9999.0 -9999.0 -9999.0 -9999.0 -9999.0 -9999.0 -9999.0 -9999.0 -9999.0 65.7 71.0 71.3 75.9 80.5 81.9 71.8 83.3 95.0 99.6 102.3 100.5 96.5 97.9 107.6 116.0 123.7 137.0 143.3 153.4 158.4 171.9 195.6 189.0 152.9 132.6 101.0 93.8 105.0 118.0 77.5 77.9 82.9 90.6 98.0 110.5 149.4 156.0 191.5 182.4 129.5 143.2 136.3 171.1 201.6 214.8 215.0 251.6 237.4 272.4 314.1 305.0 283.3 269.5 302.7 319.9 306.6 293.1 270.0 231.5 238.4 224.1 239.6 240.5 224.9 208.4 231.4 238.1 243.9 249.7 259.0 257.5 254.4 258.6 264.8 284.6 297.3 289.8 292.9 315.9 332.2 362.1 384.6 391.8 408.3 437.4 446.6 460.1 468.1 484.5 499.4 502.6 516.7 532.0 543.4 550.4 560.5 581.6 612.9 635.2 652.8 667.3 682.1 693.1 695.4 687.0 667.0 650.3 633.9 613.8 595.1 577.7 562.4 539.4 519.8 514.2 487.1 466.2 448.8 422.3 422.7 412.9 386.2 367.4 370.6 370.9 362.0 351.7 343.8 335.1 328.6 327.3 316.4 309.7 301.5 298.9 293.5 288.8 282.8 272.0 -9999.0 -9999.0
-9999.0 -9999.0 -9999.0 -9999.0 -9999.0 -9999.0 -9999.0 -9999.0 -9999.0 -9999.0 -9999.0 -9999.0 -9999.0 -9999.0 -9999.0 -9999.0 -9999.0 -9999.0 -9999.0 -9999.0 -9999.0 -9999.0 -9999.0 -9999.0 -9999.0 -9999.0 -9999.0 -9999.0 -9999.0 -9999.0 -9999.0 -9999.0 -9999.0 -9999.0 -9999.0 -9999.0 -9999.0 -9999.0 -9999.0 -9999.0 -9999.0 -9999.0 -9999.0 -9999.0 -9999.0 -9999.0 -9999.0 -9999.0 -9999.0 -9999.0 -9999.0 -9999.0 -9999.0 -9999.0 -9999.0 -9999.0 -9999.0 -9999.0 -9999.0 -9999.0 -9999.0 -9999.0 -9999.0 -9999.0 -9999.0 -9999.0 -9999.0 -9999.0 -9999.0 -9999.0 -9999.0 -9999.0 -9999.0 -9999.0 -9999.0 -9999.0 -9999.0 -9999.0 -9999.0 -9999.0 -9999.0 -9999.0 -9999.0 -9999.0 -9999.0 -9999.0 -9999.0 -9999.0 -9999.0 -9999.0 -9999.0 -9999.0 -9999.0 -9999.0 -9999.0 -9999.0 -9999.0 -9999.0 -9999.0 -9999.0 -9999.0 -9999.0 -9999.0 -9999.0 -9999.0 -9999.0 -9999.0 -9999.0 -9999.0 -9999.0 -9999.0 -9999.0 -9999.0 -9999.0 -9999.0 67.0 68.9 72.8 65.7 64.4 80.3 87.5 90.2 88.4 85.3 95.0 104.4 104.0 100.6 108.5 120.7 124.2 127.9 147.8 161.1 186.4 192.8 153.0 123.6 119.9 110.8 75.1 111.1 80.0 79.0 76.8 93.6 114.4 156.7 198.3 213.3 199.1 229.6 216.2 167.4 185.6 166.3 179.1 217.3 249.6 247.0 234.8 249.7 280.4 328.5 343.9 320.1 310.9 292.7 279.4 261.0 258.4 249.5 253.5 269.3 238.8 274.5 266.8 257.8 212.3 233.7 239.3 244.4 249.7 247.8 245.5 264.8 274.4 292.7 313.6 341.1 357.8 331.8 337.8 330.9 341.2 389.2 419.8 439.5 455.4 476.6 482.8 485.3 502.8 515.3 523.8 529.6 525.6 531.0 541.9 535.3 543.5 580.5 601.7 620.1 639.8 653.3 660.9 669.3 653.5 636.7 615.8 597.2 575.0 563.1 543.0 534.0 524.5 503.6 479.6 483.7 467.4 443.5 427.2 401.3 393.1 388.8 383.4 377.3 365.9 348.0 332.6 333.4 338.5 341.6 341.5 334.1 322.3 313.9 304.3 299.3 294.2 291.3 284.5 -9999.0 -9999.0
-9999.0 -9999.0 -9999.0 -9999.0 -9999.0 -9999.0 -9999.0 -9999.0 -9999.0 -9999.0 -9999.0 -9999.0 -9999.0 -9999.0 -9999.0 -9999.0 -9999.0 -9999.0 -9999.0 -9999.0 -9999.0 -9999.0 -9999.0 -9999.0 -9999.0 -9999.0 -9999.0 -9999.0 -9999.0 -9999.0 -9999.0 -9999.0 -9999.0 -9999.0 -9999.0 -9999.0 -9999.0 -9999.0 -9999.0 -9999.0 -9999.0 -9999.0 -9999.0 -9999.0 -9999.0 -9999.0 -9999.0 -9999.0 -9999.0 -9999.0 -9999.0 -9999.0 -9999.0 -9999.0 -9999.0 -9999.0 -9999.0 -9999.0 -9999.0 -9999.0 -9999.0 -9999.0 -9999.0 -9999.0 -9999.0 -9999.0 -9999.0 -9999.0 -9999.0 -9999.0 -9999.0 -9999.0 -9999.0 -9999.0 -9999.0 -9999.0 -9999.0 -9999.0 -9999.0 -9999.0 -9999.0 -9999.0 -9999.0 -9999.0 -9999.0 -9999.0 -9999.0 -9999.0 -9999.0 -9999.0 -9999.0 -9999.0 -9999.0 -9999.0 -9999.0 -9999.0 -9999.0 -9999.0 -9999.0 -9999.0 -9999.0 -9999.0 -9999.0 -9999.0 -9999.0 -9999.0 -9999.0 -9999.0 -9999.0 -9999.0 -9999.0 -9999.0 -9999.0 -9999.0 -9999.0 -9999.0 -9999.0 54.1 63.9 72.7 71.9 71.8 74.8 85.1 87.3 85.8 89.8 99.7 110.5 123.9 146.4 154.7 170.2 179.6 182.7 202.6 199.2 165.8 163.0 132.1 92.4 69.9 69.4 72.0 82.0 85.5 101.9 141.4 171.0 203.7 229.3 217.0 245.6 252.9 216.7 207.5 224.3 191.1 233.1 279.5 295.6 264.5 264.2 293.3 331.9 375.1 339.9 307.1 278.2 253.1 258.1 254.7 270.1 306.2 291.5 275.5 298.6 272.3 245.3 209.6 222.5 236.9 239.2 235.9 222.4 239.4 246.5 258.1 274.1 302.9 337.5 381.7 378.9 382.2 404.8 384.5 359.2 372.8 394.1 440.0 449.9 466.3 474.1 486.5 498.3 517.5 526.7 516.6 525.0 532.9 534.4 536.2 556.0 568.8 593.1 593.3 613.9 635.8 643.4 620.6 588.3 583.3 559.4 542.4 529.0 516.5 495.2 499.0 495.5 451.6 454.1 450.0 436.4 422.1 411.6 397.7 391.9 382.5 364.9 357.2 363.0 353.9 345.3 334.1 323.9 311.9 309.6 302.3 291.9 287.4 285.3 275.8 268.6 264.3 -9999.0 -9999.0
-9999.0 -9999.0 -9999.0 -9999.0 -9999.0 -9999.0 -9999.0 -9999.0 -9999.0 -9999.0 -9999.0 -9999.0 -9999.0 -9999.0 -9999.0 -9999.0 -9999.0 -9999.0 -9999.0 -9999.0 -9999.0 -9999.0 -9999.0 -9999.0 -9999.0 -9999.0 -9999.0 -9999.0 -9999.0 -9999.0 -9999.0 -9999.0 -9999.0 -9999.0 -9999.0 -9999.0 -9999.0 -9999.0 -9999.0 -9999.0 -9999.0 -9999.0 -9999.0 -9999.0 -9999.0 -9999.0 -9999.0 -9999.0 -9999.0 -9999.0 -9999.0 -9999.0 -9999.0 -9999.0 -9999.0 -9999.0 -9999.0 -9999.0 -9999.0 -9999.0 -9999.0 -9999.0 -9999.0 -9999.0 -9999.0 -9999.0 -9999.0 -9999.0 -9999.0 -9999.0 -9999.0 -9999.0 -9999.0 -9999.0 -9999.0 -9999.0 -9999.0 -9999.0 -9999.0 -9999.0 -9999.0 -9999.0 -9999.0 -9999.0 -9999.0 -9999.0 -9999.0 -9999.0 -9999.0 -9999.0 -9999.0 -9999.0 -9999.0 -9999.0 -9999.0 -9999.0 -9999.0 -9999.0 -9999.0 -9999.0 -9999.0 -9999.0 -9999.0 -9999.0 -9999.0 -9999.0 -9999.0 -9999.0 -9999.0 -9999.0 -9999.0 -9999.0 -9999.0 -9999.0 -9999.0 -9999.0 -9999.0 -9999.0 55.7 58.7 69.1 74.4 80.6 81.3 77.0 93.6 98.6 103.9 110.8 122.5 144.2 157.8 172.7 200.8 220.8 224.4 203.6 175.7 136.4 93.9 70.4 83.2 104.5 103.0 103.3 130.3 102.9 121.3 154.6 191.8 227.7 227.1 264.7 283.6 245.9 223.9 247.1 222.2 235.2 262.4 298.6 306.3 287.8 329.6 360.1 358.7 308.6 283.5 256.8 268.1 276.9 277.3 294.9 334.4 305.9 303.7 280.9 251.7 239.9 218.7 224.8 213.7 225.8 230.1 245.9 251.2 268.4 284.4 299.0 271.9 294.8 335.4 388.3 401.1 409.0 400.8 411.1 428.7 441.3 449.6 460.8 469.7 484.2 489.1 495.9 492.5 498.0 502.8 511.5 520.6 530.5 539.8 542.1 538.2 553.7 571.6 599.2 595.1 600.8 583.6 543.3 540.4 525.2 510.7 514.4 506.7 490.1 463.6 472.9 459.0 422.9 407.1 398.8 404.5 404.0 395.6 387.7 374.3 364.8 347.2 353.0 348.5 346.0 341.2 337.9 333.6 330.1 328.5 331.0 328.6 319.6 306.8 294.2 280.6 -9999.0 -9999.0
-9999.0 -9999.0 -9999.0 -9999.0 -9999.0 -9999.0 -9999.0 -9999.0 -9999.0 -9999.0 -9999.0 -9999.0 -9999.0 -9999.0 -9999.0 -9999.0 -9999.0 -9999.0 -9999.0 -9999.0 -9999.0 -9999.0 -9999.0 -9999.0 -9999.0 -9999.0 -9999.0 -9999.0 -9999.0 -9999.0 -9999.0 -9999.0 -9999.0 -9999.0 -9999.0 -9999.0 -9999.0 -9999.0 -9999.0 -9999.0 -9999.0 -9999.0 -9999.0 -9999.0 -9999.0 -9999.0 -9999.0 -9999.0 -9999.0 -9999.0 -9999.0 -9999.0 -9999.0 -9999.0 -9999.0 -9999.0 -9999.0 -9999.0 -9999.0 -9999.0 -9999.0 -9999.0 -9999.0 -9999.0 -9999.0 -9999.0 -9999.0 -9999.0 -9999.0 -9999.0 -9999.0 -9999.0 -9999.0 -9999.0 -9999.0 -9999.0 -9999.0 -9999.0 -9999.0 -9999.0 -9999.0 -9999.0 -9999.0 -9999.0 -9999.0 -9999.0 -9999.0 -9999.0 -9999.0 -9999.0 -9999.0 -9999.0 -9999.0 -9999.0 -9999.0 -9999.0 -9999.0 -9999.0 -9999.0 -9999.0 -9999.0 -9999.0 -9999.0 -9999.0 -9999.0 -9999.0 -9999.0 -9999.0 -9999.0 -9999.0 -9999.0 -9999.0 -9999.0 -9999.0 -9999.0 -9999.0 -9999.0 -9999.0 -9999.0 67.6 69.6 71.5 75.2 66.3 82.8 89.8 95.0 99.7 111.3 127.3 138.2 150.1 175.9 203.0 207.1 219.0 182.2 134.0 100.4 70.1 81.3 94.8 148.1 161.3 139.8 149.4 141.1 112.2 145.3 150.9 194.0 239.2 264.3 276.0 263.5 235.5 256.4 249.2 266.9 279.9 302.5 337.9 319.6 343.5 362.4 345.1 295.9 277.3 257.0 287.1 323.4 344.7 326.7 339.3 322.0 282.7 269.0 274.4 238.6 221.1 229.1 226.6 221.8 229.5 241.7 252.6 264.5 290.4 331.2 321.8 286.7 317.4 337.5 348.7 364.3 375.5 398.1 398.3 401.6 444.0 461.3 470.2 465.2 485.6 488.2 494.6 501.4 505.9 505.0 516.5 514.0 522.6 530.9 527.9 531.4 554.3 566.9 564.0 555.3 551.3 522.7 504.8 495.8 490.4 487.8 481.2 476.6 464.0 442.6 438.2 433.0 423.1 411.3 384.4 375.3 379.5 373.9 365.2 360.3 347.9 334.3 340.1 339.0 336.0 327.9 327.9 325.9 321.5 325.6 322.2 301.8 295.7 292.6 282.7 -9999.0 -9999.0
-9999.0 -9999.0 -9999.0 -9999.0 -9999.0 -9999.0 -9999.0 -9999.0 -9999.0 -9999.0 -9999.0 -9999.0 -9999.0 -9999.0 -9999.0 -9999.0 -9999.0 -9999.0 -9999.0 -9999.0 -9999.0 -9999.0 -9999.0 -9999.0 -9999.0 -9999.0 -9999.0 -9999.0 -9999.0 -9999.0 -9999.0 -9999.0 -9999.0 -9999.0 -9999.0 -9999.0 -9999.0 -9999.0 -9999.0 -9999.0 -9999.0 -9999.0 -9999.0 -9999.0 -9999.0 -9999.0 -9999.0 -9999.0 -9999.0 -9999.0 -9999.0 -9999.0 -9999.0 -9999.0 -9999.0 -9999.0 -9999.0 -9999.0 -9999.0 -9999.0 -9999.0 -9999.0 -9999.0 -9999.0 -9999.0 -9999.0 -9999.0 -9999.0 -9999.0 -9999.0 -9999.0 -9999.0 -9999.0 -9999.0 -9999.0 -9999.0 -9999.0 -9999.0 -9999.0 -9999.0 -9999.0 -9999.0 -9999.0 -9999.0 -9999.0 -9999.0 -9999.0 -9999.0 -9999.0 -9999.0 -9999.0 -9999.0 -9999.0 -9999.0 -9999.0 -9999.0 -9999.0 -9999.0 -9999.0 -9999.0 -9999.0 -9999.0 -9999.0 -9999.0 -9999.0 -9999.0 -9999.0 -9999.0 -9999.0 -9999.0 -9999.0 -9999.0 -9999.0 -9999.0 -9999.0 -9999.0 -9999.0 -9999.0 -9999.0 -9999.0 65.7 67.6 61.1 72.7 81.7 85.7 89.4 91.4 93.1 98.9 114.0 141.7 169.2 188.0 169.0 159.6 138.0 108.5 88.1 71.4 77.5 85.7 127.8 157.7 158.7 177.6 171.9 136.3 134.9 158.9 204.7 257.2 272.2 254.9 240.7 233.0 243.1 251.9 269.7 291.5 300.8 279.3 259.8 282.0 300.1 327.8 296.4 284.1 268.2 287.2 326.4 382.7 353.8 312.8 298.1 294.4 292.6 258.2 227.4 236.0 227.8 238.8 237.5 235.7 236.7 248.9 280.1 301.1 316.9 330.8 314.4 305.9 330.4 351.1 355.9 355.8 367.3 391.4 412.3 449.6 450.9 422.9 464.5 494.0 507.3 519.3 537.6 535.6 515.0 517.0 496.7 497.7 511.8 519.5 515.7 528.6 533.8 536.0 518.2 509.1 498.1 470.8 468.1 462.1 462.3 452.6 452.4 447.0 445.7 425.2 402.1 400.6 397.8 389.1 374.2 352.2 349.5 343.4 345.0 342.0 335.9 329.4 321.3 316.1 318.1 316.1 313.1 312.2 308.0 299.4 279.7 290.9 278.5 271.0 -9999.0 -9999.0
-9999.0 -9999.0 -9999.0 -9999.0 -9999.0 -9999.0 -9999.0 -9999.0 -9999.0 -9999.0 -9999.0 -9999.0 -9999.0 -9999.0 -9999.0 -9999.0 -9999.0 -9999.0 -9999.0 -9999.0 -9999.0 -9999.0 -9999.0 -9999.0 -9999.0 -9999.0 -9999.0 -9999.0 -9999.0 -9999.0 -9999.0 -9999.0 -9999.0 -9999.0 -9999.0 -9999.0 -9999.0 -9999.0 -9999.0 -9999.0 -9999.0 -9999.0 -9999.0 -9999.0 -9999.0 -9999.0 -9999.0 -9999.0 -9999.0 -9999.0 -9999.0 -9999.0 -9999.0 -9999.0 -9999.0 -9999.0 -9999.0 -9999.0 -9999.0 -9999.0 -9999.0 -9999.0 -9999.0 -9999.0 -9999.0 -9999.0 -9999.0 -9999.0 -9999.0 -9999.0 -9999.0 -9999.0 -9999.0 -9999.0 -9999.0 -9999.0 -9999.0 -9999.0 -9999.0 -9999.0 -9999.0 -9999.0 -9999.0 -9999.0 -9999.0 -9999.0 -9999.0 -9999.0 -9999.0 -9999.0 -9999.0 -9999.0 -9999.0 -9999.0 -9999.0 -9999.0 -9999.0 -9999.0 -9999.0 -9999.0 -9999.0 -9999.0 -9999.0 -9999.0 -9999.0 -9999.0 -9999.0 -9999.0 -9999.0 -9999.0 -9999.0 -9999.0 -9999.0 -9999.0 -9999.0 -9999.0 -9999.0 -9999.0 -9999.0 -9999.0 -9999.0 55.0 62.9 73.5 79.9 84.3 86.4 76.1 81.9 92.1 103.3 116.7 136.0 136.6 139.1 123.7 74.5 67.6 66.6 65.0 75.6 96.2 128.5 144.6 149.0 167.7 196.4 180.9 153.2 168.8 208.9 269.8 263.6 244.8 218.1 204.0 207.5 223.1 237.2 242.0 236.0 214.1 223.1 243.7 266.2 296.0 334.5 324.3 292.7 278.9 307.0 352.4 370.6 313.0 287.5 288.6 284.1 240.5 249.2 241.2 231.9 237.5 247.7 246.6 261.8 275.4 294.6 309.0 319.5 344.3 349.9 353.6 346.4 327.1 355.6 376.2 383.8 390.2 402.1 422.5 394.7 400.2 429.8 476.3 522.9 556.7 556.1 547.3 541.7 530.9 516.9 503.4 499.3 507.0 502.9 500.3 503.2 495.3 484.0 481.6 468.4 437.5 443.5 436.0 434.9 424.2 436.7 445.9 424.5 426.9 417.3 407.1 382.1 366.0 356.2 347.5 343.7 342.4 327.4 322.9 328.0 327.0 325.4 322.2 316.8 314.3 310.7 309.8 304.8 304.1 309.9 311.1 302.8 292.0 -9999.0 -9999.0
-9999.0 -9999.0 -9999.0 -9999.0 -9999.0 -9999.0 -9999.0 -9999.0 -9999.0 -9999.0 -9999.0 -9999.0 -9999.0 -9999.0 -9999.0 -9999.0 -9999.0 -9999.0 -9999.0 -9999.0 -9999.0 -9999.0 -9999.0 -9999.0 -9999.0 -9999.0 -9999.0 -9999.0 -9999.0 -9999.0 -9999.0 -9999.0 -9999.0 -9999.0 -9999.0 -9999.0 -9999.0 -9999.0 -9999.0 -9999.0 -9999.0 -9999.0 -9999.0 -9999.0 -9999.0 -9999.0 -9999.0 -9999.0 -9999.0 -9999.0 -9999.0 -9999.0 -9999.0 -9999.0 -9999.0 -9999.0 -9999.0 -9999.0 -9999.0 -9999.0 -9999.0 -9999.0 -9999.0 -9999.0 -9999.0 -9999.0 -9999.0 -9999.0 -9999.0 -9999.0 -9999.0 -9999.0 -9999.0 -9999.0 -9999.0 -9999.0 -9999.0 -9999.0 -9999.0 -9999.0 -9999.0 -9999.0 -9999.0 -9999.0 -9999.0 -9999.0 -9999.0 -9999.0 -9999.0 -9999.0 -9999.0 -9999.0 -9999.0 -9999.0 -9999.0 -9999.0 -9999.0 -9999.0 -9999.0 -9999.0 -9999.0 -9999.0 -9999.0 -9999.0 -9999.0 -9999.0 -9999.0 -9999.0 -9999.0 -9999.0 -9999.0 -9999.0 -9999.0 -9999.0 -9999.0 -9999.0 -9999.0 -9999.0 -9999.0 -9999.0 -9999.0 64.6 67.6 71.3 77.0 79.0 68.9 67.7 82.2 88.8 91.1 89.6 86.3 84.4 69.8 69.9 83.4 92.4 82.5 72.6 77.2 128.1 182.4 209.9 208.2 205.7 217.2 191.6 188.4 222.4 262.1 280.1 271.1 249.7 233.2 217.0 199.7 188.0 183.9 190.5 198.8 187.5 242.2 266.7 301.3 316.2 375.9 384.6 324.4 299.8 305.1 348.2 354.5 295.0 296.3 268.9 260.0 265.0 255.0 247.9 244.9 248.4 248.4 250.4 272.2 298.7 322.7 347.6 352.8 364.0 352.9 363.8 368.5 367.3 352.9 342.6 351.2 355.4 363.3 369.6 383.6 399.4 421.0 479.6 543.7 564.1 565.0 566.0 562.2 543.2 518.0 502.1 480.0 477.7 495.9 489.4 467.9 463.5 462.4 449.8 443.7 420.1 420.0 421.0 413.2 405.0 402.9 429.3 416.6 410.0 413.5 403.5 395.7 393.6 383.4 372.6 349.7 324.9 332.4 329.1 319.1 308.7 314.9 316.9 317.7 316.2 314.8 314.1 310.8 306.8 304.2 304.2 303.3 295.8 -9999.0 -9999.0
-9999.0 -9999.0 -9999.0 -9999.0 -9999.0 -9999.0 -9999.0 -9999.0 -9999.0 -9999.0 -9999.0 -9999.0 -9999.0 -9999.0 -9999.0 -9999.0 -9999.0 -9999.0 -9999.0 -9999.0 -9999.0 -9999.0 -9999.0 -9999.0 -9999.0 -9999.0 -9999.0 -9999.0 -9999.0 -9999.0 -9999.0 -9999.0 -9999.0 -9999.0 -9999.0 -9999.0 -9999.0 -9999.0 -9999.0 -9999.0 -9999.0 -9999.0 -9999.0 -9999.0 -9999.0 -9999.0 -9999.0 -9999.0 -9999.0 -9999.0 -9999.0 -9999.0 -9999.0 -9999.0 -9999.0 -9999.0 -9999.0 -9999.0 -9999.0 -9999.0 -9999.0 -9999.0 -9999.0 -9999.0 -9999.0 -9999.0 -9999.0 -9999.0 -9999.0 -9999.0 -9999.0 -9999.0 -9999.0 -9999.0 -9999.0 -9999.0 -9999.0 -9999.0 -9999.0 -9999.0 -9999.0 -9999.0 -9999.0 -9999.0 -9999.0 -9999.0 -9999.0 -9999.0 -9999.0 -9999.0 -9999.0 -9999.0 -9999.0 -9999.0 -9999.0 -9999.0 -9999.0 -9999.0 -9999.0 -9999.0 -9999.0 -9999.0 -9999.0 -9999.0 -9999.0 -9999.0 -9999.0 -9999.0 -9999.0 -9999.0 -9999.0 -9999.0 -9999.0 -9999.0 -9999.0 -9999.0 -9999.0 -9999.0 -9999.0 -9999.0 -9999.0 -9999.0 65.7 67.8 74.2 68.5 73.2 75.2 68.2 66.2 65.4 69.0 67.7 60.7 76.1 113.7 144.1 179.6 141.5 107.8 98.4 96.8 109.4 120.0 125.4 147.3 166.6 180.5 208.9 224.8 264.5 258.2 267.1 252.0 239.0 228.0 212.7 206.0 183.5 153.8 157.8 183.4 225.6 251.5 253.5 278.0 321.0 343.4 318.6 310.7 324.5 343.1 321.9 331.4 338.0 288.6 276.7 274.3 261.8 255.7 253.3 253.2 257.9 266.3 279.3 298.0 320.9 330.6 346.5 369.9 395.2 414.2 392.5 378.5 372.2 376.4 383.5 379.4 361.1 385.3 387.8 400.0 437.5 478.5 525.2 532.4 569.0 586.7 571.0 554.8 544.6 531.3 514.0 493.4 471.4 461.1 457.9 460.6 451.9 436.3 421.1 405.6 375.0 394.7 400.7 393.4 370.7 403.7 390.3 378.5 403.9 409.0 392.3 371.0 371.7 377.4 356.5 338.5 315.7 323.4 322.3 318.3 310.8 302.2 297.5 300.4 303.7 304.3 306.3 305.3 303.3 302.1 295.8 289.6 -9999.0 -9999.0
-9999.0 -9999.0 -9999.0 -9999.0 -9999.0 -9999.0 -9999.0 -9999.0 -9999.0 -9999.0 -9999.0 -9999.0 -9999.0 -9999.0 -9999.0 -9999.0 -9999.0 -9999.0 -9999.0 -9999.0 -9999.0 -9999.0 -9999.0 -9999.0 -9999.0 -9999.0 -9999.0 -9999.0 -9999.0 -9999.0 -9999.0 -9999.0 -9999.0 -9999.0 -9999.0 -9999.0 -9999.0 -9999.0 -9999.0 -9999.0 -9999.0 -9999.0 -9999.0 -9999.0 -9999.0 -9999.0 -9999.0 -9999.0 -9999.0 -9999.0 -9999.0 -9999.0 -9999.0 -9999.0 -9999.0 -9999.0 -9999.0 -9999.0 -9999.0 -9999.0 -9999.0 -9999.0 -9999.0 -9999.0 -9999.0 -9999.0 -9999.0 -9999.0 -9999.0 -9999.0 -9999.0 -9999.0 -9999.0 -9999.0 -9999.0 -9999.0 -9999.0 -9999.0 -9999.0 -9999.0 -9999.0 -9999.0 -9999.0 -9999.0 -9999.0 -9999.0 -9999.0 -9999.0 -9999.0 -9999.0 -9999.0 -9999.0 -9999.0 -9999.0 -9999.0 -9999.0 -9999.0 -9999.0 -9999.0 -9999.0 -9999.0 -9999.0 -9999.0 -9999.0 -9999.0 -9999.0 -9999.0 -9999.0 -9999.0 -9999.0 -9999.0 -9999.0 -9999.0 -9999.0 -9999.0 -9999.0 -9999.0 -9999.0 -9999.0 -9999.0 -9999.0 -9999.0 -9999.0 60.7 69.0 56.7 61.1 64.6 59.1 68.9 70.2 65.5 65.9 74.5 92.1 109.3 136.6 174.7 190.8 190.6 178.8 153.9 130.5 123.8 133.6 122.0 183.9 218.8 210.2 226.0 234.5 225.4 249.0 248.4 237.6 228.2 226.8 226.2 217.8 174.1 130.9 159.1 195.7 212.8 214.0 266.3 296.6 241.6 253.2 300.6 336.8 347.8 345.7 367.8 317.8 276.6 274.7 283.3 264.5 251.4 240.9 236.5 253.1 267.1 284.2 300.2 326.2 333.7 352.5 377.8 407.9 426.1 431.2 382.0 353.1 376.4 412.4 408.1 390.4 398.3 406.7 436.4 421.5 444.7 464.1 485.2 529.8 533.2 542.0 540.5 547.1 532.9 512.8 494.3 469.6 473.5 464.9 438.9 443.3 449.7 441.7 429.5 417.3 391.9 366.9 366.7 359.9 374.7 377.4 361.4 385.9 400.2 372.0 352.6 337.3 340.9 355.4 349.9 333.4 306.9 308.5 311.4 312.1 311.8 310.0 305.7 299.2 297.1 290.7 285.4 287.0 285.2 278.0 285.9 -9999.0 -9999.0
-9999.0 -9999.0 -9999.0 -9999.0 -9999.0 -9999.0 -9999.0 -9999.0 -9999.0 -9999.0 -9999.0 -9999.0 -9999.0 -9999.0 -9999.0 -9999.0 -9999.0 -9999.0 -9999.0 -9999.0 -9999.0 -9999.0 -9999.0 -9999.0 -9999.0 -9999.0 -9999.0 -9999.0 -9999.0 -9999.0 -9999.0 -9999.0 -9999.0 -9999.0 -9999.0 -9999.0 -9999.0 -9999.0 -9999.0 -9999.0 -9999.0 -9999.0 -9999.0 -9999.0 -9999.0 -9999.0 -9999.0 -9999.0 -9999.0 -9999.0 -9999.0 -9999.0 -9999.0 -9999.0 -9999.0 -9999.0 -9999.0 -9999.0 -9999.0 -9999.0 -9999.0 -9999.0 -9999.0 -9999.0 -9999.0 -9999.0 -9999.0 -9999.0 -9999.0 -9999.0 -9999.0 -9999.0 -9999.0 -9999.0 -9999.0 -9999.0 -9999.0 -9999.0 -9999.0 -9999.0 -9999.0 -9999.0 -9999.0 -9999.0 -9999.0 -9999.0 -9999.0 -9999.0 -9999.0 -9999.0 -9999.0 -9999.0 -9999.0 -9999.0 -9999.0 -9999.0 -9999.0 -9999.0 -9999.0 -9999.0 -9999.0 -9999.0 -9999.0 -9999.0 -9999.0 -9999.0 -9999.0 -9999.0 -9999.0 -9999.0 -9999.0 -9999.0 -9999.0 -9999.0 -9999.0 -9999.0 -9999.0 -9999.0 -9999.0 -9999.0 -9999.0 -9999.0 -9999.0 -9999.0 58.4 63.5 49.5 60.1 58.4 70.8 70.2 71.4 81.2 88.5 91.6 99.3 111.9 131.9 166.5 181.1 187.3 195.8 206.5 185.5 170.5 133.3 170.4 231.0 202.1 219.5 210.9 183.2 222.1 220.6 226.8 217.7 218.6 226.0 223.6 205.0 150.6 122.4 170.3 188.5 193.2 230.7 242.3 163.5 198.8 262.7 288.3 332.7 296.8 305.4 276.5 239.9 266.9 284.3 285.6 254.5 221.1 238.6 252.8 269.5 283.7 300.7 326.1 362.5 372.9 370.2 379.5 404.2 386.2 358.5 331.9 372.0 415.0 431.2 404.1 407.1 417.5 454.0 455.5 454.3 465.5 496.9 471.9 476.5 484.4 493.6 532.2 550.6 532.5 495.0 477.1 454.3 459.2 459.3 434.8 419.7 412.2 420.1 417.2 415.4 408.9 385.1 355.2 342.8 365.5 349.9 347.8 362.8 353.8 346.3 338.6 331.6 320.7 345.9 348.2 326.2 308.1 300.7 295.3 291.8 290.5 297.2 295.6 288.3 282.9 282.4 283.9 279.2 275.7 275.7 -9999.0 -9999.0
-9999.0 -9999.0 -9999.0 -9999.0 -9999.0 -9999.0 -9999.0 -9999.0 -9999.0 -9999.0 -9999.0 -9999.0 -9999.0 -9999.0 -9999.0 -9999.0 -9999.0 -9999.0 -9999.0 -9999.0 -9999.0 -9999.0 -9999.0 -9999.0 -9999.0 -9999.0 -9999.0 -9999.0 -9999.0 -9999.0 -9999.0 -9999.0 -9999.0 -9999.0 -9999.0 -9999.0 -9999.0 -9999.0 -9999.0 -9999.0 -9999.0 -9999.0 -9999.0 -9999.0 -9999.0 -9999.0 -9999.0 -9999.0 -9999.0 -9999.0 -9999.0 -9999.0 -9999.0 -9999.0 -9999.0 -9999.0 -9999.0 -9999.0 -9999.0 -9999.0 -9999.0 -9999.0 -9999.0 -9999.0 -9999.0 -9999.0 -9999.0 -9999.0 -9999.0 -9999.0 -9999.0 -9999.0 -9999.0 -9999.0 -9999.0 -9999.0 -9999.0 -9999.0 -9999.0 -9999.0 -9999.0 -9999.0 -9999.0 -9999.0 -9999.0 -9999.0 -9999.0 -9999.0 -9999.0 -9999.0 -9999.0 -9999.0 -9999.0 -9999.0 -9999.0 -9999.0 -9999.0 -9999.0 -9999.0 -9999.0 -9999.0 -9999.0 -9999.0 -9999.0 -9999.0 -9999.0 -9999.0 -9999.0 -9999.0 -9999.0 -9999.0 -9999.0 -9999.0 -9999.0 -9999.0 -9999.0 -9999.0 -9999.0 -9999.0 -9999.0 -9999.0 -9999.0 -9999.0 -9999.0 -9999.0 -9999.0 57.2 52.5 67.8 76.6 76.3 74.3 81.6 85.9 78.9 94.4 101.0 110.7 132.4 152.3 156.5 169.4 187.9 203.5 217.6 190.5 208.6 228.6 174.5 209.5 199.5 161.1 196.6 175.8 208.3 196.3 211.5 214.6 215.3 214.5 181.2 121.6 134.2 170.3 138.0 166.2 157.1 110.3 111.0 191.2 218.7 265.5 255.1 235.0 237.9 195.5 232.5 262.2 274.2 248.8 218.5 212.8 234.9 249.6 271.2 295.9 317.0 321.2 340.4 335.3 342.0 338.2 307.1 292.8 286.3 328.2 380.0 428.2 421.6 418.1 454.6 466.3 466.8 464.2 476.3 492.9 448.6 464.5 458.1 463.0 488.5 516.6 469.9 445.3 447.0 439.1 457.1 456.1 447.7 443.5 438.4 431.2 418.4 401.4 385.9 372.2 366.4 348.5 332.0 325.9 331.0 327.6 345.0 341.9 339.2 332.4 329.3 319.8 314.2 310.4 299.0 295.6 291.6 292.2 291.7 291.7 289.9 290.2 296.2 290.9 280.5 278.3 278.6 273.9 -9999.0 -9999.0
-9999.0 -9999.0 -9999.0 -9999.0 -9999.0 -9999.0 -9999.0 -9999.0 -9999.0 -9999.0 -9999.0 -9999.0 -9999.0 -9999.0 -9999.0 -9999.0 -9999.0 -9999.0 -9999.0 -9999.0 -9999.0 -9999.0 -9999.0 -9999.0 -9999.0 -9999.0 -9999.0 -9999.0 -9999.0 -9999.0 -9999.0 -9999.0 -9999.0 -9999.0 -9999.0 -9999.0 -9999.0 -9999.0 -9999.0 -9999.0 -9999.0 -9999.0 -9999.0 -9999.0 -9999.0 -9999.0 -9999.0 -9999.0 -9999.0 -9999.0 -9999.0 -9999.0 -9999.0 -9999.0 -9999.0 -9999.0 -9999.0 -9999.0 -9999.0 -9999.0 -9999.0 -9999.0 -9999.0 -9999.0 -9999.0 -9999.0 -9999.0 -9999.0 -9999.0 -9999.0 -9999.0 -9999.0 -9999.0 -9999.0 -9999.0 -9999.0 -9999.0 -9999.0 -9999.0 -9999.0 -9999.0 -9999.0 -9999.0 -9999.0 -9999.0 -9999.0 -9999.0 -9999.0 -9999.0 -9999.0 -9999.0 -9999.0 -9999.0 -9999.0 -9999.0 -9999.0 -9999.0 -9999.0 -9999.0 -9999.0 -9999.0 -9999.0 -9999.0 -9999.0 -9999.0 -9999.0 -9999.0 -9999.0 -9999.0 -9999.0 -9999.0 -9999.0 -9999.0 -9999.0 -9999.0 -9999.0 -9999.0 -9999.0 -9999.0 -9999.0 -9999.0 -9999.0 -9999.0 -9999.0 -9999.0 -9999.0 56.4 59.4 66.0 66.7 67.3 72.0 76.1 70.9 85.8 91.5 95.8 101.9 108.8 108.2 133.3 153.1 159.1 174.6 191.2 205.9 210.0 205.3 153.3 190.8 161.3 132.8 159.6 181.1 216.8 200.3 155.6 170.9 199.3 203.6 198.7 127.2 103.1 145.9 90.2 146.9 189.8 169.7 104.5 150.8 171.9 191.0 191.6 228.2 199.5 193.0 248.8 246.2 248.1 263.5 206.4 214.5 223.7 238.1 261.7 277.5 275.5 296.1 293.7 301.3 304.9 266.8 251.6 267.8 281.1 304.8 335.8 377.0 394.8 440.3 474.5 462.5 445.5 447.7 461.0 471.1 432.5 444.3 432.7 428.2 436.5 468.1 438.6 428.2 440.2 435.7 452.3 455.9 450.6 441.2 434.2 427.6 417.4 410.6 407.6 404.9 390.1 380.3 370.2 362.2 341.0 333.4 325.6 314.3 316.3 315.2 310.1 305.2 303.8 305.1 306.8 302.1 293.6 291.8 286.8 287.4 285.7 285.1 287.6 292.8 298.2 299.3 295.7 274.9 -9999.0 -9999.0
-9999.0 -9999.0 -9999.0 -9999.0 -9999.0 -9999.0 -9999.0 -9999.0 -9999.0 -9999.0 -9999.0 -9999.0 -9999.0 -9999.0 -9999.0 -9999.0 -9999.0 -9999.0 -9999.0 -9999.0 -9999.0 -9999.0 -9999.0 -9999.0 -9999.0 -9999.0 -9999.0 -9999.0 -9999.0 -9999.0 -9999.0 -9999.0 -9999.0 -9999.0 -9999.0 -9999.0 -9999.0 -9999.0 -9999.0 -9999.0 -9999.0 -9999.0 -9999.0 -9999.0 -9999.0 -9999.0 -9999.0 -9999.0 -9999.0 -9999.0 -9999.0 -9999.0 -9999.0 -9999.0 -9999.0 -9999.0 -9999.0 -9999.0 -9999.0 -9999.0 -9999.0 -9999.0 -9999.0 -9999.0 -9999.0 -9999.0 -9999.0 -9999.0 -9999.0 -9999.0 -9999.0 -9999.0 -9999.0 -9999.0 -9999.0 -9999.0 -9999.0 -9999.0 -9999.0 -9999.0 -9999.0 -9999.0 -9999.0 -9999.0 -9999.0 -9999.0 -9999.0 -9999.0 -9999.0 -9999.0 -9999.0 -9999.0 -9999.0 -9999.0 -9999.0 -9999.0 -9999.0 -9999.0 -9999.0 -9999.0 -9999.0 -9999.0 -9999.0 -9999.0 -9999.0 -9999.0 -9999.0 -9999.0 -9999.0 -9999.0 -9999.0 -9999.0 -9999.0 -9999.0 -9999.0 -9999.0 -9999.0 -9999.0 -9999.0 -9999.0 -9999.0 -9999.0 -9999.0 -9999.0 -9999.0 -9999.0 -9999.0 52.1 53.3 57.2 65.8 67.0 67.1 70.5 83.7 87.6 92.6 96.8 89.6 107.1 118.0 131.4 148.0 161.1 173.0 183.0 169.5 204.7 172.1 123.3 122.5 164.7 164.3 140.8 173.9 184.1 125.0 120.3 187.1 172.8 175.2 117.7 81.3 94.7 105.2 175.5 217.1 227.9 163.8 118.3 116.4 121.9 166.5 145.5 144.4 163.3 176.6 182.1 197.3 206.8 210.6 215.9 219.6 227.8 242.5 245.9 256.1 267.0 264.5 266.5 242.9 257.0 286.1 330.4 350.4 375.0 406.1 433.3 444.3 459.1 502.4 520.3 475.3 439.0 443.4 439.5 438.5 443.3 425.9 426.1 436.5 434.5 417.3 425.9 424.8 442.1 462.3 470.4 471.1 455.3 443.3 427.7 422.7 390.3 389.7 385.9 383.5 376.7 375.8 360.6 355.7 348.6 341.5 334.9 326.5 325.4 324.7 329.5 326.5 319.9 314.1 308.5 305.2 297.8 283.5 283.3 286.6 292.4 297.9 302.4 298.2 291.5 277.7 267.3 -9999.0 -9999.0
-9999.0 -9999.0 -9999.0 -9999.0 -9999.0 -9999.0 -9999.0 -9999.0 -9999.0 -9999.0 -9999.0 -9999.0 -9999.0 -9999.0 -9999.0 -9999.0 -9999.0 -9999.0 -9999.0 -9999.0 -9999.0 -9999.0 -9999.0 -9999.0 -9999.0 -9999.0 -9999.0 -9999.0 -9999.0 -9999.0 -9999.0 -9999.0 -9999.0 -9999.0 -9999.0 -9999.0 -9999.0 -9999.0 -9999.0 -9999.0 -9999.0 -9999.0 -9999.0 -9999.0 -9999.0 -9999.0 -9999.0 -9999.0 -9999.0 -9999.0 -9999.0 -9999.0 -9999.0 -9999.0 -9999.0 -9999.0 -9999.0 -9999.0 -9999.0 -9999.0 -9999.0 -9999.0 -9999.0 -9999.0 -9999.0 -9999.0 -9999.0 -9999.0 -9999.0 -9999.0 -9999.0 -9999.0 -9999.0 -9999.0 -9999.0 -9999.0 -9999.0 -9999.0 -9999.0 -9999.0 -9999.0 -9999.0 -9999.0 -9999.0 -9999.0 -9999.0 -9999.0 -9999.0 -9999.0 -9999.0 -9999.0 -9999.0 -9999.0 -9999.0 -9999.0 -9999.0 -9999.0 -9999.0 -9999.0 -9999.0 -9999.0 -9999.0 -9999.0 -9999.0 -9999.0 -9999.0 -9999.0 -9999.0 -9999.0 -9999.0 -9999.0 -9999.0 -9999.0 -9999.0 -9999.0 -9999.0 -9999.0 -9999.0 -9999.0 -9999.0 -9999.0 -9999.0 -9999.0 -9999.0 -9999.0 -9999.0 -9999.0 -9999.0 64.7 66.5 68.2 74.5 76.5 65.6 80.8 83.5 88.2 82.2 93.0 103.0 108.6 113.4 118.1 136.5 156.8 161.3 132.9 178.6 138.5 114.7 166.3 193.9 147.7 102.2 93.0 102.3 91.8 85.4 112.9 104.5 90.5 80.7 87.4 109.7 151.7 162.1 188.4 220.9 235.3 179.3 161.1 128.0 118.4 130.8 147.6 147.9 154.8 162.6 168.3 175.8 173.7 179.4 184.8 202.9 215.2 217.9 228.1 239.7 246.6 233.0 261.4 286.4 306.7 363.2 425.6 457.0 494.1 510.2 526.5 523.3 549.1 556.9 499.3 458.3 433.9 427.1 451.4 438.5 427.7 437.0 441.6 426.5 438.1 451.1 451.7 447.2 457.9 456.3 459.8 453.4 466.2 452.0 442.3 429.1 404.7 390.0 395.5 393.1 375.3 347.7 348.8 342.9 330.1 326.4 323.1 324.4 320.3 306.7 310.0 319.2 318.2 309.1 305.9 296.4 295.4 295.8 291.2 279.6 270.5 277.4 275.0 266.3 269.2 291.1 -9999.0 -9999.0
-9999.0 -9999.0 -9999.0 -9999.0 -9999.0 -9999.0 -9999.0 -9999.0 -9999.0 -9999.0 -9999.0 -9999.0 -9999.0 -9999.0 -9999.0 -9999.0 -9999.0 -9999.0 -9999.0 -9999.0 -9999.0 -9999.0 -9999.0 -9999.0 -9999.0 -9999.0 -9999.0 -9999.0 -9999.0 -9999.0 -9999.0 -9999.0 -9999.0 -9999.0 -9999.0 -9999.0 -9999.0 -9999.0 -9999.0 -9999.0 -9999.0 -9999.0 -9999.0 -9999.0 -9999.0 -9999.0 -9999.0 -9999.0 -9999.0 -9999.0 -9999.0 -9999.0 -9999.0 -9999.0 -9999.0 -9999.0 -9999.0 -9999.0 -9999.0 -9999.0 -9999.0 -9999.0 -9999.0 -9999.0 -9999.0 -9999.0 -9999.0 -9999.0 -9999.0 -9999.0 -9999.0 -9999.0 -9999.0 -9999.0 -9999.0 -9999.0 -9999.0 -9999.0 -9999.0 -9999.0 -9999.0 -9999.0 -9999.0 -9999.0 -9999.0 -9999.0 -9999.0 -9999.0 -9999.0 -9999.0 -9999.0 -9999.0 -9999.0 -9999.0 -9999.0 -9999.0 -9999.0 -9999.0 -9999.0 -9999.0 -9999.0 -9999.0 -9999.0 -9999.0 -9999.0 -9999.0 -9999.0 -9999.0 -9999.0 -9999.0 -9999.0 -9999.0 -9999.0 -9999.0 -9999.0 -9999.0 -9999.0 -9999.0 -9999.0 -9999.0 -9999.0 -9999.0 -9999.0 -9999.0 -9999.0 -9999.0 -9999.0 -9999.0 65.4 65.8 67.4 72.4 74.9 70.8 74.5 79.1 70.6 79.5 91.8 88.2 91.9 103.7 115.8 132.7 142.8 135.5 93.4 96.2 107.1 151.3 175.4 163.9 122.1 81.5 67.9 73.6 74.4 69.7 74.2 70.9 68.9 76.4 83.3 97.2 121.6 156.0 173.6 190.9 227.4 234.7 245.5 234.5 139.1 128.2 138.2 152.8 197.9 208.2 201.4 202.2 194.6 216.1 230.3 222.0 222.2 223.2 213.8 223.9 213.9 234.8 253.9 262.4 307.1 386.9 431.2 418.7 463.6 540.6 552.8 496.4 495.8 510.0 478.1 458.7 439.5 434.2 443.3 418.1 425.2 430.8 424.0 439.2 447.0 439.3 432.9 423.4 433.2 439.1 434.4 451.8 466.2 452.5 437.6 427.3 401.5 409.6 402.0 369.6 372.1 374.3 376.5 369.2 352.2 342.2 329.2 316.2 311.6 306.7 294.2 299.4 319.1 319.4 306.2 292.5 283.0 274.5 290.3 290.2 282.8 285.2 286.9 287.3 282.1 274.5 -9999.0 -9999.0
-9999.0 -9999.0 -9999.0 -9999.0 -9999.0 -9999.0 -9999.0 -9999.0 -9999.0 -9999.0 -9999.0 -9999.0 -9999.0 -9999.0 -9999.0 -9999.0 -9999.0 -9999.0 -9999.0 -9999.0 -9999.0 -9999.0 -9999.0 -9999.0 -9999.0 -9999.0 -9999.0 -9999.0 -9999.0 -9999.0 -9999.0 -9999.0 -9999.0 -9999.0 -9999.0 -9999.0 -9999.0 -9999.0 -9999.0 -9999.0 -9999.0 -9999.0 -9999.0 -9999.0 -9999.0 -9999.0 -9999.0 -9999.0 -9999.0 -9999.0 -9999.0 -9999.0 -9999.0 -9999.0 -9999.0 -9999.0 -9999.0 -9999.0 -9999.0 -9999.0 -9999.0 -9999.0 -9999.0 -9999.0 -9999.0 -9999.0 -9999.0 -9999.0 -9999.0 -9999.0 -9999.0 -9999.0 -9999.0 -9999.0 -9999.0 -9999.0 -9999.0 -9999.0 -9999.0 -9999.0 -9999.0 -9999.0 -9999.0 -9999.0 -9999.0 -9999.0 -9999.0 -9999.0 -9999.0 -9999.0 -9999.0 -9999.0 -9999.0 -9999.0 -9999.0 -9999.0 -9999.0 -9999.0 -9999.0 -9999.0 -9999.0 -9999.0 -9999.0 -9999.0 -9999.0 -9999.0 -9999.0 -9999.0 -9999.0 -9999.0 -9999.0 -9999.0 -9999.0 -9999.0 -9999.0 -9999.0 -9999.0 -9999.0 -9999.0 -9999.0 -9999.0 -9999.0 -9999.0 -9999.0 -9999.0 -9999.0 -9999.0 -9999.0 53.9 62.7 67.9 71.2 73.3 74.6 72.3 62.7 71.3 71.3 78.1 87.0 98.3 102.6 107.6 117.4 111.2 83.6 91.2 112.2 122.4 119.6 99.0 93.3 81.8 64.4 97.4 127.6 110.1 97.0 93.7 93.4 84.2 82.6 91.0 107.6 115.8 112.7 133.4 160.0 193.3 236.8 265.4 254.4 199.2 195.3 148.4 142.0 143.1 175.2 169.0 147.4 148.3 181.1 216.6 221.3 232.5 283.0 259.4 287.4 280.3 229.6 250.9 280.3 301.2 331.4 345.3 386.8 428.9 484.7 511.0 489.8 452.9 448.7 456.4 444.9 426.2 422.0 410.4 410.0 415.6 422.1 426.1 436.3 439.8 419.7 421.9 430.9 453.7 465.1 469.1 451.9 472.5 477.3 463.2 436.9 434.9 428.5 403.3 411.3 420.7 415.7 410.9 385.7 370.9 355.8 329.9 338.9 329.4 314.7 312.8 303.4 291.5 298.4 301.5 304.5 294.8 281.2 270.8 269.6 260.0 260.0 259.0 262.5 264.6 274.2 -9999.0 -9999.0
-9999.0 -9999.0 -9999.0 -9999.0 -9999.0 -9999.0 -9999.0 -9999.0 -9999.0 -9999.0 -9999.0 -9999.0 -9999.0 -9999.0 -9999.0 -9999.0 -9999.0 -9999.0 -9999.0 -9999.0 -9999.0 -9999.0 -9999.0 -9999.0 -9999.0 -9999.0 -9999.0 -9999.0 -9999.0 -9999.0 -9999.0 -9999.0 -9999.0 -9999.0 -9999.0 -9999.0 -9999.0 -9999.0 -9999.0 -9999.0 -9999.0 -9999.0 -9999.0 -9999.0 -9999.0 -9999.0 -9999.0 -9999.0 -9999.0 -9999.0 -9999.0 -9999.0 -9999.0 -9999.0 -9999.0 -9999.0 -9999.0 -9999.0 -9999.0 -9999.0 -9999.0 -9999.0 -9999.0 -9999.0 -9999.0 -9999.0 -9999.0 -9999.0 -9999.0 -9999.0 -9999.0 -9999.0 -9999.0 -9999.0 -9999.0 -9999.0 -9999.0 -9999.0 -9999.0 -9999.0 -9999.0 -9999.0 -9999.0 -9999.0 -9999.0 -9999.0 -9999.0 -9999.0 -9999.0 -9999.0 -9999.0 -9999.0 -9999.0 -9999.0 -9999.0 -9999.0 -9999.0 -9999.0 -9999.0 -9999.0 -9999.0 -9999.0 -9999.0 -9999.0 -9999.0 -9999.0 -9999.0 -9999.0 -9999.0 -9999.0 -9999.0 -9999.0 -9999.0 -9999.0 -9999.0 -9999.0 -9999.0 -9999.0 -9999.0 -9999.0 -9999.0 -9999.0 -9999.0 -9999.0 -9999.0 -9999.0 -9999.0 -9999.0 -9999.0 51.7 58.2 68.0 71.1 61.9 56.9 63.2 69.8 79.4 83.0 77.0 93.3 97.8 98.4 89.8 71.5 100.4 132.5 149.4 111.0 84.6 77.5 71.1 64.5 73.3 103.1 148.5 153.4 160.3 169.6 142.2 105.4 106.0 103.2 138.6 160.6 149.7 160.9 164.6 184.6 202.1 233.5 273.5 259.7 239.0 172.1 180.0 161.2 139.8 140.3 136.3 125.4 141.5 171.0 191.3 256.0 328.9 334.0 340.5 293.1 249.2 228.9 256.4 279.1 318.6 352.7 374.0 431.8 488.1 528.3 491.2 450.3 444.0 426.5 411.8 404.7 429.9 452.2 448.2 436.8 423.8 411.5 416.7 408.4 424.1 434.5 432.1 446.8 485.2 491.6 472.6 487.8 520.3 502.8 480.7 478.0 452.0 428.0 451.0 450.6 457.7 441.8 415.7 399.8 373.8 365.0 352.4 334.7 330.9 330.4 305.0 308.1 313.9 319.6 311.6 306.2 298.2 290.6 277.7 280.1 288.7 281.0 279.1 284.3 292.4 -9999.0 -9999.0
-9999.0 -9999.0 -9999.0 -9999.0 -9999.0 -9999.0 -9999.0 -9999.0 -9999.0 -9999.0 -9999.0 -9999.0 -9999.0 -9999.0 -9999.0 -9999.0 -9999.0 -9999.0 -9999.0 -9999.0 -9999.0 -9999.0 -9999.0 -9999.0 -9999.0 -9999.0 -9999.0 -9999.0 -9999.0 -9999.0 -9999.0 -9999.0 -9999.0 -9999.0 -9999.0 -9999.0 -9999.0 -9999.0 -9999.0 -9999.0 -9999.0 -9999.0 -9999.0 -9999.0 -9999.0 -9999.0 -9999.0 -9999.0 -9999.0 -9999.0 -9999.0 -9999.0 -9999.0 -9999.0 -9999.0 -9999.0 -9999.0 -9999.0 -9999.0 -9999.0 -9999.0 -9999.0 -9999.0 -9999.0 -9999.0 -9999.0 -9999.0 -9999.0 -9999.0 -9999.0 -9999.0 -9999.0 -9999.0 -9999.0 -9999.0 -9999.0 -9999.0 -9999.0 -9999.0 -9999.0 -9999.0 -9999.0 -9999.0 -9999.0 -9999.0 -9999.0 -9999.0 -9999.0 -9999.0 -9999.0 -9999.0 -9999.0 -9999.0 -9999.0 -9999.0 -9999.0 -9999.0 -9999.0 -9999.0 -9999.0 -9999.0 -9999.0 -9999.0 -9999.0 -9999.0 -9999.0 -9999.0 -9999.0 -9999.0 -9999.0 -9999.0 -9999.0 -9999.0 -9999.0 -9999.0 -9999.0 -9999.0 -9999.0 -9999.0 -9999.0 -9999.0 -9999.0 -9999.0 -9999.0 -9999.0 -9999.0 -9999.0 -9999.0 -9999.0 55.3 58.7 50.7 53.8 58.0 59.0 63.1 71.2 74.0 77.5 73.2 87.6 91.4 92.5 67.4 84.3 84.9 96.2 106.2 121.7 83.9 62.3 80.8 104.6 112.1 131.0 144.3 136.6 156.6 174.6 149.4 135.7 151.0 154.6 157.5 199.2 212.7 187.9 201.0 207.0 243.8 242.1 282.7 283.1 260.5 243.4 202.9 233.7 217.0 199.0 174.4 150.7 135.4 149.6 196.2 254.1 348.0 399.7 384.6 323.4 297.3 258.0 257.3 305.1 371.7 441.7 461.3 515.8 591.4 611.8 547.4 487.1 483.3 451.9 422.4 412.6 463.5 463.3 455.4 448.4 450.6 443.0 427.1 435.3 420.9 422.5 440.3 458.3 477.5 504.5 525.6 515.3 548.5 539.4 498.9 480.1 471.5 472.8 490.4 496.9 502.5 488.1 479.6 463.4 420.4 404.7 385.0 354.3 354.5 336.1 329.0 338.6 335.2 333.7 328.3 317.2 298.7 290.0 292.9 303.1 297.0 297.4 304.0 304.3 300.5 -9999.0 -9999.0
-9999.0 -9999.0 -9999.0 -9999.0 -9999.0 -9999.0 -9999.0 -9999.0 -9999.0 -9999.0 -9999.0 -9999.0 -9999.0 -9999.0 -9999.0 -9999.0 -9999.0 -9999.0 -9999.0 -9999.0 -9999.0 -9999.0 -9999.0 -9999.0 -9999.0 -9999.0 -9999.0 -9999.0 -9999.0 -9999.0 -9999.0 -9999.0 -9999.0 -9999.0 -9999.0 -9999.0 -9999.0 -9999.0 -9999.0 -9999.0 -9999.0 -9999.0 -9999.0 -9999.0 -9999.0 -9999.0 -9999.0 -9999.0 -9999.0 -9999.0 -9999.0 -9999.0 -9999.0 -9999.0 -9999.0 -9999.0 -9999.0 -9999.0 -9999.0 -9999.0 -9999.0 -9999.0 -9999.0 -9999.0 -9999.0 -9999.0 -9999.0 -9999.0 -9999.0 -9999.0 -9999.0 -9999.0 -9999.0 -9999.0 -9999.0 -9999.0 -9999.0 -9999.0 -9999.0 -9999.0 -9999.0 -9999.0 -9999.0 -9999.0 -9999.0 -9999.0 -9999.0 -9999.0 -9999.0 -9999.0 -9999.0 -9999.0 -9999.0 -9999.0 -9999.0 -9999.0 -9999.0 -9999.0 -9999.0 -9999.0 -9999.0 -9999.0 -9999.0 -9999.0 -9999.0 -9999.0 -9999.0 -9999.0 -9999.0 -9999.0 -9999.0 -9999.0 -9999.0 -9999.0 -9999.0 -9999.0 -9999.0 -9999.0 -9999.0 -9999.0 -9999.0 -9999.0 -9999.0 -9999.0 -9999.0 -9999.0 -9999.0 -9999.0 -9999.0 -9999.0 59.5 47.8 51.7 60.8 64.3 64.1 73.6 76.5 76.9 82.3 83.1 65.4 72.0 64.1 57.5 65.2 69.6 73.3 77.1 64.2 74.1 114.1 141.6 157.7 172.2 149.9 121.7 154.8 187.4 175.0 193.8 191.8 197.3 225.4 265.4 271.9 256.5 234.6 267.9 277.3 317.3 291.6 328.6 369.6 325.7 281.8 387.6 318.2 273.5 242.3 218.7 151.9 141.7 167.5 208.6 271.7 332.6 397.1 374.9 326.6 283.2 254.1 294.2 329.5 401.1 486.6 521.5 581.0 615.8 575.1 573.6 535.3 486.6 450.9 404.3 400.1 429.5 459.4 453.7 466.8 447.6 441.3 441.2 455.0 433.4 432.4 446.5 475.1 505.4 548.7 561.6 583.9 561.9 536.0 515.4 491.0 518.3 519.3 526.7 570.1 573.9 541.6 491.1 480.9 469.5 440.3 401.8 376.8 354.2 365.9 359.3 358.5 345.2 335.2 324.7 303.9 306.4 312.5 307.4 306.1 310.4 307.0 300.4 292.1 -9999.0 -9999.0
-9999.0 -9999.0 -9999.0 -9999.0 -9999.0 -9999.0 -9999.0 -9999.0 -9999.0 -9999.0 -9999.0 -9999.0 -9999.0 -9999.0 -9999.0 -9999.0 -9999.0 -9999.0 -9999.0 -9999.0 -9999.0 -9999.0 -9999.0 -9999.0 -9999.0 -9999.0 -9999.0 -9999.0 -9999.0 -9999.0 -9999.0 -9999.0 -9999.0 -9999.0 -9999.0 -9999.0 -9999.0 -9999.0 -9999.0 -9999.0 -9999.0 -9999.0 -9999.0 -9999.0 -9999.0 -9999.0 -9999.0 -9999.0 -9999.0 -9999.0 -9999.0 -9999.0 -9999.0 -9999.0 -9999.0 -9999.0 -9999.0 -9999.0 -9999.0 -9999.0 -9999.0 -9999.0 -9999.0 -9999.0 -9999.0 -9999.0 -9999.0 -9999.0 -9999.0 -9999.0 -9999.0 -9999.0 -9999.0 -9999.0 -9999.0 -9999.0 -9999.0 -9999.0 -9999.0 -9999.0 -9999.0 -9999.0 -9999.0 -9999.0 -9999.0 -9999.0 -9999.0 -9999.0 -9999.0 -9999.0 -9999.0 -9999.0 -9999.0 -9999.0 -9999.0 -9999.0 -9999.0 -9999.0 -9999.0 -9999.0 -9999.0 -9999.0 -9999.0 -9999.0 -9999.0 -9999.0 -9999.0 -9999.0 -9999.0 -9999.0 -9999.0 -9999.0 -9999.0 -9999.0 -9999.0 -9999.0 -9999.0 -9999.0 -9999.0 -9999.0 -9999.0 -9999.0 -9999.0 -9999.0 -9999.0 -9999.0 -9999.0 -9999.0 -9999.0 -9999.0 -9999.0 61.0 63.0 54.4 69.8 73.9 76.2 78.3 80.3 73.9 68.6 55.1 56.1 59.1 54.9 67.2 67.5 66.9 71.4 74.9 96.6 126.4 123.4 110.4 106.0 118.4 156.9 194.5 196.7 233.3 217.6 205.7 220.7 240.7 309.6 372.7 334.9 321.5 349.5 351.0 389.3 367.2 389.4 407.3 323.8 381.6 450.7 440.2 372.4 315.2 238.6 182.7 145.5 144.7 182.9 223.2 287.7 359.4 380.6 317.3 291.2 274.7 314.9 377.2 426.2 423.5 454.6 519.6 576.1 520.1 577.5 611.8 548.9 488.6 450.0 417.3 390.9 418.0 431.7 447.3 460.7 460.1 455.3 458.1 457.8 444.9 455.9 485.0 519.0 558.3 574.4 584.6 591.0 553.1 531.4 526.1 510.4 478.7 474.5 513.4 570.9 614.1 524.2 487.6 517.3 489.5 463.4 395.2 405.9 395.2 377.1 351.9 327.5 322.9 332.5 345.7 346.2 325.5 313.4 308.9 307.7 301.3 276.2 267.5 -9999.0 -9999.0
