ncols   423
nrows   32
xllcorner    7.630389
yllcorner    44.222151
cellsize    0.005007
NODATA_value -9999
516.3 505.5 494.8 495.9 503.8 489.3 471.1 473.8 463.9 463.0 482.8 492.2 496.0 494.5 482.1 458.3 498.9 507.1 493.3 481.9 544.6 542.2 519.9 525.8 552.0 550.5 531.0 500.5 497.3 502.2 497.5 475.6 486.2 461.3 473.8 467.3 433.4 440.3 473.6 528.7 533.4 515.8 513.4 524.3 547.8 537.9 547.0 528.0 552.1 558.1 562.1 532.4 545.2 568.4 565.1 557.0 482.5 445.6 454.0 466.6 491.7 494.3 453.8 528.6 555.9 554.3 540.8 539.2 534.4 545.8 551.5 530.2 505.1 503.7 505.8 452.1 432.4 433.7 415.4 405.2 423.7 429.8 433.4 447.1 448.2 498.4 494.8 524.1 557.1 535.4 527.3 548.1 601.2 585.5 539.7 578.3 569.0 624.2 631.5 656.2 735.4 761.6 718.8 704.8 736.1 730.8 649.5 557.8 499.4 506.9 553.1 548.4 490.9 447.2 448.5 528.4 600.0 576.0 502.8 518.6 547.7 571.5 557.8 498.4 455.1 437.2 418.7 416.9 395.5 365.9 354.8 392.3 421.7 416.4 430.9 484.9 491.6 562.4 507.8 508.1 491.2 461.6 441.8 480.2 509.7 520.6 549.7 551.0 616.6 672.0 634.6 562.1 620.5 714.8 759.3 809.7 799.4 670.6 554.0 464.6 345.9 366.4 419.5 302.0 336.2 327.7 250.4 172.2 218.7 311.3 381.5 286.7 219.2 177.2 170.1 265.3 335.0 346.1 323.0 331.8 267.8 221.2 242.4 238.1 197.9 135.9 200.9 292.5 291.5 327.8 309.3 352.2 309.2 256.7 208.4 191.0 152.4 -9999.0 -9999.0 -9999.0 -9999.0 -9999.0 -9999.0 -9999.0 -9999.0 -9999.0 -9999.0 -9999.0 -9999.0 -9999.0 -9999.0 -9999.0 -9999.0 -9999.0 -9999.0 -9999.0 -9999.0 -9999.0 -9999.0 -9999.0 -9999.0 -9999.0 -9999.0 -9999.0 -9999.0 -9999.0 -9999.0 -9999.0 -9999.0 -9999.0 -9999.0 -9999.0 -9999.0 -9999.0 -9999.0 -9999.0 -9999.0 -9999.0 -9999.0 -9999.0 -9999.0 -9999.0 -9999.0 -9999.0 -9999.0 -9999.0 -9999.0 -9999.0 -9999.0 -9999.0 -9999.0 -9999.0 -9999.0 -9999.0 -9999.0 -9999.0 -9999.0 -9999.0 -9999.0 -9999.0 -9999.0 -9999.0 -9999.0 -9999.0 -9999.0 -9999.0 -9999.0 -9999.0 -9999.0 -9999.0 -9999.0 -9999.0 -9999.0 -9999.0 -9999.0 -9999.0 -9999.0 -9999.0 -9999.0 -9999.0 -9999.0 -9999.0 -9999.0 -9999.0 -9999.0 -9999.0 -9999.0 -9999.0 -9999.0 -9999.0 -9999.0 393.7 354.6 214.5 84.9 124.8 224.5 373.8 520.3 413.1 319.6 245.4 154.2 66.4 100.5 115.0 183.5 302.0 456.9 420.5 270.9 202.5 161.5 274.7 365.9 223.2 201.4 380.0 532.1 454.4 409.5 451.6 564.8 564.7 489.8 408.3 336.0 194.4 163.6 94.0 68.7 123.2 185.6 257.7 282.9 286.2 436.9 379.4 488.8 628.8 581.7 468.0 364.8 303.6 152.4 242.9 144.7 142.4 152.2 192.0 275.0 259.8 290.5 280.3 308.7 402.0 550.8 622.4 663.6 750.6 871.1 907.8 770.6 710.1 643.0 673.0 775.6 868.6 951.9 999.6 937.3 783.1 644.1 663.4 721.7 614.1 537.9 537.8 548.2 578.2 589.8 679.5 722.7 734.1 633.7 593.3 553.4 558.8 514.8 445.2 404.0 413.6 469.5 575.1 678.6 629.0 511.5 545.3 609.3 667.8 718.6 768.1 822.5 882.7 1041.0 1222.9 1368.6 1256.6 1165.4 1094.4 1214.4 1344.4 1263.3 1324.3 1441.7 1519.4 1506.4 1469.1 1460.4 1508.6 1514.9 1559.5 1491.3
507.3 511.4 513.7 508.1 493.1 480.9 485.5 471.9 494.2 492.5 518.7 509.4 504.1 502.3 480.0 491.8 514.8 508.4 490.4 524.2 564.4 563.6 535.6 549.7 560.5 556.8 545.4 506.4 506.9 505.3 500.1 483.6 482.3 472.6 481.3 458.7 443.1 494.1 499.3 469.3 498.5 513.3 511.3 558.8 596.6 608.0 603.8 575.5 560.0 539.3 541.5 515.0 509.2 525.4 510.0 474.6 456.4 468.3 486.2 540.5 551.7 511.9 438.2 462.6 490.7 526.3 510.0 500.5 526.2 543.4 557.8 561.3 512.7 499.3 490.0 458.6 456.4 422.9 408.6 405.7 408.3 437.6 430.8 427.9 438.8 428.9 464.1 470.4 487.8 489.9 494.6 508.6 509.3 515.3 591.4 646.1 638.5 673.2 712.8 685.1 704.4 739.1 728.6 722.5 738.8 755.0 669.3 551.9 576.8 585.7 576.1 526.3 435.9 466.5 507.3 513.1 546.4 601.8 539.1 500.9 479.8 483.7 482.2 467.5 446.1 437.9 430.6 422.0 407.8 383.7 358.0 351.8 375.9 362.3 375.8 404.0 426.1 538.0 525.2 456.9 425.6 435.6 475.4 515.2 541.6 570.9 579.0 615.5 600.4 577.7 547.4 427.6 508.1 609.6 710.2 782.8 763.8 593.8 481.9 487.7 422.8 294.3 319.6 366.4 267.3 222.9 163.3 188.5 279.1 377.4 417.3 348.3 311.9 220.6 149.9 265.5 268.5 332.6 350.6 404.0 391.1 381.9 412.0 392.9 358.7 224.0 111.3 122.8 168.0 217.1 320.3 370.4 367.8 333.6 289.4 270.7 -9999.0 -9999.0 -9999.0 -9999.0 -9999.0 -9999.0 -9999.0 -9999.0 -9999.0 -9999.0 -9999.0 -9999.0 -9999.0 -9999.0 -9999.0 -9999.0 -9999.0 -9999.0 -9999.0 -9999.0 -9999.0 -9999.0 -9999.0 -9999.0 -9999.0 -9999.0 -9999.0 -9999.0 -9999.0 -9999.0 -9999.0 -9999.0 -9999.0 -9999.0 -9999.0 -9999.0 -9999.0 -9999.0 -9999.0 -9999.0 -9999.0 -9999.0 -9999.0 -9999.0 -9999.0 -9999.0 -9999.0 -9999.0 -9999.0 -9999.0 -9999.0 -9999.0 -9999.0 -9999.0 -9999.0 -9999.0 -9999.0 -9999.0 -9999.0 -9999.0 -9999.0 -9999.0 -9999.0 -9999.0 -9999.0 -9999.0 -9999.0 -9999.0 -9999.0 -9999.0 -9999.0 -9999.0 -9999.0 -9999.0 -9999.0 -9999.0 -9999.0 -9999.0 -9999.0 -9999.0 -9999.0 -9999.0 -9999.0 -9999.0 -9999.0 -9999.0 -9999.0 -9999.0 -9999.0 -9999.0 -9999.0 -9999.0 -9999.0 -9999.0 -9999.0 -9999.0 -9999.0 -9999.0 -9999.0 178.6 258.9 385.6 433.7 398.9 306.4 215.6 114.2 59.2 209.5 267.9 222.5 352.5 525.5 467.2 377.7 299.3 203.6 128.4 209.6 121.7 241.3 424.0 509.6 426.0 258.8 277.4 414.0 516.0 608.5 443.3 295.0 265.2 321.8 206.0 71.4 53.2 69.0 133.3 165.2 242.0 277.2 268.1 400.1 440.8 398.1 453.9 338.1 265.8 130.5 115.1 212.2 318.2 339.2 269.3 251.1 311.9 356.5 351.6 410.3 504.3 588.5 648.6 690.7 669.0 737.0 822.3 725.2 620.3 555.7 678.4 736.6 808.4 895.8 976.8 1053.8 856.2 688.8 576.4 570.9 564.4 598.6 667.3 716.2 710.5 698.3 737.3 827.2 854.7 781.1 693.6 624.9 562.7 539.8 550.2 439.5 372.0 447.1 550.2 653.6 572.8 499.2 598.5 681.8 660.9 703.1 815.1 964.8 1101.5 1129.1 1233.2 1372.4 1430.0 1315.8 1193.2 1267.0 1425.5 1394.8 1401.8 1380.4 1362.7 1282.7 1311.8 1405.9 1461.7 1345.4 1367.5 1329.6
526.5 522.7 518.9 503.3 489.1 483.9 483.7 511.1 525.1 507.1 525.4 516.5 508.3 494.1 483.0 524.4 531.8 518.4 489.9 546.1 579.5 579.9 558.3 561.4 574.0 566.4 551.3 514.0 513.7 513.0 504.4 492.1 480.2 492.3 481.5 459.1 482.1 535.6 549.4 492.2 484.0 484.1 550.1 582.3 605.5 597.3 580.3 570.0 580.0 560.4 530.8 521.8 529.2 508.0 470.1 450.4 468.6 506.9 529.4 591.2 588.2 490.7 507.9 471.4 454.9 454.6 467.3 521.9 531.3 545.4 570.2 555.9 528.8 517.5 508.9 468.4 495.9 481.0 456.6 424.6 410.8 436.3 477.0 495.5 509.1 482.4 482.8 491.3 513.6 536.6 555.0 566.9 526.5 542.3 605.5 667.2 715.1 690.9 741.4 759.8 744.3 765.5 728.1 696.9 707.1 726.2 698.0 628.4 579.0 535.9 514.8 490.2 438.7 436.1 503.0 568.7 564.7 612.1 586.8 543.9 512.7 494.6 478.6 480.9 466.7 450.6 443.5 422.6 405.6 390.6 379.1 357.7 352.0 367.3 397.0 423.6 428.8 384.0 396.6 402.1 411.0 484.1 513.4 513.2 545.6 600.8 640.7 581.3 534.4 445.1 387.7 361.1 464.6 591.1 643.9 709.0 727.9 658.2 506.6 391.3 337.3 310.6 213.4 305.2 319.2 215.8 150.4 281.6 370.4 337.9 365.5 284.9 268.0 230.9 123.7 193.8 220.2 253.3 265.5 316.4 340.5 399.7 405.2 334.2 291.3 306.3 199.5 74.7 100.3 193.9 279.2 285.9 319.1 -9999.0 -9999.0 -9999.0 -9999.0 -9999.0 -9999.0 -9999.0 -9999.0 -9999.0 -9999.0 -9999.0 -9999.0 -9999.0 -9999.0 -9999.0 -9999.0 -9999.0 -9999.0 -9999.0 -9999.0 -9999.0 -9999.0 -9999.0 -9999.0 -9999.0 -9999.0 -9999.0 -9999.0 -9999.0 -9999.0 -9999.0 -9999.0 -9999.0 -9999.0 -9999.0 -9999.0 -9999.0 -9999.0 -9999.0 -9999.0 -9999.0 -9999.0 -9999.0 -9999.0 -9999.0 -9999.0 -9999.0 -9999.0 -9999.0 -9999.0 -9999.0 -9999.0 -9999.0 -9999.0 -9999.0 -9999.0 -9999.0 -9999.0 -9999.0 -9999.0 -9999.0 -9999.0 -9999.0 -9999.0 -9999.0 -9999.0 -9999.0 -9999.0 -9999.0 -9999.0 -9999.0 -9999.0 -9999.0 -9999.0 -9999.0 -9999.0 -9999.0 -9999.0 -9999.0 -9999.0 -9999.0 -9999.0 -9999.0 -9999.0 -9999.0 -9999.0 -9999.0 -9999.0 -9999.0 -9999.0 -9999.0 -9999.0 -9999.0 -9999.0 -9999.0 -9999.0 -9999.0 -9999.0 -9999.0 -9999.0 -9999.0 -9999.0 -9999.0 -9999.0 -9999.0 -9999.0 274.7 315.4 173.9 64.2 83.1 188.0 289.0 390.4 469.4 457.6 471.9 473.4 433.9 367.0 245.0 120.9 129.0 291.2 427.6 364.2 253.3 163.1 237.1 349.6 503.5 601.8 571.6 521.9 454.2 307.6 163.4 153.8 143.2 75.9 52.4 64.4 53.5 114.6 212.3 273.0 226.6 240.4 355.9 262.2 122.4 131.3 249.9 349.1 471.2 515.8 469.4 456.3 520.4 578.2 540.3 510.1 514.6 473.8 512.6 488.9 533.0 687.1 766.7 688.9 541.9 502.8 598.4 690.0 774.0 852.6 914.2 949.9 841.6 696.3 612.3 593.8 688.0 815.2 853.9 908.1 852.3 804.4 741.5 717.4 705.8 692.2 657.4 587.9 549.6 503.1 498.4 486.5 382.1 422.7 550.0 637.7 566.4 479.7 577.9 606.5 630.5 705.8 804.3 965.0 1170.8 1296.6 1339.8 1461.3 1496.6 1390.4 1314.0 1360.7 1478.7 1437.6 1398.2 1326.5 1186.0 1099.4 1189.1 1270.0 1353.8 1274.4 1134.2 1136.5
525.6 520.3 504.2 498.9 512.3 511.5 515.8 535.7 534.8 520.7 522.7 521.3 505.2 491.1 517.6 532.1 522.8 508.0 512.0 522.2 551.6 582.4 576.2 574.1 582.7 578.1 556.7 511.8 523.5 523.2 513.4 487.1 493.9 497.8 475.0 458.0 517.0 578.9 575.9 516.1 490.9 502.6 563.6 564.6 578.0 567.0 561.9 558.3 578.6 574.6 571.4 599.2 581.2 523.0 456.8 484.0 518.7 558.2 578.2 605.2 573.8 508.3 590.7 587.1 552.1 504.9 472.8 497.3 523.2 486.8 510.8 527.3 532.8 530.4 524.3 494.0 534.3 533.8 514.5 500.0 476.9 471.8 473.0 473.2 470.3 530.5 547.4 549.9 557.3 593.5 609.3 596.1 547.9 588.2 631.2 630.8 720.1 743.7 726.3 702.5 699.9 707.4 697.0 642.3 686.1 688.0 666.0 599.9 547.5 523.4 515.2 480.7 464.8 456.7 446.8 539.3 609.6 626.1 646.6 581.7 536.6 512.0 494.0 493.2 485.8 468.2 443.7 438.9 429.1 410.7 386.9 351.9 400.2 417.4 456.7 483.4 452.3 382.4 381.8 402.3 416.4 433.3 460.8 501.5 536.9 574.2 578.8 517.4 437.9 410.4 299.0 352.9 458.4 544.2 571.9 551.3 523.3 596.8 632.4 497.3 354.9 306.6 274.1 238.0 176.2 158.2 122.4 236.1 280.5 194.7 274.3 289.6 193.7 193.9 111.4 192.0 244.7 160.7 200.1 237.0 252.1 262.8 308.1 327.6 239.5 175.6 163.4 75.1 61.6 120.6 -9999.0 -9999.0 -9999.0 -9999.0 -9999.0 -9999.0 -9999.0 -9999.0 -9999.0 -9999.0 -9999.0 -9999.0 -9999.0 -9999.0 -9999.0 -9999.0 -9999.0 -9999.0 -9999.0 -9999.0 -9999.0 -9999.0 -9999.0 -9999.0 -9999.0 -9999.0 -9999.0 -9999.0 -9999.0 -9999.0 -9999.0 -9999.0 -9999.0 -9999.0 -9999.0 -9999.0 -9999.0 -9999.0 -9999.0 -9999.0 -9999.0 -9999.0 -9999.0 -9999.0 -9999.0 -9999.0 -9999.0 -9999.0 -9999.0 -9999.0 -9999.0 -9999.0 -9999.0 -9999.0 -9999.0 -9999.0 -9999.0 -9999.0 -9999.0 -9999.0 -9999.0 -9999.0 -9999.0 -9999.0 -9999.0 -9999.0 -9999.0 -9999.0 -9999.0 -9999.0 -9999.0 -9999.0 -9999.0 -9999.0 -9999.0 -9999.0 -9999.0 -9999.0 -9999.0 -9999.0 -9999.0 -9999.0 -9999.0 -9999.0 -9999.0 -9999.0 -9999.0 -9999.0 -9999.0 -9999.0 -9999.0 -9999.0 -9999.0 -9999.0 -9999.0 -9999.0 -9999.0 -9999.0 -9999.0 -9999.0 -9999.0 -9999.0 -9999.0 -9999.0 -9999.0 -9999.0 -9999.0 -9999.0 -9999.0 -9999.0 -9999.0 -9999.0 -9999.0 137.5 211.4 282.4 412.5 505.4 359.0 236.5 230.7 241.3 264.7 220.3 116.7 86.5 218.2 252.5 267.4 148.6 158.1 333.5 433.1 398.1 357.1 445.2 593.0 436.1 333.3 352.3 284.6 217.5 199.6 154.5 121.7 82.3 51.2 67.9 60.7 67.3 162.5 243.8 259.6 91.4 117.5 222.6 372.2 534.1 607.5 618.6 616.3 561.2 538.3 456.6 459.0 405.8 301.4 323.4 326.2 370.9 499.8 665.8 721.9 498.2 496.5 579.2 656.9 767.5 860.9 885.2 929.5 857.8 732.1 742.6 644.7 751.3 942.6 1057.4 1099.5 985.7 875.2 771.9 730.2 720.2 645.7 568.2 521.6 509.1 458.0 422.2 446.3 382.1 397.9 522.0 576.5 470.4 467.2 536.6 602.5 627.8 697.8 766.8 879.6 981.1 1101.0 1213.9 1376.0 1548.7 1524.9 1443.0 1392.8 1293.9 1208.6 1201.5 1244.5 1248.5 1083.9 989.6 1104.5 1221.7 1202.7 1020.3 963.2
525.7 506.0 516.3 528.1 536.6 535.7 520.3 545.0 553.0 541.0 535.2 517.2 501.5 519.7 530.7 525.9 535.2 547.2 560.4 588.7 568.6 554.3 582.3 595.6 599.9 589.8 541.7 528.7 532.7 527.0 519.4 499.7 503.4 490.8 455.3 483.4 550.4 607.3 590.5 542.8 502.2 501.3 533.8 531.9 540.0 541.3 568.5 578.6 597.4 625.8 635.0 649.1 601.6 502.6 490.1 603.1 606.5 578.7 598.8 632.3 591.7 554.0 568.7 631.5 647.7 609.3 523.6 486.2 521.4 503.6 502.2 507.2 544.6 559.1 556.9 551.0 592.6 566.6 615.4 562.2 568.5 613.3 595.0 485.3 487.5 622.1 647.9 648.4 579.4 636.0 648.8 637.8 604.1 592.4 666.8 716.6 744.5 721.2 735.2 749.8 751.0 701.9 663.7 643.6 639.4 622.7 602.5 551.0 525.4 504.8 490.1 468.4 525.2 513.6 462.9 493.3 515.1 560.2 596.6 543.3 538.2 524.0 545.6 534.4 544.7 527.4 484.3 464.3 434.7 417.1 373.4 357.4 438.8 461.0 500.3 474.5 421.0 405.9 472.0 466.9 489.3 458.4 489.2 505.7 490.2 499.9 471.8 470.5 386.3 383.4 358.1 304.0 391.3 482.6 487.8 399.1 352.0 501.3 570.6 530.4 488.4 474.5 467.2 343.3 300.8 248.7 119.7 109.5 94.0 162.1 300.2 249.8 151.1 177.6 91.6 192.0 156.8 126.8 190.5 154.3 219.7 199.5 205.0 238.2 176.2 -9999.0 -9999.0 -9999.0 -9999.0 -9999.0 -9999.0 -9999.0 -9999.0 -9999.0 -9999.0 -9999.0 -9999.0 -9999.0 -9999.0 -9999.0 -9999.0 -9999.0 -9999.0 -9999.0 -9999.0 -9999.0 -9999.0 -9999.0 -9999.0 -9999.0 -9999.0 -9999.0 -9999.0 -9999.0 -9999.0 -9999.0 -9999.0 -9999.0 -9999.0 -9999.0 -9999.0 -9999.0 -9999.0 -9999.0 -9999.0 -9999.0 -9999.0 -9999.0 -9999.0 -9999.0 -9999.0 -9999.0 -9999.0 -9999.0 -9999.0 -9999.0 -9999.0 -9999.0 -9999.0 -9999.0 -9999.0 -9999.0 -9999.0 -9999.0 -9999.0 -9999.0 -9999.0 -9999.0 -9999.0 -9999.0 -9999.0 -9999.0 -9999.0 -9999.0 -9999.0 -9999.0 -9999.0 -9999.0 -9999.0 -9999.0 -9999.0 -9999.0 -9999.0 -9999.0 -9999.0 -9999.0 -9999.0 -9999.0 -9999.0 -9999.0 -9999.0 -9999.0 -9999.0 -9999.0 -9999.0 -9999.0 -9999.0 -9999.0 -9999.0 -9999.0 -9999.0 -9999.0 -9999.0 -9999.0 -9999.0 -9999.0 -9999.0 -9999.0 -9999.0 -9999.0 -9999.0 -9999.0 -9999.0 -9999.0 -9999.0 -9999.0 -9999.0 -9999.0 -9999.0 -9999.0 -9999.0 -9999.0 -9999.0 -9999.0 180.8 263.2 414.7 356.6 253.9 175.8 107.9 73.6 87.7 82.1 73.9 54.6 96.9 109.0 144.9 107.3 140.8 259.9 185.0 211.1 305.2 461.9 596.1 524.4 548.6 533.1 360.3 272.6 186.9 144.8 164.9 201.0 160.1 125.5 124.0 58.9 55.0 73.5 105.1 101.2 196.7 281.8 364.7 422.1 377.7 434.2 457.9 327.1 309.6 388.3 436.2 378.0 256.7 220.9 301.4 383.9 524.2 642.6 631.7 460.9 497.8 622.6 691.2 759.7 805.7 844.3 884.8 950.6 890.4 867.4 772.7 877.0 1034.0 1070.2 1042.1 922.8 805.3 699.2 698.3 672.1 664.0 607.5 560.7 548.5 518.7 450.6 376.4 353.3 399.7 458.7 436.1 414.3 481.3 529.8 566.1 609.5 669.9 752.6 868.7 988.4 1150.4 1343.2 1434.6 1449.7 1513.7 1468.0 1360.9 1193.9 1118.2 1037.2 1005.3 1083.8 1014.8 880.8 955.3 1060.2 1022.5 897.3 893.0
509.6 506.3 530.3 539.3 544.9 547.1 542.0 541.3 561.0 553.1 535.0 508.9 525.8 547.5 559.9 558.6 596.6 588.9 601.0 615.4 562.3 565.6 597.9 602.6 603.3 590.1 534.5 539.3 532.7 526.3 518.5 504.0 484.2 468.9 468.3 493.8 537.7 576.0 578.4 547.8 524.7 496.8 520.5 528.5 565.2 581.1 583.6 623.7 628.4 649.3 695.8 663.9 599.3 485.2 516.6 527.9 610.8 642.8 645.1 654.6 627.1 637.0 643.6 682.4 643.5 584.1 506.2 568.8 626.6 575.1 532.1 514.2 547.5 603.1 645.2 657.7 613.3 654.8 681.7 603.3 654.7 669.8 612.2 483.3 509.5 661.3 703.2 722.6 622.9 639.3 666.7 670.9 651.8 646.2 668.5 755.6 762.2 745.2 792.0 772.2 732.8 720.1 677.5 677.2 701.7 687.0 611.3 599.9 599.2 593.4 566.2 504.7 536.9 547.2 473.5 532.1 548.2 556.8 590.1 595.7 582.0 515.1 506.0 520.3 531.7 495.6 477.9 444.4 415.8 372.9 373.8 390.0 428.8 465.2 486.5 435.4 397.0 423.4 510.4 522.4 516.7 486.6 468.8 397.1 391.2 419.2 395.1 370.0 339.3 408.6 414.5 273.4 327.3 428.7 372.0 318.7 262.5 368.2 379.4 424.5 378.8 360.3 362.6 361.3 405.7 311.6 212.7 212.5 83.4 97.2 187.5 191.8 141.6 141.3 128.0 93.6 101.0 195.9 190.4 115.5 118.8 141.7 183.1 151.0 110.9 -9999.0 -9999.0 -9999.0 -9999.0 -9999.0 -9999.0 -9999.0 -9999.0 -9999.0 -9999.0 -9999.0 -9999.0 -9999.0 -9999.0 -9999.0 -9999.0 -9999.0 -9999.0 -9999.0 -9999.0 -9999.0 -9999.0 -9999.0 -9999.0 -9999.0 -9999.0 -9999.0 -9999.0 -9999.0 -9999.0 -9999.0 -9999.0 -9999.0 -9999.0 -9999.0 -9999.0 -9999.0 -9999.0 -9999.0 -9999.0 -9999.0 -9999.0 -9999.0 -9999.0 -9999.0 -9999.0 -9999.0 -9999.0 -9999.0 -9999.0 -9999.0 -9999.0 -9999.0 -9999.0 -9999.0 -9999.0 -9999.0 -9999.0 -9999.0 -9999.0 -9999.0 -9999.0 -9999.0 -9999.0 -9999.0 -9999.0 -9999.0 -9999.0 -9999.0 -9999.0 -9999.0 -9999.0 -9999.0 -9999.0 -9999.0 -9999.0 -9999.0 -9999.0 -9999.0 -9999.0 -9999.0 -9999.0 -9999.0 -9999.0 -9999.0 -9999.0 -9999.0 -9999.0 -9999.0 -9999.0 -9999.0 -9999.0 -9999.0 -9999.0 -9999.0 -9999.0 -9999.0 -9999.0 -9999.0 -9999.0 -9999.0 -9999.0 -9999.0 -9999.0 -9999.0 -9999.0 -9999.0 -9999.0 -9999.0 -9999.0 -9999.0 -9999.0 -9999.0 -9999.0 -9999.0 -9999.0 -9999.0 -9999.0 -9999.0 -9999.0 312.0 388.9 238.1 128.6 108.7 92.6 60.0 62.4 44.8 52.6 46.7 60.5 67.5 77.3 64.0 95.6 115.5 197.3 346.1 452.6 529.2 509.6 353.4 383.0 505.6 393.5 312.1 226.7 234.1 263.8 293.8 289.6 236.3 151.7 136.9 102.3 50.1 74.9 154.2 182.2 253.4 350.9 239.9 220.6 319.3 269.6 198.9 331.9 452.3 310.1 227.9 182.6 237.9 346.5 447.4 574.1 688.1 592.3 431.1 390.9 580.1 615.6 586.7 612.3 709.8 809.0 874.8 929.2 993.2 937.3 1003.2 1059.7 973.1 949.3 838.5 702.4 605.5 550.2 509.7 512.7 510.8 463.2 445.8 442.6 459.4 406.6 351.3 379.3 370.6 419.1 480.0 552.4 664.3 725.0 713.6 681.8 749.9 917.5 1051.6 1167.8 1210.2 1237.6 1299.3 1318.3 1199.9 1199.3 1060.3 1072.3 1018.9 896.3 885.0 874.3 803.9 862.1 927.1 884.4 809.3 839.9
515.0 511.0 526.6 546.2 552.5 556.2 558.8 560.4 572.0 565.4 534.0 537.5 544.4 587.8 612.5 587.8 609.5 601.4 593.5 574.7 573.5 582.4 611.1 605.0 603.6 585.7 557.9 549.2 536.4 528.1 512.1 482.0 493.5 485.7 516.5 575.1 555.5 511.5 543.0 550.2 542.4 540.2 560.1 566.1 581.7 615.5 625.7 640.5 619.1 616.1 637.2 550.5 521.6 493.0 583.5 572.1 514.4 528.2 591.2 663.4 709.7 711.4 746.3 744.9 661.2 560.6 517.9 605.2 717.0 656.1 589.6 582.6 564.6 615.0 683.3 712.1 710.6 761.3 700.1 709.4 713.7 642.1 626.1 571.3 469.2 568.7 639.8 705.2 620.0 670.6 701.8 716.1 744.5 741.6 780.0 814.7 792.0 762.9 793.1 765.3 741.3 715.4 684.5 736.6 746.4 686.7 644.9 697.6 635.0 584.3 538.6 556.1 609.8 592.5 514.1 496.4 568.6 580.1 602.2 646.7 582.1 519.6 487.3 481.6 464.2 446.4 450.8 455.1 396.6 395.6 443.2 423.4 426.7 450.0 464.2 436.8 405.4 433.9 490.5 521.8 520.3 494.8 450.8 356.3 337.7 326.8 323.4 320.1 304.7 300.6 332.4 269.1 279.1 292.2 264.1 208.1 233.3 310.3 266.1 267.7 242.8 181.2 188.7 277.7 284.8 356.0 354.9 296.4 170.1 115.8 74.2 112.1 94.7 80.0 125.1 73.2 147.7 219.9 162.1 140.8 88.1 65.1 105.0 -9999.0 -9999.0 -9999.0 -9999.0 -9999.0 -9999.0 -9999.0 -9999.0 -9999.0 -9999.0 -9999.0 -9999.0 -9999.0 -9999.0 -9999.0 -9999.0 -9999.0 -9999.0 -9999.0 -9999.0 -9999.0 -9999.0 -9999.0 -9999.0 -9999.0 -9999.0 -9999.0 -9999.0 -9999.0 -9999.0 -9999.0 -9999.0 -9999.0 -9999.0 -9999.0 -9999.0 -9999.0 -9999.0 -9999.0 -9999.0 -9999.0 -9999.0 -9999.0 -9999.0 -9999.0 -9999.0 -9999.0 -9999.0 -9999.0 -9999.0 -9999.0 -9999.0 -9999.0 -9999.0 -9999.0 -9999.0 -9999.0 -9999.0 -9999.0 -9999.0 -9999.0 -9999.0 -9999.0 -9999.0 -9999.0 -9999.0 -9999.0 -9999.0 -9999.0 -9999.0 -9999.0 -9999.0 -9999.0 -9999.0 -9999.0 -9999.0 -9999.0 -9999.0 -9999.0 -9999.0 -9999.0 -9999.0 -9999.0 -9999.0 -9999.0 -9999.0 -9999.0 -9999.0 -9999.0 -9999.0 -9999.0 -9999.0 -9999.0 -9999.0 -9999.0 -9999.0 -9999.0 -9999.0 -9999.0 -9999.0 -9999.0 -9999.0 -9999.0 -9999.0 -9999.0 -9999.0 -9999.0 -9999.0 -9999.0 -9999.0 -9999.0 -9999.0 -9999.0 -9999.0 -9999.0 -9999.0 -9999.0 -9999.0 -9999.0 -9999.0 -9999.0 -9999.0 276.5 332.9 225.6 191.3 176.5 127.8 94.3 74.3 91.7 95.9 81.3 75.9 -9999.0 -9999.0 -9999.0 -9999.0 -9999.0 149.2 225.3 309.5 441.3 338.0 222.3 244.6 430.2 458.7 354.9 264.1 212.9 174.5 200.3 252.1 281.3 226.4 168.9 38.7 39.0 70.1 44.5 58.4 77.4 119.8 93.1 142.6 162.6 114.3 219.7 288.7 266.5 160.5 164.8 225.6 288.4 371.8 456.7 530.9 602.6 553.1 431.1 328.0 435.3 413.8 449.6 552.6 659.1 725.5 761.1 869.7 984.9 1092.6 1110.7 980.9 846.8 889.6 854.5 722.5 608.0 531.7 437.5 409.6 386.4 385.9 364.7 360.3 371.9 378.3 346.4 370.6 359.0 406.3 494.3 594.5 681.3 822.2 888.5 805.2 770.4 877.2 1012.1 994.9 1018.8 1146.6 1267.1 1159.0 993.2 957.6 909.7 914.0 984.3 995.7 793.5 753.5 801.8 884.7 939.0 855.4 769.2 741.7
547.8 543.2 533.1 537.1 560.1 563.9 565.6 573.7 578.3 569.1 541.6 554.0 555.8 571.5 574.9 583.0 597.9 612.9 601.5 659.8 643.2 604.2 610.4 622.3 613.0 600.5 564.7 546.1 519.1 509.7 487.5 499.2 528.3 529.4 570.7 647.8 601.8 524.8 541.4 572.8 596.3 581.6 585.2 604.4 632.1 674.8 659.0 647.1 578.5 517.3 550.5 522.1 543.4 576.7 582.4 650.9 626.5 538.0 509.2 555.4 621.6 695.8 748.8 715.6 624.5 546.8 548.0 694.5 773.4 735.4 735.9 638.8 578.3 635.5 713.3 772.8 788.8 742.6 741.6 782.0 762.4 716.5 734.9 670.8 510.3 476.9 527.5 685.7 665.0 655.9 718.2 750.1 771.6 765.7 763.0 780.3 796.6 781.4 802.9 782.4 744.5 728.2 735.7 745.1 773.0 735.4 679.0 722.2 618.7 604.6 590.3 652.9 650.8 574.7 496.7 546.9 610.6 631.0 655.5 679.5 612.8 566.8 528.1 546.7 539.4 507.0 482.7 460.7 420.9 408.8 423.4 444.9 440.1 445.5 435.3 448.0 439.6 429.8 435.8 481.5 508.6 500.6 469.8 393.5 378.8 380.6 354.5 344.1 327.0 336.2 347.2 297.6 265.6 248.7 246.5 213.4 175.9 252.7 286.4 176.4 138.3 138.0 129.3 160.0 207.3 292.0 366.1 356.7 288.3 258.2 162.5 98.8 58.0 46.2 94.5 54.0 148.1 146.4 124.0 87.6 83.7 -9999.0 -9999.0 -9999.0 -9999.0 -9999.0 -9999.0 -9999.0 -9999.0 -9999.0 -9999.0 -9999.0 -9999.0 -9999.0 -9999.0 -9999.0 -9999.0 -9999.0 -9999.0 -9999.0 -9999.0 -9999.0 -9999.0 -9999.0 -9999.0 -9999.0 -9999.0 -9999.0 -9999.0 -9999.0 -9999.0 -9999.0 -9999.0 -9999.0 -9999.0 -9999.0 -9999.0 -9999.0 -9999.0 -9999.0 -9999.0 -9999.0 -9999.0 -9999.0 -9999.0 -9999.0 -9999.0 -9999.0 -9999.0 -9999.0 -9999.0 -9999.0 -9999.0 -9999.0 -9999.0 -9999.0 -9999.0 -9999.0 -9999.0 -9999.0 -9999.0 -9999.0 -9999.0 -9999.0 -9999.0 -9999.0 -9999.0 -9999.0 -9999.0 -9999.0 -9999.0 -9999.0 -9999.0 -9999.0 -9999.0 -9999.0 -9999.0 -9999.0 -9999.0 -9999.0 -9999.0 -9999.0 -9999.0 -9999.0 -9999.0 -9999.0 -9999.0 -9999.0 -9999.0 -9999.0 -9999.0 -9999.0 -9999.0 -9999.0 -9999.0 -9999.0 -9999.0 -9999.0 -9999.0 -9999.0 -9999.0 -9999.0 -9999.0 -9999.0 -9999.0 -9999.0 -9999.0 -9999.0 -9999.0 -9999.0 -9999.0 -9999.0 -9999.0 -9999.0 -9999.0 -9999.0 -9999.0 -9999.0 -9999.0 -9999.0 -9999.0 -9999.0 -9999.0 -9999.0 -9999.0 144.4 224.2 280.3 224.9 210.5 148.7 100.0 137.3 187.0 197.2 173.3 134.0 -9999.0 -9999.0 -9999.0 -9999.0 -9999.0 -9999.0 -9999.0 246.4 316.1 263.6 126.3 228.9 390.2 501.0 459.9 328.3 233.1 150.2 105.4 116.9 214.7 259.2 179.9 80.8 59.9 51.2 52.2 51.7 83.9 139.4 156.5 115.7 136.2 123.9 112.7 132.3 129.5 203.7 297.7 362.7 461.8 470.3 454.9 429.0 461.3 371.4 289.2 288.3 411.0 523.7 556.2 551.5 598.7 663.2 764.7 874.6 989.9 1143.9 1143.1 938.6 801.3 734.6 720.9 666.2 537.7 442.1 432.2 476.9 506.3 494.5 427.3 420.4 399.4 329.6 311.9 378.7 351.0 404.6 489.3 591.0 709.8 787.5 893.7 949.9 940.9 939.5 949.5 869.7 986.7 1140.0 1173.6 1117.2 952.9 807.8 758.1 791.1 825.6 760.2 711.9 808.0 888.8 930.7 943.4 829.5 765.6 750.2
567.9 562.3 555.0 535.7 564.9 571.9 575.8 578.7 580.8 576.1 556.0 567.0 575.2 591.2 593.3 602.3 619.5 616.1 662.2 717.1 697.4 648.2 651.6 684.2 646.0 615.4 530.5 514.3 515.6 522.4 523.2 580.3 620.0 615.6 567.3 624.6 606.4 552.1 539.2 583.7 609.5 620.8 607.6 630.7 682.5 713.1 630.9 557.1 571.0 604.5 573.5 584.9 647.2 680.3 647.0 630.4 679.4 622.4 643.2 612.9 541.8 570.0 718.4 769.1 664.8 557.9 557.0 655.1 698.7 776.6 785.0 665.3 607.1 658.1 723.3 767.3 797.6 788.7 797.7 790.4 785.0 767.1 761.7 690.9 577.7 473.6 490.5 591.8 662.5 645.3 712.5 713.9 723.6 701.5 720.8 737.2 781.7 825.6 833.5 806.1 760.1 783.0 789.4 769.9 774.6 789.4 753.8 748.4 675.9 672.4 635.1 672.7 577.2 483.6 505.5 558.2 589.6 619.8 646.5 694.5 728.6 649.0 592.9 614.9 640.7 574.5 517.9 513.2 527.8 498.8 425.3 453.9 492.3 498.8 471.6 482.7 489.5 441.2 408.1 474.5 508.2 482.3 474.2 437.9 390.1 346.1 334.7 341.2 328.6 355.7 375.9 334.8 355.5 344.3 332.7 371.9 231.4 166.2 179.3 158.8 248.8 249.0 221.2 126.4 175.2 280.6 261.7 340.4 299.0 226.1 198.1 149.3 94.6 44.7 47.0 54.8 85.9 78.5 90.6 88.1 -9999.0 -9999.0 -9999.0 -9999.0 -9999.0 -9999.0 -9999.0 -9999.0 -9999.0 -9999.0 -9999.0 -9999.0 -9999.0 -9999.0 -9999.0 -9999.0 -9999.0 -9999.0 -9999.0 -9999.0 -9999.0 -9999.0 -9999.0 -9999.0 -9999.0 -9999.0 -9999.0 -9999.0 -9999.0 -9999.0 -9999.0 -9999.0 -9999.0 -9999.0 -9999.0 -9999.0 -9999.0 -9999.0 -9999.0 -9999.0 -9999.0 -9999.0 -9999.0 -9999.0 -9999.0 -9999.0 -9999.0 -9999.0 -9999.0 -9999.0 -9999.0 -9999.0 -9999.0 -9999.0 -9999.0 -9999.0 -9999.0 -9999.0 -9999.0 -9999.0 -9999.0 -9999.0 -9999.0 -9999.0 -9999.0 -9999.0 -9999.0 -9999.0 -9999.0 -9999.0 -9999.0 -9999.0 -9999.0 -9999.0 -9999.0 -9999.0 -9999.0 -9999.0 -9999.0 -9999.0 -9999.0 -9999.0 -9999.0 -9999.0 -9999.0 -9999.0 -9999.0 -9999.0 -9999.0 -9999.0 -9999.0 -9999.0 -9999.0 -9999.0 -9999.0 -9999.0 -9999.0 -9999.0 -9999.0 -9999.0 -9999.0 -9999.0 -9999.0 -9999.0 -9999.0 -9999.0 -9999.0 -9999.0 -9999.0 -9999.0 -9999.0 -9999.0 -9999.0 -9999.0 -9999.0 -9999.0 -9999.0 -9999.0 -9999.0 -9999.0 -9999.0 -9999.0 -9999.0 -9999.0 -9999.0 148.2 277.7 317.3 313.4 263.1 172.4 153.8 175.5 160.6 146.3 -9999.0 -9999.0 -9999.0 -9999.0 -9999.0 -9999.0 -9999.0 -9999.0 -9999.0 -9999.0 -9999.0 -9999.0 -9999.0 301.5 401.1 366.3 388.5 374.0 282.4 271.0 171.3 69.7 118.3 165.2 247.2 201.8 136.9 72.2 48.9 86.7 166.9 277.9 333.2 279.3 263.2 297.9 246.1 163.2 126.0 151.7 231.0 308.0 400.3 357.9 337.4 332.3 318.3 256.2 310.7 389.2 403.6 477.6 532.1 647.1 752.9 756.9 848.3 951.7 986.5 994.1 950.2 818.9 715.7 768.8 623.9 527.6 444.2 475.9 570.6 577.6 568.3 533.9 471.0 431.6 402.3 339.0 327.8 381.9 328.0 368.8 421.2 509.3 655.5 675.4 725.7 873.5 957.4 903.2 788.7 829.0 966.3 1064.0 1004.0 1001.5 860.8 802.3 749.9 672.5 623.0 640.0 783.1 984.3 965.5 960.5 868.1 807.6 823.8 844.1
581.5 578.3 563.4 557.3 576.1 579.5 582.3 585.2 585.5 573.3 563.7 576.6 595.4 626.3 649.5 655.1 692.1 669.4 698.7 712.2 742.8 752.4 734.1 747.1 630.0 538.4 536.3 541.7 549.8 553.9 542.0 585.5 662.8 695.2 596.9 632.6 643.6 576.9 548.3 587.7 618.2 655.1 646.8 651.2 678.9 674.8 577.1 561.2 683.5 625.8 592.2 644.5 739.9 761.6 766.5 703.0 686.7 748.9 755.0 723.7 569.4 638.5 784.6 791.7 689.8 604.3 525.0 550.9 647.5 723.3 758.4 680.7 713.5 769.4 773.4 809.6 828.2 832.0 792.2 764.9 701.1 647.8 614.4 549.3 474.7 505.6 534.7 607.2 649.9 654.5 761.7 814.3 815.8 768.6 818.1 788.2 740.7 839.0 842.4 817.6 800.2 772.3 826.6 843.3 829.3 836.2 822.5 794.2 781.8 742.3 735.7 708.5 628.4 568.7 479.6 478.2 563.7 640.5 687.8 726.3 742.0 706.8 635.6 577.9 547.6 526.2 506.2 548.4 555.0 519.1 434.8 419.3 456.5 482.6 519.8 518.1 497.2 461.0 415.9 422.9 448.9 465.5 477.4 456.4 415.6 388.4 355.9 335.2 362.0 375.2 362.9 360.6 368.8 351.9 334.7 341.9 326.0 254.6 291.3 325.6 335.6 372.1 359.5 236.2 113.7 191.2 177.9 245.2 276.3 271.6 204.5 150.7 103.3 70.4 -9999.0 -9999.0 -9999.0 -9999.0 -9999.0 -9999.0 -9999.0 -9999.0 -9999.0 -9999.0 -9999.0 -9999.0 -9999.0 -9999.0 -9999.0 -9999.0 -9999.0 -9999.0 -9999.0 -9999.0 -9999.0 -9999.0 -9999.0 -9999.0 -9999.0 -9999.0 -9999.0 -9999.0 -9999.0 -9999.0 -9999.0 -9999.0 -9999.0 -9999.0 -9999.0 -9999.0 -9999.0 -9999.0 -9999.0 -9999.0 -9999.0 -9999.0 -9999.0 -9999.0 -9999.0 -9999.0 -9999.0 -9999.0 -9999.0 -9999.0 -9999.0 -9999.0 -9999.0 -9999.0 -9999.0 -9999.0 -9999.0 -9999.0 -9999.0 -9999.0 -9999.0 -9999.0 -9999.0 -9999.0 -9999.0 -9999.0 -9999.0 -9999.0 -9999.0 -9999.0 -9999.0 -9999.0 -9999.0 -9999.0 -9999.0 -9999.0 -9999.0 -9999.0 -9999.0 -9999.0 -9999.0 -9999.0 -9999.0 -9999.0 -9999.0 -9999.0 -9999.0 -9999.0 -9999.0 -9999.0 -9999.0 -9999.0 -9999.0 -9999.0 -9999.0 -9999.0 -9999.0 -9999.0 -9999.0 -9999.0 -9999.0 -9999.0 -9999.0 -9999.0 -9999.0 -9999.0 -9999.0 -9999.0 -9999.0 -9999.0 -9999.0 -9999.0 -9999.0 -9999.0 -9999.0 -9999.0 -9999.0 -9999.0 -9999.0 -9999.0 -9999.0 -9999.0 -9999.0 -9999.0 -9999.0 -9999.0 -9999.0 -9999.0 -9999.0 -9999.0 -9999.0 228.3 321.9 396.8 315.6 204.3 118.3 95.1 77.6 67.7 -9999.0 -9999.0 -9999.0 -9999.0 -9999.0 -9999.0 -9999.0 -9999.0 -9999.0 -9999.0 -9999.0 -9999.0 -9999.0 -9999.0 -9999.0 -9999.0 -9999.0 222.9 258.8 157.8 173.0 181.5 119.4 58.5 121.4 223.1 231.6 120.9 30.8 60.1 98.3 172.4 292.1 436.5 457.1 420.8 424.4 381.6 288.1 255.9 172.8 148.1 213.1 231.6 222.9 223.7 243.0 308.6 413.6 521.5 585.6 550.5 536.3 503.9 592.7 692.6 725.8 846.4 987.7 965.2 803.5 746.0 661.9 589.2 600.3 545.0 480.4 449.7 534.1 642.0 561.4 491.7 457.9 410.4 339.6 327.7 315.7 302.9 330.8 305.7 360.2 458.0 562.0 627.4 570.2 647.1 757.5 880.9 843.7 721.5 763.0 922.8 888.8 878.2 963.1 811.4 670.5 662.0 591.0 560.5 660.9 855.2 1074.6 1054.2 985.3 939.5 878.6 899.4 907.3
633.1 592.2 561.8 581.1 584.8 585.9 595.1 597.5 589.5 572.7 574.7 633.1 647.5 639.6 664.8 698.3 751.7 797.2 789.8 754.5 801.4 834.9 712.2 604.7 547.8 555.4 604.4 581.2 598.0 611.6 568.9 567.5 601.4 653.9 660.4 696.8 649.7 603.1 636.8 652.1 642.8 688.3 726.6 715.4 685.4 579.8 572.6 673.9 704.8 590.9 675.4 715.0 732.5 832.0 840.1 747.4 779.4 812.5 793.8 690.2 564.3 691.0 832.4 913.1 825.4 699.1 597.3 573.8 556.1 602.9 702.7 731.7 695.9 777.9 859.2 906.4 869.4 776.0 711.6 669.7 638.8 632.8 583.3 529.2 485.6 556.5 606.6 686.7 696.3 635.0 721.7 786.6 797.9 780.7 843.0 805.2 799.1 847.4 889.1 868.7 837.0 822.8 838.7 880.8 864.4 862.6 783.3 723.7 759.8 751.6 730.0 679.0 642.9 573.8 484.1 548.4 587.4 672.6 702.8 718.0 673.1 641.5 620.9 562.2 498.4 549.3 521.0 466.1 496.2 429.5 416.6 468.3 474.2 481.4 514.6 529.6 520.2 505.6 461.2 401.7 458.2 497.5 503.1 482.1 438.7 363.6 280.6 255.1 277.3 319.1 312.0 336.0 319.0 308.6 266.7 252.9 311.5 326.8 347.6 320.5 321.0 270.1 261.3 247.4 188.2 102.2 123.8 189.1 181.5 243.4 228.8 189.0 -9999.0 -9999.0 -9999.0 -9999.0 -9999.0 -9999.0 -9999.0 -9999.0 -9999.0 -9999.0 -9999.0 -9999.0 -9999.0 -9999.0 -9999.0 -9999.0 -9999.0 -9999.0 -9999.0 -9999.0 -9999.0 -9999.0 -9999.0 -9999.0 -9999.0 -9999.0 -9999.0 -9999.0 -9999.0 -9999.0 -9999.0 -9999.0 -9999.0 -9999.0 -9999.0 -9999.0 -9999.0 -9999.0 -9999.0 -9999.0 -9999.0 -9999.0 -9999.0 -9999.0 -9999.0 -9999.0 -9999.0 -9999.0 -9999.0 -9999.0 -9999.0 -9999.0 -9999.0 -9999.0 -9999.0 -9999.0 -9999.0 -9999.0 -9999.0 -9999.0 -9999.0 -9999.0 -9999.0 -9999.0 -9999.0 -9999.0 -9999.0 -9999.0 -9999.0 -9999.0 -9999.0 -9999.0 -9999.0 -9999.0 -9999.0 -9999.0 -9999.0 -9999.0 -9999.0 -9999.0 -9999.0 -9999.0 -9999.0 -9999.0 -9999.0 -9999.0 -9999.0 -9999.0 -9999.0 -9999.0 -9999.0 -9999.0 -9999.0 -9999.0 -9999.0 -9999.0 -9999.0 -9999.0 -9999.0 -9999.0 -9999.0 -9999.0 -9999.0 -9999.0 -9999.0 -9999.0 -9999.0 -9999.0 -9999.0 -9999.0 -9999.0 -9999.0 -9999.0 -9999.0 -9999.0 -9999.0 -9999.0 -9999.0 -9999.0 -9999.0 -9999.0 -9999.0 -9999.0 -9999.0 -9999.0 -9999.0 -9999.0 -9999.0 -9999.0 -9999.0 -9999.0 -9999.0 -9999.0 423.7 440.4 412.7 271.0 159.8 190.5 197.1 148.2 99.4 -9999.0 -9999.0 -9999.0 -9999.0 -9999.0 -9999.0 -9999.0 -9999.0 -9999.0 -9999.0 -9999.0 -9999.0 -9999.0 -9999.0 -9999.0 -9999.0 -9999.0 -9999.0 -9999.0 205.8 140.0 88.3 63.3 52.5 104.3 173.2 198.7 107.3 24.0 30.5 54.4 118.4 225.4 358.7 509.7 572.1 565.3 498.9 435.8 352.0 216.9 268.7 240.0 189.7 253.3 301.2 320.5 424.8 564.0 684.3 788.6 725.4 671.8 671.6 591.7 664.2 794.9 871.3 942.0 893.6 741.8 694.1 642.2 626.1 600.1 591.7 606.9 538.1 525.1 620.9 529.7 490.0 480.7 390.0 383.9 423.3 387.6 309.1 309.9 311.1 298.0 380.7 472.4 575.8 501.6 615.9 697.7 834.4 783.7 669.7 716.9 825.7 738.0 745.5 848.2 843.4 651.7 512.8 472.9 600.3 726.0 886.3 1083.9 1113.7 1034.3 1051.9 1001.3 997.2 953.4
654.5 618.3 607.0 646.9 611.6 603.4 620.8 616.4 600.5 601.8 668.9 791.2 724.5 706.8 670.4 741.0 812.0 801.8 800.9 772.4 806.1 737.1 595.3 575.8 558.1 616.7 654.9 669.5 709.0 666.1 637.7 609.4 600.9 586.3 635.4 684.8 642.4 648.7 674.5 706.7 654.0 670.8 724.5 727.4 668.3 570.0 707.4 758.0 663.2 621.4 674.1 758.7 796.5 841.3 858.0 829.5 901.0 916.9 810.5 642.9 613.2 731.9 833.7 919.6 826.0 692.4 717.4 686.1 620.4 564.1 614.5 722.0 769.8 772.0 810.5 874.6 824.4 800.2 841.6 789.0 731.5 718.2 619.8 518.8 498.1 576.4 644.8 740.6 747.3 690.2 658.9 694.1 728.2 805.1 872.2 875.6 842.5 857.5 910.6 924.1 894.4 908.1 890.9 904.8 855.3 769.0 753.0 681.7 659.9 706.9 712.6 674.7 553.3 525.2 513.3 546.7 595.8 628.0 651.1 711.0 670.2 585.6 548.7 575.4 548.3 635.2 570.8 451.6 419.4 426.9 430.1 473.8 501.0 489.8 505.5 579.3 537.1 456.8 453.4 486.2 533.8 557.9 524.4 445.8 391.1 369.5 311.7 259.3 236.6 225.7 258.1 317.3 347.4 336.0 313.1 271.4 235.0 225.0 224.9 208.8 197.0 213.6 199.8 167.8 136.2 83.4 69.1 110.2 170.5 169.4 145.2 -9999.0 -9999.0 -9999.0 -9999.0 -9999.0 -9999.0 -9999.0 -9999.0 -9999.0 -9999.0 -9999.0 -9999.0 -9999.0 -9999.0 -9999.0 -9999.0 -9999.0 -9999.0 -9999.0 -9999.0 -9999.0 -9999.0 -9999.0 -9999.0 -9999.0 -9999.0 -9999.0 -9999.0 -9999.0 -9999.0 -9999.0 -9999.0 -9999.0 -9999.0 -9999.0 -9999.0 -9999.0 -9999.0 -9999.0 -9999.0 -9999.0 -9999.0 -9999.0 -9999.0 -9999.0 -9999.0 -9999.0 -9999.0 -9999.0 -9999.0 -9999.0 -9999.0 -9999.0 -9999.0 -9999.0 -9999.0 -9999.0 -9999.0 -9999.0 -9999.0 -9999.0 -9999.0 -9999.0 -9999.0 -9999.0 -9999.0 -9999.0 -9999.0 -9999.0 -9999.0 -9999.0 -9999.0 -9999.0 -9999.0 -9999.0 -9999.0 -9999.0 -9999.0 -9999.0 -9999.0 -9999.0 -9999.0 -9999.0 -9999.0 -9999.0 -9999.0 -9999.0 -9999.0 -9999.0 -9999.0 -9999.0 -9999.0 -9999.0 -9999.0 -9999.0 -9999.0 -9999.0 -9999.0 -9999.0 -9999.0 -9999.0 -9999.0 -9999.0 -9999.0 -9999.0 -9999.0 -9999.0 -9999.0 -9999.0 -9999.0 -9999.0 -9999.0 -9999.0 -9999.0 -9999.0 -9999.0 -9999.0 -9999.0 -9999.0 -9999.0 -9999.0 -9999.0 -9999.0 -9999.0 -9999.0 -9999.0 -9999.0 -9999.0 -9999.0 -9999.0 -9999.0 -9999.0 -9999.0 -9999.0 486.9 536.8 513.1 416.2 336.2 345.9 294.3 236.6 157.4 -9999.0 -9999.0 -9999.0 -9999.0 -9999.0 -9999.0 -9999.0 -9999.0 -9999.0 -9999.0 -9999.0 -9999.0 -9999.0 -9999.0 -9999.0 -9999.0 -9999.0 -9999.0 -9999.0 -9999.0 -9999.0 -9999.0 57.8 49.2 82.5 117.1 114.3 74.1 32.2 51.2 85.9 147.1 240.0 346.3 487.2 554.8 593.5 635.2 596.4 426.7 278.9 355.3 411.8 333.1 328.0 421.9 434.2 416.6 506.5 581.3 575.2 623.5 740.1 785.6 807.5 780.1 883.4 940.8 969.2 918.8 878.2 840.7 814.9 780.9 715.4 698.9 671.3 567.6 518.8 599.2 505.4 475.7 454.9 366.8 428.2 487.3 400.9 361.5 410.8 467.8 377.7 300.2 402.8 514.4 454.1 579.3 604.0 710.3 709.3 647.9 605.0 683.8 646.7 676.4 829.8 750.4 566.4 433.2 487.4 586.4 692.0 824.0 960.9 1088.3 1060.5 984.1 994.6 1031.3 1055.3
631.8 621.5 626.5 646.3 629.2 658.6 647.2 661.4 640.7 620.2 606.6 748.6 765.1 711.0 734.5 750.9 789.9 750.1 690.3 712.8 701.1 614.2 597.6 584.1 623.2 682.2 720.2 814.7 853.1 762.4 740.5 685.4 643.0 627.5 622.3 672.4 688.0 698.2 711.9 750.8 719.1 722.2 765.6 662.1 590.0 677.1 761.4 755.2 635.5 699.1 745.0 722.7 775.3 863.6 916.0 976.3 1025.7 954.7 775.2 618.5 729.3 859.2 893.7 944.6 875.7 816.3 846.5 805.0 729.1 638.0 570.3 653.7 689.4 763.6 841.9 879.4 874.6 847.6 854.9 783.8 713.5 626.8 563.5 503.9 509.9 609.1 650.8 681.4 760.4 737.5 695.6 683.2 756.6 824.0 890.6 903.5 885.3 932.2 892.3 856.8 791.0 835.2 794.5 745.1 713.6 660.0 602.6 618.6 548.4 561.7 623.6 596.9 574.6 623.5 611.6 599.5 543.0 613.7 656.2 692.5 696.9 583.6 623.4 694.8 629.5 622.0 524.3 456.6 534.7 493.1 463.1 468.4 541.9 561.2 576.5 570.2 516.0 451.6 452.1 541.3 666.8 695.9 565.0 451.9 440.3 432.3 392.0 343.9 336.1 231.9 225.5 282.4 321.1 273.1 342.2 347.3 332.9 323.5 288.4 320.7 312.9 318.2 338.5 287.5 197.7 114.9 63.6 46.0 99.3 118.4 -9999.0 -9999.0 -9999.0 -9999.0 -9999.0 -9999.0 -9999.0 -9999.0 -9999.0 -9999.0 -9999.0 -9999.0 -9999.0 -9999.0 -9999.0 -9999.0 -9999.0 -9999.0 -9999.0 -9999.0 -9999.0 -9999.0 -9999.0 -9999.0 -9999.0 -9999.0 -9999.0 -9999.0 -9999.0 -9999.0 -9999.0 -9999.0 -9999.0 -9999.0 -9999.0 -9999.0 -9999.0 -9999.0 -9999.0 -9999.0 -9999.0 -9999.0 -9999.0 -9999.0 -9999.0 -9999.0 -9999.0 -9999.0 -9999.0 -9999.0 -9999.0 -9999.0 -9999.0 -9999.0 -9999.0 -9999.0 -9999.0 -9999.0 -9999.0 -9999.0 -9999.0 -9999.0 -9999.0 -9999.0 -9999.0 -9999.0 -9999.0 -9999.0 -9999.0 -9999.0 -9999.0 -9999.0 -9999.0 -9999.0 -9999.0 -9999.0 -9999.0 -9999.0 -9999.0 -9999.0 -9999.0 -9999.0 -9999.0 -9999.0 -9999.0 -9999.0 -9999.0 -9999.0 -9999.0 -9999.0 -9999.0 -9999.0 -9999.0 -9999.0 -9999.0 -9999.0 -9999.0 -9999.0 -9999.0 -9999.0 -9999.0 -9999.0 -9999.0 -9999.0 -9999.0 -9999.0 -9999.0 -9999.0 -9999.0 -9999.0 -9999.0 -9999.0 -9999.0 -9999.0 -9999.0 -9999.0 -9999.0 -9999.0 -9999.0 -9999.0 -9999.0 -9999.0 -9999.0 -9999.0 -9999.0 -9999.0 -9999.0 -9999.0 -9999.0 -9999.0 -9999.0 -9999.0 -9999.0 -9999.0 -9999.0 -9999.0 -9999.0 -9999.0 -9999.0 434.5 435.4 371.9 287.8 236.0 -9999.0 -9999.0 -9999.0 -9999.0 -9999.0 -9999.0 -9999.0 -9999.0 -9999.0 -9999.0 -9999.0 -9999.0 -9999.0 -9999.0 -9999.0 -9999.0 -9999.0 -9999.0 -9999.0 -9999.0 -9999.0 -9999.0 -9999.0 -9999.0 76.3 74.2 59.9 32.9 64.7 116.4 143.8 168.0 205.0 296.4 365.7 345.6 424.2 594.1 636.1 525.6 468.5 461.0 510.9 382.2 432.4 477.8 374.6 345.3 392.8 412.3 436.5 578.9 686.5 678.4 891.1 854.9 836.3 819.2 859.5 914.7 1000.3 1012.6 986.0 877.1 760.2 689.4 603.8 525.0 573.2 611.1 542.4 519.5 471.3 369.7 450.9 509.3 472.9 465.5 521.8 572.0 521.7 374.6 308.2 389.3 427.7 517.3 532.7 611.3 591.8 643.7 587.6 523.0 533.1 658.4 729.0 716.5 504.4 385.1 476.3 587.7 669.1 748.3 854.7 968.4 970.7 897.9 839.0 953.1 992.5
665.5 637.1 661.4 694.0 669.6 678.7 658.5 674.3 688.1 642.6 610.7 685.9 709.0 748.4 768.2 764.5 731.2 667.6 622.0 627.4 625.2 617.9 606.0 609.4 712.6 737.4 781.8 892.1 952.5 852.6 766.4 747.3 780.5 737.1 631.9 662.0 736.6 760.2 816.9 812.2 796.9 713.5 649.0 652.3 766.0 793.5 804.1 726.5 709.5 683.0 706.4 744.5 789.4 830.8 920.6 1025.1 1047.3 891.2 743.3 687.1 711.3 772.2 888.9 955.8 941.5 936.7 944.4 873.8 771.2 654.8 569.6 709.0 795.4 763.7 783.5 854.5 878.4 794.6 742.2 699.6 658.2 605.1 553.6 514.8 494.7 541.3 570.7 624.1 716.7 763.9 760.0 723.1 768.2 833.6 885.0 910.3 847.9 828.1 778.6 689.0 635.5 704.4 742.3 712.0 624.0 554.3 569.9 566.5 554.3 622.1 613.5 627.9 672.9 655.6 588.5 573.5 570.9 666.1 736.7 759.7 719.3 609.1 630.4 722.2 679.9 574.2 495.3 453.2 554.1 534.4 525.4 527.0 583.7 643.2 621.1 491.6 489.5 507.2 483.6 520.4 683.0 717.9 580.4 463.7 438.9 426.5 384.6 328.3 290.1 239.3 189.1 172.8 194.7 237.3 274.4 354.9 350.5 363.4 342.3 260.5 184.8 175.3 204.5 234.1 263.8 206.5 142.0 59.7 46.0 -9999.0 -9999.0 -9999.0 -9999.0 -9999.0 -9999.0 -9999.0 -9999.0 -9999.0 -9999.0 -9999.0 -9999.0 -9999.0 -9999.0 -9999.0 -9999.0 -9999.0 -9999.0 -9999.0 -9999.0 -9999.0 -9999.0 -9999.0 -9999.0 -9999.0 -9999.0 -9999.0 -9999.0 -9999.0 -9999.0 -9999.0 -9999.0 -9999.0 -9999.0 -9999.0 -9999.0 -9999.0 -9999.0 -9999.0 -9999.0 -9999.0 -9999.0 -9999.0 -9999.0 -9999.0 -9999.0 -9999.0 -9999.0 -9999.0 -9999.0 -9999.0 -9999.0 -9999.0 -9999.0 -9999.0 -9999.0 -9999.0 -9999.0 -9999.0 -9999.0 -9999.0 -9999.0 -9999.0 -9999.0 -9999.0 -9999.0 -9999.0 -9999.0 -9999.0 -9999.0 -9999.0 -9999.0 -9999.0 -9999.0 -9999.0 -9999.0 -9999.0 -9999.0 -9999.0 -9999.0 -9999.0 -9999.0 -9999.0 -9999.0 -9999.0 -9999.0 -9999.0 -9999.0 -9999.0 -9999.0 -9999.0 -9999.0 -9999.0 -9999.0 -9999.0 -9999.0 -9999.0 -9999.0 -9999.0 -9999.0 -9999.0 -9999.0 -9999.0 -9999.0 -9999.0 -9999.0 -9999.0 -9999.0 -9999.0 -9999.0 -9999.0 -9999.0 -9999.0 -9999.0 -9999.0 -9999.0 -9999.0 -9999.0 -9999.0 -9999.0 -9999.0 -9999.0 -9999.0 -9999.0 -9999.0 -9999.0 -9999.0 -9999.0 -9999.0 -9999.0 -9999.0 -9999.0 -9999.0 -9999.0 -9999.0 -9999.0 -9999.0 -9999.0 -9999.0 -9999.0 -9999.0 -9999.0 -9999.0 -9999.0 -9999.0 -9999.0 -9999.0 -9999.0 -9999.0 -9999.0 -9999.0 -9999.0 -9999.0 -9999.0 -9999.0 -9999.0 -9999.0 -9999.0 -9999.0 -9999.0 -9999.0 -9999.0 -9999.0 -9999.0 -9999.0 -9999.0 -9999.0 -9999.0 -9999.0 -9999.0 -9999.0 -9999.0 -9999.0 59.0 63.9 76.8 116.9 164.0 195.5 225.9 307.2 380.6 510.9 640.8 657.9 552.9 412.0 424.9 323.5 302.3 341.5 263.1 241.0 252.1 308.1 395.3 497.0 499.0 600.6 793.8 708.6 666.7 689.9 748.0 855.0 895.5 928.1 1013.0 890.1 769.6 652.8 593.3 589.6 606.5 583.1 558.5 532.9 436.5 417.5 500.3 531.9 529.6 572.6 637.5 581.5 505.6 419.4 323.7 284.2 325.6 361.7 473.6 492.3 515.7 506.5 479.9 446.7 461.8 572.0 674.2 687.0 472.7 366.8 460.5 538.1 621.8 714.6 817.1 849.1 827.1 816.0 722.7 750.7 822.1
763.6 686.5 774.5 836.0 798.9 768.5 744.4 712.6 669.2 638.3 634.0 693.9 759.2 776.9 768.5 719.6 672.9 647.1 656.0 682.1 691.0 668.2 617.1 638.9 779.4 837.8 900.3 1002.9 1024.7 939.8 886.7 894.5 922.1 770.9 641.6 722.0 758.7 861.8 953.9 891.7 793.0 636.1 677.2 781.9 906.5 909.6 906.9 851.0 893.1 838.1 792.9 739.4 838.7 880.9 936.4 1025.0 997.8 891.2 789.6 739.6 713.7 708.4 767.7 875.1 975.6 1015.1 938.7 814.3 700.0 627.2 582.2 657.2 768.9 851.0 875.2 865.3 901.1 807.3 771.6 708.4 647.3 609.6 538.8 490.9 495.0 552.4 590.9 622.7 701.9 797.1 834.3 775.3 780.5 858.8 919.6 861.0 718.6 655.9 636.2 613.0 636.7 625.2 597.9 607.7 590.1 578.9 676.2 710.7 693.3 735.7 764.2 799.0 674.9 683.7 659.4 636.1 646.9 785.5 843.2 764.7 704.0 663.2 650.0 757.7 728.3 608.9 530.1 446.6 525.6 584.9 589.0 601.9 565.4 557.0 523.9 473.7 513.3 582.7 498.4 600.0 711.6 733.4 616.1 482.4 379.7 409.3 478.8 424.2 382.5 383.3 341.2 279.8 166.9 145.6 166.1 212.5 286.6 296.3 219.8 198.6 163.6 110.7 113.6 145.4 173.7 159.5 98.6 55.3 20.2 -9999.0 -9999.0 -9999.0 -9999.0 -9999.0 -9999.0 -9999.0 -9999.0 -9999.0 -9999.0 -9999.0 -9999.0 -9999.0 -9999.0 -9999.0 -9999.0 -9999.0 -9999.0 -9999.0 -9999.0 -9999.0 -9999.0 -9999.0 -9999.0 -9999.0 -9999.0 -9999.0 -9999.0 -9999.0 -9999.0 -9999.0 -9999.0 -9999.0 -9999.0 -9999.0 -9999.0 -9999.0 -9999.0 -9999.0 -9999.0 -9999.0 -9999.0 -9999.0 -9999.0 -9999.0 -9999.0 -9999.0 -9999.0 -9999.0 -9999.0 -9999.0 -9999.0 -9999.0 -9999.0 -9999.0 -9999.0 -9999.0 -9999.0 -9999.0 -9999.0 -9999.0 -9999.0 -9999.0 -9999.0 -9999.0 -9999.0 -9999.0 -9999.0 -9999.0 -9999.0 -9999.0 -9999.0 -9999.0 -9999.0 -9999.0 -9999.0 -9999.0 -9999.0 -9999.0 -9999.0 -9999.0 -9999.0 -9999.0 -9999.0 -9999.0 -9999.0 -9999.0 -9999.0 -9999.0 -9999.0 -9999.0 -9999.0 -9999.0 -9999.0 -9999.0 -9999.0 -9999.0 -9999.0 -9999.0 -9999.0 -9999.0 -9999.0 -9999.0 -9999.0 -9999.0 -9999.0 -9999.0 -9999.0 -9999.0 -9999.0 -9999.0 -9999.0 -9999.0 -9999.0 -9999.0 -9999.0 -9999.0 -9999.0 -9999.0 -9999.0 -9999.0 -9999.0 -9999.0 -9999.0 -9999.0 -9999.0 -9999.0 -9999.0 -9999.0 -9999.0 -9999.0 -9999.0 -9999.0 -9999.0 -9999.0 -9999.0 -9999.0 -9999.0 -9999.0 -9999.0 -9999.0 -9999.0 -9999.0 -9999.0 -9999.0 -9999.0 -9999.0 -9999.0 -9999.0 -9999.0 -9999.0 -9999.0 -9999.0 -9999.0 -9999.0 -9999.0 -9999.0 -9999.0 -9999.0 -9999.0 -9999.0 -9999.0 -9999.0 -9999.0 -9999.0 -9999.0 -9999.0 -9999.0 -9999.0 -9999.0 -9999.0 -9999.0 -9999.0 -9999.0 -9999.0 75.6 94.1 146.6 228.7 303.7 265.4 319.1 400.2 459.5 579.0 524.1 377.0 265.8 275.5 195.0 182.0 165.5 155.6 235.2 301.6 356.6 449.6 556.1 650.8 783.3 600.6 565.9 622.4 666.3 735.6 781.6 850.1 967.5 1004.7 843.2 722.4 667.0 618.4 603.3 567.8 494.9 449.1 404.2 475.2 553.8 623.7 599.0 664.8 739.7 704.9 632.7 526.3 413.9 395.5 341.6 277.7 312.4 365.3 389.8 391.7 419.6 389.7 417.2 518.3 628.6 640.8 408.0 387.6 507.6 604.8 708.5 801.8 778.4 703.8 640.5 641.6 566.9 615.6 717.1
834.0 785.9 908.4 927.3 851.1 767.8 746.0 713.7 699.1 639.8 676.3 777.7 809.3 827.9 747.7 672.8 714.0 758.2 707.8 777.6 804.3 713.7 648.8 644.8 743.1 807.2 884.1 1026.1 1152.2 1104.4 998.9 891.7 823.8 712.9 685.1 822.2 907.8 911.0 950.3 926.3 792.1 652.4 669.9 811.2 937.1 1019.5 983.2 917.3 967.3 985.6 857.1 787.9 871.1 968.4 1009.8 1045.0 947.6 793.5 745.4 858.2 857.7 780.1 728.5 865.5 1000.0 1002.8 925.3 833.2 692.7 604.3 673.9 740.4 706.2 765.6 920.2 962.3 885.1 783.3 725.7 674.5 604.3 586.3 529.7 500.1 496.9 532.0 593.8 640.9 642.8 742.8 818.8 830.2 858.7 901.2 945.2 835.4 686.2 600.8 625.6 697.4 820.6 793.0 699.7 710.0 681.1 628.7 766.8 850.4 867.4 882.9 865.3 746.1 654.5 780.9 839.8 782.9 735.1 885.7 885.5 829.7 855.1 731.6 749.4 744.1 663.2 644.0 529.8 479.4 590.0 654.0 708.5 663.8 550.3 458.3 509.1 568.5 619.5 632.7 543.3 678.0 790.9 754.9 648.0 530.7 401.5 290.8 290.2 356.8 344.7 388.9 344.5 352.6 329.8 258.0 136.3 114.5 256.0 264.0 253.2 199.7 157.9 104.8 62.2 64.0 86.1 90.6 -9999.0 -9999.0 -9999.0 -9999.0 -9999.0 -9999.0 -9999.0 -9999.0 -9999.0 -9999.0 -9999.0 -9999.0 -9999.0 -9999.0 -9999.0 -9999.0 -9999.0 -9999.0 -9999.0 -9999.0 -9999.0 -9999.0 -9999.0 -9999.0 -9999.0 -9999.0 -9999.0 -9999.0 -9999.0 -9999.0 -9999.0 -9999.0 -9999.0 -9999.0 -9999.0 -9999.0 -9999.0 -9999.0 -9999.0 -9999.0 -9999.0 -9999.0 -9999.0 -9999.0 -9999.0 -9999.0 -9999.0 -9999.0 -9999.0 -9999.0 -9999.0 -9999.0 -9999.0 -9999.0 -9999.0 -9999.0 -9999.0 -9999.0 -9999.0 -9999.0 -9999.0 -9999.0 -9999.0 -9999.0 -9999.0 -9999.0 -9999.0 -9999.0 -9999.0 -9999.0 -9999.0 -9999.0 -9999.0 -9999.0 -9999.0 -9999.0 -9999.0 -9999.0 -9999.0 -9999.0 -9999.0 -9999.0 -9999.0 -9999.0 -9999.0 -9999.0 -9999.0 -9999.0 -9999.0 -9999.0 -9999.0 -9999.0 -9999.0 -9999.0 -9999.0 -9999.0 -9999.0 -9999.0 -9999.0 -9999.0 -9999.0 -9999.0 -9999.0 -9999.0 -9999.0 -9999.0 -9999.0 -9999.0 -9999.0 -9999.0 -9999.0 -9999.0 -9999.0 -9999.0 -9999.0 -9999.0 -9999.0 -9999.0 -9999.0 -9999.0 -9999.0 -9999.0 -9999.0 -9999.0 -9999.0 -9999.0 -9999.0 -9999.0 -9999.0 -9999.0 -9999.0 -9999.0 -9999.0 -9999.0 -9999.0 -9999.0 -9999.0 -9999.0 -9999.0 -9999.0 -9999.0 -9999.0 -9999.0 -9999.0 -9999.0 -9999.0 -9999.0 -9999.0 -9999.0 -9999.0 -9999.0 -9999.0 -9999.0 -9999.0 -9999.0 -9999.0 -9999.0 -9999.0 -9999.0 -9999.0 -9999.0 -9999.0 -9999.0 -9999.0 -9999.0 -9999.0 -9999.0 -9999.0 -9999.0 -9999.0 -9999.0 -9999.0 -9999.0 -9999.0 -9999.0 -9999.0 -9999.0 -9999.0 -9999.0 -9999.0 179.4 276.1 251.6 181.6 280.9 343.1 384.3 469.1 464.1 318.3 217.0 158.2 147.5 109.5 154.0 254.7 309.7 383.7 528.7 591.9 615.9 543.6 570.8 458.3 453.1 549.0 640.1 728.9 802.0 858.1 810.7 926.0 820.2 692.7 619.9 567.0 528.8 552.2 504.0 431.5 429.6 471.8 533.0 606.6 657.0 715.3 658.5 592.0 531.8 499.2 510.3 561.8 503.7 343.2 275.1 319.5 335.8 348.8 349.5 318.8 379.8 423.0 505.8 467.7 339.1 405.8 500.3 597.2 700.0 774.6 665.6 609.8 510.2 479.1 508.8 600.8 695.9
889.0 937.3 951.2 896.4 820.4 765.8 750.3 714.1 680.0 650.5 741.0 845.5 918.6 813.4 730.6 710.7 794.3 835.0 787.8 781.9 779.6 737.4 668.4 648.9 695.2 764.0 858.7 1006.7 1099.0 1016.2 980.7 857.8 719.2 715.8 744.0 797.3 949.0 989.4 923.9 853.0 771.1 661.9 666.9 751.9 850.5 942.1 987.9 984.0 987.6 1034.5 882.3 812.0 888.3 980.7 1059.0 1062.8 954.7 807.9 789.3 939.0 963.4 802.1 787.3 919.7 1067.1 1077.0 939.8 813.9 662.2 645.2 775.9 892.6 893.7 823.9 917.4 973.9 861.9 799.3 744.0 684.9 637.3 561.3 495.1 501.9 538.9 561.6 565.9 566.9 588.4 615.8 667.5 759.6 857.0 949.5 943.1 811.5 702.4 637.1 641.9 747.4 900.8 968.6 896.7 885.3 776.3 680.2 781.2 911.5 964.0 895.7 798.2 709.4 659.5 684.7 797.5 848.5 836.0 973.4 973.3 948.5 917.8 810.0 859.4 792.1 676.4 577.7 478.8 494.7 598.5 667.2 682.4 694.3 608.0 480.6 518.7 628.8 687.0 626.5 541.3 625.4 734.0 730.2 673.4 564.1 460.1 350.4 252.7 178.2 148.4 197.6 200.4 200.4 212.7 218.8 154.8 79.2 133.8 173.8 182.5 210.5 167.4 129.6 82.9 41.2 -9999.0 -9999.0 -9999.0 -9999.0 -9999.0 -9999.0 -9999.0 -9999.0 -9999.0 -9999.0 -9999.0 -9999.0 -9999.0 -9999.0 -9999.0 -9999.0 -9999.0 -9999.0 -9999.0 -9999.0 -9999.0 -9999.0 -9999.0 -9999.0 -9999.0 -9999.0 -9999.0 -9999.0 -9999.0 -9999.0 -9999.0 -9999.0 -9999.0 -9999.0 -9999.0 -9999.0 -9999.0 -9999.0 -9999.0 -9999.0 -9999.0 -9999.0 -9999.0 -9999.0 -9999.0 -9999.0 -9999.0 -9999.0 -9999.0 -9999.0 -9999.0 -9999.0 -9999.0 -9999.0 -9999.0 -9999.0 -9999.0 -9999.0 -9999.0 -9999.0 -9999.0 -9999.0 -9999.0 -9999.0 -9999.0 -9999.0 -9999.0 -9999.0 -9999.0 -9999.0 -9999.0 -9999.0 -9999.0 -9999.0 -9999.0 -9999.0 -9999.0 -9999.0 -9999.0 -9999.0 -9999.0 -9999.0 -9999.0 -9999.0 -9999.0 -9999.0 -9999.0 -9999.0 -9999.0 -9999.0 -9999.0 -9999.0 -9999.0 -9999.0 -9999.0 -9999.0 -9999.0 -9999.0 -9999.0 -9999.0 -9999.0 -9999.0 -9999.0 -9999.0 -9999.0 -9999.0 -9999.0 -9999.0 -9999.0 -9999.0 -9999.0 -9999.0 -9999.0 -9999.0 -9999.0 -9999.0 -9999.0 -9999.0 -9999.0 -9999.0 -9999.0 -9999.0 -9999.0 -9999.0 -9999.0 -9999.0 -9999.0 -9999.0 -9999.0 -9999.0 -9999.0 -9999.0 -9999.0 -9999.0 -9999.0 -9999.0 -9999.0 -9999.0 -9999.0 -9999.0 -9999.0 -9999.0 -9999.0 -9999.0 -9999.0 -9999.0 -9999.0 -9999.0 -9999.0 -9999.0 -9999.0 -9999.0 -9999.0 -9999.0 -9999.0 -9999.0 -9999.0 -9999.0 -9999.0 -9999.0 -9999.0 -9999.0 -9999.0 -9999.0 -9999.0 -9999.0 -9999.0 -9999.0 -9999.0 -9999.0 -9999.0 -9999.0 -9999.0 -9999.0 -9999.0 -9999.0 -9999.0 -9999.0 -9999.0 -9999.0 -9999.0 -9999.0 -9999.0 -9999.0 187.2 118.6 207.3 229.2 317.8 438.1 457.3 381.5 262.1 165.7 104.5 84.3 171.7 243.4 317.7 341.8 427.7 457.6 446.1 470.1 334.9 330.7 411.4 528.8 656.8 796.7 901.5 849.5 670.1 704.0 723.0 714.8 678.8 600.0 544.9 500.4 472.3 411.0 491.4 544.5 534.4 583.1 639.6 738.5 754.8 682.4 615.2 561.0 515.6 459.6 492.3 444.1 323.1 275.3 251.6 288.4 326.2 325.5 334.9 356.2 336.6 350.9 396.3 468.2 551.4 670.0 736.0 737.0 621.4 513.1 420.7 448.6 575.8 656.2 706.8
1093.4 1024.5 902.6 869.3 850.7 836.9 813.9 729.9 664.8 769.2 792.9 903.6 865.9 788.6 757.8 776.1 813.4 940.8 916.3 896.1 845.5 795.2 737.1 661.1 746.6 817.1 897.5 1014.1 991.1 892.7 799.2 769.3 823.5 811.4 847.8 789.1 894.6 1024.8 1027.4 896.3 747.9 652.1 694.5 715.1 760.3 810.1 874.2 950.0 1012.2 990.7 897.2 825.6 874.2 972.3 1058.1 1058.3 1003.3 846.6 768.7 891.1 967.4 822.4 854.5 999.7 1120.6 1083.1 919.6 781.6 737.3 666.8 728.9 865.0 963.8 980.9 963.7 1019.2 934.6 827.2 687.5 596.0 550.5 506.9 503.7 542.5 584.5 637.0 644.3 613.1 662.9 659.7 663.0 704.4 822.9 910.5 844.4 770.7 654.7 609.9 628.7 721.6 847.6 950.6 1062.2 1041.4 897.4 745.6 800.0 947.6 915.0 816.3 767.6 777.7 741.9 654.6 721.8 831.0 951.3 1041.3 1072.0 1036.9 1003.5 953.8 930.8 845.7 751.1 612.8 509.6 589.4 620.7 607.4 534.6 538.6 508.6 479.3 525.3 564.0 639.4 611.3 596.4 639.3 676.9 585.5 550.7 465.5 407.0 336.0 280.0 176.3 201.2 130.9 140.0 153.4 154.7 78.9 75.2 72.4 47.0 122.3 158.8 130.6 146.7 116.1 74.0 -9999.0 -9999.0 -9999.0 -9999.0 -9999.0 -9999.0 -9999.0 -9999.0 -9999.0 -9999.0 -9999.0 -9999.0 -9999.0 -9999.0 -9999.0 -9999.0 -9999.0 -9999.0 -9999.0 -9999.0 -9999.0 -9999.0 -9999.0 -9999.0 -9999.0 -9999.0 -9999.0 -9999.0 -9999.0 -9999.0 -9999.0 -9999.0 -9999.0 -9999.0 -9999.0 -9999.0 -9999.0 -9999.0 -9999.0 -9999.0 -9999.0 -9999.0 -9999.0 -9999.0 -9999.0 -9999.0 -9999.0 -9999.0 -9999.0 -9999.0 -9999.0 -9999.0 -9999.0 -9999.0 -9999.0 -9999.0 -9999.0 -9999.0 -9999.0 -9999.0 -9999.0 -9999.0 -9999.0 -9999.0 -9999.0 -9999.0 -9999.0 -9999.0 -9999.0 -9999.0 -9999.0 -9999.0 -9999.0 -9999.0 -9999.0 -9999.0 -9999.0 -9999.0 -9999.0 -9999.0 -9999.0 -9999.0 -9999.0 -9999.0 -9999.0 -9999.0 -9999.0 -9999.0 -9999.0 -9999.0 -9999.0 -9999.0 -9999.0 -9999.0 -9999.0 -9999.0 -9999.0 -9999.0 -9999.0 -9999.0 -9999.0 -9999.0 -9999.0 -9999.0 -9999.0 -9999.0 -9999.0 -9999.0 -9999.0 -9999.0 -9999.0 -9999.0 -9999.0 -9999.0 -9999.0 -9999.0 -9999.0 -9999.0 -9999.0 -9999.0 -9999.0 -9999.0 -9999.0 -9999.0 -9999.0 -9999.0 -9999.0 -9999.0 -9999.0 -9999.0 -9999.0 -9999.0 -9999.0 -9999.0 -9999.0 -9999.0 -9999.0 -9999.0 -9999.0 -9999.0 -9999.0 -9999.0 -9999.0 -9999.0 -9999.0 -9999.0 -9999.0 -9999.0 -9999.0 -9999.0 -9999.0 -9999.0 -9999.0 -9999.0 -9999.0 -9999.0 -9999.0 -9999.0 -9999.0 -9999.0 -9999.0 -9999.0 -9999.0 -9999.0 -9999.0 -9999.0 -9999.0 -9999.0 -9999.0 -9999.0 -9999.0 -9999.0 -9999.0 -9999.0 -9999.0 -9999.0 -9999.0 -9999.0 -9999.0 -9999.0 -9999.0 -9999.0 -9999.0 -9999.0 -9999.0 -9999.0 -9999.0 150.8 249.0 366.5 400.2 353.0 354.0 215.8 119.7 59.1 101.3 206.3 294.6 318.2 232.5 190.6 273.2 402.5 424.3 268.3 242.6 349.2 474.5 590.6 773.6 879.4 750.3 591.2 563.0 590.5 644.9 692.1 644.4 629.5 559.3 490.5 441.1 488.2 545.1 619.6 694.5 715.7 781.3 713.8 621.1 614.0 560.1 452.7 395.1 365.7 424.4 445.7 313.7 317.0 395.9 342.9 286.5 298.9 284.7 305.5 433.9 530.8 588.2 648.7 704.9 648.8 643.1 554.0 419.3 378.1 435.2 506.6 592.9 655.1
1143.4 1012.3 977.3 979.9 961.0 912.8 813.3 704.3 737.3 924.5 922.1 914.0 856.6 841.9 833.0 902.8 861.9 961.8 1063.7 1083.1 953.1 884.5 799.8 694.3 778.3 869.5 1012.8 990.4 846.2 865.7 916.2 896.3 935.1 867.4 891.8 841.0 893.6 994.5 938.4 841.1 708.1 769.7 823.1 861.6 848.6 804.4 805.6 922.3 1013.7 1008.8 995.5 938.9 866.5 939.4 999.8 996.2 914.7 838.9 758.0 873.0 953.5 845.5 888.2 1043.2 1065.6 950.3 848.4 787.0 697.6 683.2 776.7 811.5 911.2 1041.2 1069.5 957.3 874.2 800.9 708.7 585.4 509.0 531.5 531.5 559.6 590.2 633.0 631.8 626.2 676.1 759.6 761.4 763.8 838.3 856.9 805.9 782.1 762.2 699.8 640.5 816.2 941.7 1029.8 1120.1 1120.7 1000.4 864.6 868.7 987.1 930.8 923.4 934.9 880.8 773.7 675.2 712.7 802.0 865.6 944.9 954.6 916.5 844.5 799.0 751.6 700.5 632.0 532.6 557.2 668.9 660.5 531.4 531.4 532.9 485.8 509.7 597.0 576.4 651.3 606.5 610.4 687.6 687.2 502.4 353.3 328.5 230.6 210.6 217.6 227.0 223.1 132.7 106.1 112.8 103.6 87.3 105.6 85.9 61.5 50.5 50.2 71.2 84.5 -9999.0 -9999.0 -9999.0 -9999.0 -9999.0 -9999.0 -9999.0 -9999.0 -9999.0 -9999.0 -9999.0 -9999.0 -9999.0 -9999.0 -9999.0 -9999.0 -9999.0 -9999.0 -9999.0 -9999.0 -9999.0 -9999.0 -9999.0 -9999.0 -9999.0 -9999.0 -9999.0 -9999.0 -9999.0 -9999.0 -9999.0 -9999.0 -9999.0 -9999.0 -9999.0 -9999.0 -9999.0 -9999.0 -9999.0 -9999.0 -9999.0 -9999.0 -9999.0 -9999.0 -9999.0 -9999.0 -9999.0 -9999.0 -9999.0 -9999.0 -9999.0 -9999.0 -9999.0 -9999.0 -9999.0 -9999.0 -9999.0 -9999.0 -9999.0 -9999.0 -9999.0 -9999.0 -9999.0 -9999.0 -9999.0 -9999.0 -9999.0 -9999.0 -9999.0 -9999.0 -9999.0 -9999.0 -9999.0 -9999.0 -9999.0 -9999.0 -9999.0 -9999.0 -9999.0 -9999.0 -9999.0 -9999.0 -9999.0 -9999.0 -9999.0 -9999.0 -9999.0 -9999.0 -9999.0 -9999.0 -9999.0 -9999.0 -9999.0 -9999.0 -9999.0 -9999.0 -9999.0 -9999.0 -9999.0 -9999.0 -9999.0 -9999.0 -9999.0 -9999.0 -9999.0 -9999.0 -9999.0 -9999.0 -9999.0 -9999.0 -9999.0 -9999.0 -9999.0 -9999.0 -9999.0 -9999.0 -9999.0 -9999.0 -9999.0 -9999.0 -9999.0 -9999.0 -9999.0 -9999.0 -9999.0 -9999.0 -9999.0 -9999.0 -9999.0 -9999.0 -9999.0 -9999.0 -9999.0 -9999.0 -9999.0 -9999.0 -9999.0 -9999.0 -9999.0 -9999.0 -9999.0 -9999.0 -9999.0 -9999.0 -9999.0 -9999.0 -9999.0 -9999.0 -9999.0 -9999.0 -9999.0 -9999.0 -9999.0 -9999.0 -9999.0 -9999.0 -9999.0 -9999.0 -9999.0 -9999.0 -9999.0 -9999.0 -9999.0 -9999.0 -9999.0 -9999.0 -9999.0 -9999.0 -9999.0 -9999.0 -9999.0 -9999.0 -9999.0 -9999.0 -9999.0 -9999.0 -9999.0 -9999.0 -9999.0 -9999.0 -9999.0 -9999.0 -9999.0 -9999.0 -9999.0 -9999.0 -9999.0 -9999.0 -9999.0 -9999.0 270.0 292.8 227.8 198.8 205.3 159.1 90.9 62.7 135.3 256.0 351.8 270.8 184.2 130.8 270.1 346.2 240.7 209.5 286.1 363.5 468.7 600.4 686.7 672.1 586.7 475.9 521.0 614.2 651.7 571.9 496.4 546.4 569.4 507.5 482.6 550.9 589.2 648.1 675.6 666.0 677.2 706.7 624.0 523.7 491.1 424.0 349.4 334.6 290.1 271.3 266.3 355.1 403.3 354.0 269.6 245.4 251.6 313.2 400.9 502.5 544.4 624.0 646.6 524.6 503.0 482.8 353.2 362.0 435.5 512.9 602.3 680.5
1172.8 1064.9 1072.0 1007.2 915.5 882.1 785.0 709.2 814.1 960.8 1011.5 978.2 913.0 948.4 921.1 1035.3 987.9 1091.1 1146.6 1097.1 961.4 861.8 758.5 812.1 823.3 950.1 1037.1 889.3 907.7 1015.6 1111.5 1060.9 1018.0 983.9 963.6 915.5 902.0 900.4 822.2 706.9 788.9 931.2 1000.4 1029.9 1013.1 941.3 864.7 949.7 1048.9 1094.0 1050.6 994.8 891.0 910.1 980.3 943.9 832.7 753.2 814.3 921.1 967.8 889.2 889.4 1018.5 1052.0 922.4 800.2 745.5 724.8 695.7 790.0 863.0 936.7 1041.8 1075.5 992.8 866.0 762.9 726.8 620.1 515.2 629.1 598.5 627.9 590.0 557.1 618.2 673.0 710.5 728.5 818.7 943.8 927.3 915.2 942.1 959.1 913.6 810.8 660.4 746.2 853.2 957.5 944.7 994.5 1093.2 1019.7 975.7 1127.3 1098.1 1048.8 981.7 890.1 807.5 695.2 683.2 742.2 796.9 869.7 790.8 739.0 677.5 607.1 553.9 548.8 537.5 550.1 597.8 584.4 536.6 543.4 576.4 561.2 498.8 524.1 577.8 651.2 645.3 639.4 642.9 708.6 676.0 470.1 296.4 252.1 302.0 338.4 371.2 297.5 153.9 170.9 203.6 257.2 206.7 165.7 242.6 172.8 115.1 68.4 58.5 43.2 27.0 -9999.0 -9999.0 -9999.0 -9999.0 -9999.0 -9999.0 -9999.0 -9999.0 -9999.0 -9999.0 -9999.0 -9999.0 -9999.0 -9999.0 -9999.0 -9999.0 -9999.0 -9999.0 -9999.0 -9999.0 -9999.0 -9999.0 -9999.0 -9999.0 -9999.0 -9999.0 -9999.0 -9999.0 -9999.0 -9999.0 -9999.0 -9999.0 -9999.0 -9999.0 -9999.0 -9999.0 -9999.0 -9999.0 -9999.0 -9999.0 -9999.0 -9999.0 -9999.0 -9999.0 -9999.0 -9999.0 -9999.0 -9999.0 -9999.0 -9999.0 -9999.0 -9999.0 -9999.0 -9999.0 -9999.0 -9999.0 -9999.0 -9999.0 -9999.0 -9999.0 -9999.0 -9999.0 -9999.0 -9999.0 -9999.0 -9999.0 -9999.0 -9999.0 -9999.0 -9999.0 -9999.0 -9999.0 -9999.0 -9999.0 -9999.0 -9999.0 -9999.0 -9999.0 -9999.0 -9999.0 -9999.0 -9999.0 -9999.0 -9999.0 -9999.0 -9999.0 -9999.0 -9999.0 -9999.0 -9999.0 -9999.0 -9999.0 -9999.0 -9999.0 -9999.0 -9999.0 -9999.0 -9999.0 -9999.0 -9999.0 -9999.0 -9999.0 -9999.0 -9999.0 -9999.0 -9999.0 -9999.0 -9999.0 -9999.0 -9999.0 -9999.0 -9999.0 -9999.0 -9999.0 -9999.0 -9999.0 -9999.0 -9999.0 -9999.0 -9999.0 -9999.0 -9999.0 -9999.0 -9999.0 -9999.0 -9999.0 -9999.0 -9999.0 -9999.0 -9999.0 -9999.0 -9999.0 -9999.0 -9999.0 -9999.0 -9999.0 -9999.0 -9999.0 -9999.0 -9999.0 -9999.0 -9999.0 -9999.0 -9999.0 -9999.0 -9999.0 -9999.0 -9999.0 -9999.0 -9999.0 -9999.0 -9999.0 -9999.0 -9999.0 -9999.0 -9999.0 -9999.0 -9999.0 -9999.0 -9999.0 -9999.0 -9999.0 -9999.0 -9999.0 -9999.0 -9999.0 -9999.0 -9999.0 -9999.0 -9999.0 -9999.0 -9999.0 -9999.0 -9999.0 -9999.0 -9999.0 -9999.0 -9999.0 -9999.0 -9999.0 -9999.0 -9999.0 -9999.0 -9999.0 -9999.0 -9999.0 -9999.0 -9999.0 -9999.0 -9999.0 -9999.0 132.2 86.9 116.7 115.7 82.2 51.1 107.6 149.3 230.2 305.9 196.3 129.5 120.8 246.4 218.5 158.3 304.8 369.4 331.4 419.1 455.6 493.2 442.0 436.4 483.5 532.8 585.6 563.0 477.7 365.9 438.3 534.9 538.1 495.1 572.7 659.7 667.9 567.7 520.7 529.6 613.7 630.2 598.0 543.4 473.9 441.8 469.0 385.0 332.6 308.4 257.5 370.7 323.9 222.0 229.9 248.7 297.4 376.0 477.3 585.1 603.2 562.7 454.6 346.5 347.6 347.4 406.5 464.2 512.7 584.6 683.3
1221.7 1233.0 1158.5 1010.9 902.1 828.0 734.6 758.2 834.8 920.1 1055.6 1099.9 1000.4 1103.2 1059.1 1170.8 1144.3 1265.9 1198.6 1033.1 956.3 901.0 784.7 840.6 872.7 982.0 983.8 939.2 1065.5 1168.8 1213.7 1231.0 1156.3 1132.8 1041.9 1023.4 979.3 957.6 902.7 732.7 770.0 902.4 1028.2 1137.6 1197.5 1068.9 1065.8 1045.4 1157.7 1219.6 1128.5 1036.5 930.7 955.7 954.0 863.5 798.1 868.4 944.8 1054.0 1073.4 989.8 917.3 976.5 1015.2 984.2 893.0 841.7 818.6 732.3 835.7 933.3 994.4 1045.0 1038.4 972.7 935.6 851.3 732.1 662.3 536.1 650.8 755.0 742.2 648.1 657.4 664.0 710.2 793.3 859.9 901.2 982.3 956.0 982.9 969.3 951.5 972.9 892.2 697.5 716.0 793.8 815.0 826.5 925.2 1033.8 1105.0 1150.2 1192.0 1070.3 948.2 884.6 835.9 731.5 686.9 690.6 782.9 867.8 820.8 712.2 621.9 560.6 554.1 619.9 667.3 666.7 629.8 583.2 593.1 654.4 698.6 594.4 578.7 544.2 534.6 605.8 637.1 659.7 691.0 724.7 663.7 607.8 384.5 305.4 323.4 426.5 431.0 347.1 230.0 199.7 270.5 323.9 353.8 304.6 279.2 329.0 235.4 166.4 114.8 77.4 50.9 -9999.0 -9999.0 -9999.0 -9999.0 -9999.0 -9999.0 -9999.0 -9999.0 -9999.0 -9999.0 -9999.0 -9999.0 -9999.0 -9999.0 -9999.0 -9999.0 -9999.0 -9999.0 -9999.0 -9999.0 -9999.0 -9999.0 -9999.0 -9999.0 -9999.0 -9999.0 -9999.0 -9999.0 -9999.0 -9999.0 -9999.0 -9999.0 -9999.0 -9999.0 -9999.0 -9999.0 -9999.0 -9999.0 -9999.0 -9999.0 -9999.0 -9999.0 -9999.0 -9999.0 -9999.0 -9999.0 -9999.0 -9999.0 -9999.0 -9999.0 -9999.0 -9999.0 -9999.0 -9999.0 -9999.0 -9999.0 -9999.0 -9999.0 -9999.0 -9999.0 -9999.0 -9999.0 -9999.0 -9999.0 -9999.0 -9999.0 -9999.0 -9999.0 -9999.0 -9999.0 -9999.0 -9999.0 -9999.0 -9999.0 -9999.0 -9999.0 -9999.0 -9999.0 -9999.0 -9999.0 -9999.0 -9999.0 -9999.0 -9999.0 -9999.0 -9999.0 -9999.0 -9999.0 -9999.0 -9999.0 -9999.0 -9999.0 -9999.0 -9999.0 -9999.0 -9999.0 -9999.0 -9999.0 -9999.0 -9999.0 -9999.0 -9999.0 -9999.0 -9999.0 -9999.0 -9999.0 -9999.0 -9999.0 -9999.0 -9999.0 -9999.0 -9999.0 -9999.0 -9999.0 -9999.0 -9999.0 -9999.0 -9999.0 -9999.0 -9999.0 -9999.0 -9999.0 -9999.0 -9999.0 -9999.0 -9999.0 -9999.0 -9999.0 -9999.0 -9999.0 -9999.0 -9999.0 -9999.0 -9999.0 -9999.0 -9999.0 -9999.0 -9999.0 -9999.0 -9999.0 -9999.0 -9999.0 -9999.0 -9999.0 -9999.0 -9999.0 -9999.0 -9999.0 -9999.0 -9999.0 -9999.0 -9999.0 -9999.0 -9999.0 -9999.0 -9999.0 -9999.0 -9999.0 -9999.0 -9999.0 -9999.0 -9999.0 -9999.0 -9999.0 -9999.0 -9999.0 -9999.0 -9999.0 -9999.0 -9999.0 -9999.0 -9999.0 -9999.0 -9999.0 -9999.0 -9999.0 -9999.0 -9999.0 -9999.0 -9999.0 -9999.0 -9999.0 -9999.0 -9999.0 -9999.0 -9999.0 -9999.0 -9999.0 -9999.0 -9999.0 -9999.0 -9999.0 -9999.0 46.7 61.2 73.0 51.6 44.9 72.4 95.2 180.3 258.6 159.7 74.9 118.4 187.4 148.0 170.5 303.6 244.2 215.8 283.8 266.5 341.7 399.4 452.9 439.4 436.9 468.2 481.5 385.8 318.4 417.9 510.6 598.9 556.5 569.6 645.6 633.9 543.2 504.7 454.2 463.9 474.7 472.7 440.6 427.8 493.0 513.4 487.8 475.2 414.1 299.2 244.5 239.7 230.3 257.9 269.8 302.8 365.2 454.8 509.3 516.4 492.8 367.5 282.9 356.3 433.6 508.9 559.2 578.0 613.8 657.0
1373.7 1306.9 1131.3 1038.4 951.7 860.1 755.2 805.3 854.6 947.2 1070.7 1177.4 1116.8 1196.0 1218.0 1283.1 1349.6 1390.5 1223.2 1069.2 969.3 807.1 812.0 917.2 978.7 1114.8 1019.3 1025.2 1141.1 1223.1 1350.8 1427.4 1360.5 1264.0 1174.3 1080.7 1047.2 1049.7 971.7 850.2 736.4 795.4 991.4 1140.8 1230.3 1187.8 1225.3 1151.0 1179.3 1266.5 1197.2 1098.9 985.6 1022.2 903.3 801.2 833.0 893.8 1037.8 1187.7 1199.4 1073.1 1044.2 1112.3 1089.3 1061.3 975.9 941.3 831.6 803.3 913.3 1032.8 1067.1 1024.2 922.8 807.4 782.2 807.1 729.3 638.5 525.6 636.7 841.5 881.9 762.9 744.1 745.9 694.7 816.3 917.3 1003.3 993.2 872.3 909.2 902.6 808.3 840.9 803.0 672.4 716.9 710.4 711.3 798.3 873.9 956.6 1023.3 1072.1 1122.9 1067.7 960.5 866.8 784.9 716.9 757.0 746.8 780.9 827.7 769.9 675.5 577.9 590.6 673.1 720.5 813.3 696.7 605.6 692.5 757.9 802.2 794.4 629.4 629.5 596.2 523.6 576.5 627.5 711.4 747.4 708.2 566.8 442.8 342.8 438.0 483.8 470.7 367.5 267.6 249.4 306.5 367.7 453.7 507.1 463.0 384.5 322.4 260.3 189.0 98.8 68.5 61.8 -9999.0 -9999.0 -9999.0 -9999.0 -9999.0 -9999.0 -9999.0 -9999.0 -9999.0 -9999.0 -9999.0 -9999.0 -9999.0 -9999.0 -9999.0 -9999.0 -9999.0 -9999.0 -9999.0 -9999.0 -9999.0 -9999.0 -9999.0 -9999.0 -9999.0 -9999.0 -9999.0 -9999.0 -9999.0 -9999.0 -9999.0 -9999.0 -9999.0 -9999.0 -9999.0 -9999.0 -9999.0 -9999.0 -9999.0 -9999.0 -9999.0 -9999.0 -9999.0 -9999.0 -9999.0 -9999.0 -9999.0 -9999.0 -9999.0 -9999.0 -9999.0 -9999.0 -9999.0 -9999.0 -9999.0 -9999.0 -9999.0 -9999.0 -9999.0 -9999.0 -9999.0 -9999.0 -9999.0 -9999.0 -9999.0 -9999.0 -9999.0 -9999.0 -9999.0 -9999.0 -9999.0 -9999.0 -9999.0 -9999.0 -9999.0 -9999.0 -9999.0 -9999.0 -9999.0 -9999.0 -9999.0 -9999.0 -9999.0 -9999.0 -9999.0 -9999.0 -9999.0 -9999.0 -9999.0 -9999.0 -9999.0 -9999.0 -9999.0 -9999.0 -9999.0 -9999.0 -9999.0 -9999.0 -9999.0 -9999.0 -9999.0 -9999.0 -9999.0 -9999.0 -9999.0 -9999.0 -9999.0 -9999.0 -9999.0 -9999.0 -9999.0 -9999.0 -9999.0 -9999.0 -9999.0 -9999.0 -9999.0 -9999.0 -9999.0 -9999.0 -9999.0 -9999.0 -9999.0 -9999.0 -9999.0 -9999.0 -9999.0 -9999.0 -9999.0 -9999.0 -9999.0 -9999.0 -9999.0 -9999.0 -9999.0 -9999.0 -9999.0 -9999.0 -9999.0 -9999.0 -9999.0 -9999.0 -9999.0 -9999.0 -9999.0 -9999.0 -9999.0 -9999.0 -9999.0 -9999.0 -9999.0 -9999.0 -9999.0 -9999.0 -9999.0 -9999.0 -9999.0 -9999.0 -9999.0 -9999.0 -9999.0 -9999.0 -9999.0 -9999.0 -9999.0 -9999.0 -9999.0 -9999.0 -9999.0 -9999.0 -9999.0 -9999.0 -9999.0 -9999.0 -9999.0 -9999.0 -9999.0 -9999.0 -9999.0 -9999.0 -9999.0 -9999.0 -9999.0 -9999.0 -9999.0 -9999.0 -9999.0 -9999.0 -9999.0 -9999.0 -9999.0 -9999.0 -9999.0 39.7 41.6 54.0 53.9 56.1 73.7 100.6 125.7 125.3 74.2 48.7 59.1 73.7 76.3 104.3 126.9 156.2 163.6 168.5 184.6 232.5 264.7 291.0 268.0 266.3 296.0 334.7 289.9 307.1 404.7 452.3 522.6 612.1 691.5 712.1 630.8 519.1 453.8 426.9 427.5 415.1 397.7 436.5 429.7 377.6 337.9 397.8 453.2 408.3 348.5 238.4 227.2 292.0 311.1 320.7 339.4 376.1 432.9 417.9 476.2 414.8 264.3 330.4 440.4 512.2 592.2 664.3 686.8 628.2 587.5
1416.9 1320.5 1172.4 1062.6 992.2 872.8 765.8 921.9 918.5 997.1 1095.5 1237.2 1291.5 1261.4 1359.8 1414.9 1440.1 1349.9 1237.1 1107.2 908.3 838.3 962.4 1080.9 1077.1 1221.2 1184.9 1103.6 1318.9 1361.0 1451.5 1591.3 1588.8 1400.4 1235.6 1247.7 1179.4 1030.1 876.9 826.6 814.4 736.6 873.7 1044.7 1183.3 1318.9 1401.3 1369.7 1352.1 1338.5 1228.1 1126.2 1095.9 1063.0 869.9 906.9 996.0 937.1 1136.8 1286.5 1352.2 1277.8 1196.2 1275.0 1282.4 1199.0 1088.6 999.9 904.0 968.1 1034.6 1099.8 1020.7 913.8 819.6 783.5 695.6 656.3 626.8 546.4 541.3 729.1 834.4 896.0 890.1 856.8 837.6 774.7 891.8 1019.8 1060.3 972.5 821.8 762.8 778.9 749.2 683.4 659.5 716.4 838.3 811.6 728.9 749.6 851.8 910.2 906.2 989.1 1110.3 1085.4 941.1 817.4 780.0 776.2 800.1 865.3 819.1 728.6 655.0 612.9 567.9 653.9 781.3 839.5 786.8 678.0 627.2 727.6 832.5 904.7 814.3 706.0 736.3 620.3 567.7 642.6 672.7 759.8 765.0 630.4 485.1 421.6 408.6 516.1 626.1 449.7 387.5 421.0 431.6 454.7 487.0 504.2 508.4 413.8 294.6 204.2 163.9 123.0 80.1 55.1 33.6 -9999.0 -9999.0 -9999.0 -9999.0 -9999.0 -9999.0 -9999.0 -9999.0 -9999.0 -9999.0 -9999.0 -9999.0 -9999.0 -9999.0 -9999.0 -9999.0 -9999.0 -9999.0 -9999.0 -9999.0 -9999.0 -9999.0 -9999.0 -9999.0 -9999.0 -9999.0 -9999.0 -9999.0 -9999.0 -9999.0 -9999.0 -9999.0 -9999.0 -9999.0 -9999.0 -9999.0 -9999.0 -9999.0 -9999.0 -9999.0 -9999.0 -9999.0 -9999.0 -9999.0 -9999.0 -9999.0 -9999.0 -9999.0 -9999.0 -9999.0 -9999.0 -9999.0 -9999.0 -9999.0 -9999.0 -9999.0 -9999.0 -9999.0 -9999.0 -9999.0 -9999.0 -9999.0 -9999.0 -9999.0 -9999.0 -9999.0 -9999.0 -9999.0 -9999.0 -9999.0 -9999.0 -9999.0 -9999.0 -9999.0 -9999.0 -9999.0 -9999.0 -9999.0 -9999.0 -9999.0 -9999.0 -9999.0 -9999.0 -9999.0 -9999.0 -9999.0 -9999.0 -9999.0 -9999.0 -9999.0 -9999.0 -9999.0 -9999.0 -9999.0 -9999.0 -9999.0 -9999.0 -9999.0 -9999.0 -9999.0 -9999.0 -9999.0 -9999.0 -9999.0 -9999.0 -9999.0 -9999.0 -9999.0 -9999.0 -9999.0 -9999.0 -9999.0 -9999.0 -9999.0 -9999.0 -9999.0 -9999.0 -9999.0 -9999.0 -9999.0 -9999.0 -9999.0 -9999.0 -9999.0 -9999.0 -9999.0 -9999.0 -9999.0 -9999.0 -9999.0 -9999.0 -9999.0 -9999.0 -9999.0 -9999.0 -9999.0 -9999.0 -9999.0 -9999.0 -9999.0 -9999.0 -9999.0 -9999.0 -9999.0 -9999.0 -9999.0 -9999.0 -9999.0 -9999.0 -9999.0 -9999.0 -9999.0 -9999.0 -9999.0 -9999.0 -9999.0 -9999.0 -9999.0 -9999.0 -9999.0 -9999.0 -9999.0 -9999.0 -9999.0 -9999.0 -9999.0 -9999.0 -9999.0 -9999.0 -9999.0 -9999.0 -9999.0 -9999.0 -9999.0 -9999.0 -9999.0 -9999.0 -9999.0 -9999.0 -9999.0 -9999.0 -9999.0 -9999.0 -9999.0 -9999.0 -9999.0 -9999.0 -9999.0 -9999.0 -9999.0 -9999.0 -9999.0 -9999.0 -9999.0 75.4 69.0 55.6 51.9 48.6 59.3 63.3 70.2 51.5 86.8 76.1 129.0 167.0 198.9 128.2 208.2 292.5 284.8 283.4 256.7 188.0 201.2 252.7 308.0 276.5 276.6 285.4 299.9 299.1 331.5 398.2 525.6 717.2 779.4 642.8 520.2 427.1 382.4 381.6 348.5 349.1 355.7 350.5 384.9 376.2 315.1 278.4 259.2 241.8 210.7 233.7 269.5 309.9 344.3 345.6 365.9 411.2 388.8 418.5 317.7 268.5 391.3 489.6 499.3 556.3 655.3 648.9 547.5 502.9
1368.8 1233.2 1164.0 1113.8 1059.6 911.1 794.6 891.3 1007.2 1073.2 1173.6 1278.7 1435.5 1483.5 1518.3 1499.6 1322.3 1147.7 1020.1 923.0 885.4 980.9 1092.0 1099.9 1213.4 1287.8 1200.4 1168.9 1321.6 1414.8 1548.7 1660.7 1636.7 1465.4 1399.6 1303.6 1182.0 994.8 971.4 939.9 819.5 845.9 779.7 902.7 1074.4 1226.8 1378.9 1477.7 1541.9 1508.4 1365.6 1220.2 1175.3 1030.9 892.5 1028.5 1077.3 972.4 1048.9 1163.1 1282.7 1391.3 1429.9 1452.7 1488.6 1311.4 1155.6 1054.6 1020.6 1172.2 1269.6 1197.1 1055.2 913.0 765.5 690.7 693.6 615.5 552.4 522.4 570.0 695.3 853.1 923.1 941.9 1033.7 1028.6 920.7 870.7 999.8 1080.3 909.4 798.8 752.6 709.8 724.0 694.8 649.6 725.6 799.9 857.5 810.7 732.6 760.1 865.1 938.5 968.3 1074.1 1050.0 898.8 815.8 896.2 848.9 815.1 922.1 922.6 801.9 720.7 645.5 611.1 688.6 821.7 857.1 714.9 803.0 732.1 638.9 737.5 854.6 927.4 842.2 849.2 725.9 637.5 737.0 854.2 904.3 822.1 683.2 549.7 493.8 448.5 557.0 685.4 609.5 548.3 586.0 562.5 512.0 421.6 338.3 275.5 230.1 191.6 131.4 81.4 58.5 41.4 35.8 61.2 -9999.0 -9999.0 -9999.0 -9999.0 -9999.0 -9999.0 -9999.0 -9999.0 -9999.0 -9999.0 -9999.0 -9999.0 -9999.0 -9999.0 -9999.0 -9999.0 -9999.0 -9999.0 -9999.0 -9999.0 -9999.0 -9999.0 -9999.0 -9999.0 -9999.0 -9999.0 -9999.0 -9999.0 -9999.0 -9999.0 -9999.0 -9999.0 -9999.0 -9999.0 -9999.0 -9999.0 -9999.0 -9999.0 -9999.0 -9999.0 -9999.0 -9999.0 -9999.0 -9999.0 -9999.0 -9999.0 -9999.0 -9999.0 -9999.0 -9999.0 -9999.0 -9999.0 -9999.0 -9999.0 -9999.0 -9999.0 -9999.0 -9999.0 -9999.0 -9999.0 -9999.0 -9999.0 -9999.0 -9999.0 -9999.0 -9999.0 -9999.0 -9999.0 -9999.0 -9999.0 -9999.0 -9999.0 -9999.0 -9999.0 -9999.0 -9999.0 -9999.0 -9999.0 -9999.0 -9999.0 -9999.0 -9999.0 -9999.0 -9999.0 -9999.0 -9999.0 -9999.0 -9999.0 -9999.0 -9999.0 -9999.0 -9999.0 -9999.0 -9999.0 -9999.0 -9999.0 -9999.0 -9999.0 -9999.0 -9999.0 -9999.0 -9999.0 -9999.0 -9999.0 -9999.0 -9999.0 -9999.0 -9999.0 -9999.0 -9999.0 -9999.0 -9999.0 -9999.0 -9999.0 -9999.0 -9999.0 -9999.0 -9999.0 -9999.0 -9999.0 -9999.0 -9999.0 -9999.0 -9999.0 -9999.0 -9999.0 -9999.0 -9999.0 -9999.0 -9999.0 -9999.0 -9999.0 -9999.0 -9999.0 -9999.0 -9999.0 -9999.0 -9999.0 -9999.0 -9999.0 -9999.0 -9999.0 -9999.0 -9999.0 -9999.0 -9999.0 -9999.0 -9999.0 -9999.0 -9999.0 -9999.0 -9999.0 -9999.0 -9999.0 -9999.0 -9999.0 -9999.0 -9999.0 -9999.0 -9999.0 -9999.0 -9999.0 -9999.0 -9999.0 -9999.0 -9999.0 -9999.0 -9999.0 -9999.0 -9999.0 -9999.0 -9999.0 -9999.0 -9999.0 -9999.0 -9999.0 -9999.0 -9999.0 -9999.0 -9999.0 -9999.0 -9999.0 -9999.0 -9999.0 -9999.0 -9999.0 -9999.0 -9999.0 -9999.0 -9999.0 -9999.0 -9999.0 -9999.0 -9999.0 -9999.0 -9999.0 -9999.0 -9999.0 55.1 55.8 81.5 134.8 124.8 111.0 149.8 129.4 237.7 305.7 207.7 144.6 195.5 291.5 382.9 361.5 301.0 271.3 332.7 437.1 413.1 386.9 362.4 411.0 401.2 411.4 428.3 557.9 698.4 830.7 673.1 497.3 435.4 427.6 388.0 387.0 373.3 373.0 363.1 347.2 314.6 290.6 342.5 401.5 414.1 370.5 291.5 200.1 270.7 366.1 347.6 372.1 404.6 349.1 372.6 259.3 262.9 399.8 448.1 515.5 555.6 591.8 596.5 514.0 425.8
1335.8 1235.5 1119.5 983.2 930.0 894.2 825.2 848.3 964.3 1050.2 1208.9 1361.6 1490.2 1649.2 1705.5 1503.3 1239.6 998.9 1005.3 1039.0 1109.5 1135.3 1262.7 1234.8 1343.9 1399.3 1230.9 1238.3 1350.1 1406.4 1496.8 1621.7 1702.8 1581.6 1404.8 1272.6 1192.9 1149.5 1036.7 927.2 913.5 1007.1 863.7 826.7 998.2 1120.0 1228.7 1360.1 1528.7 1573.6 1415.7 1232.1 1072.3 932.0 1008.7 1127.5 1121.1 1065.9 1121.3 1142.2 1162.5 1310.7 1528.8 1667.9 1634.4 1459.3 1319.2 1143.6 1197.5 1336.7 1365.2 1214.3 1054.1 909.5 789.2 697.2 653.4 574.3 533.5 552.1 644.5 766.8 914.4 1011.5 1009.6 1101.5 1127.5 1047.9 1020.4 993.6 952.9 872.6 778.9 730.7 724.8 823.0 713.1 650.1 688.5 773.1 846.2 831.7 800.2 844.7 829.4 845.6 970.0 1118.0 1137.1 974.9 885.4 1000.2 942.4 900.8 980.3 992.8 879.4 739.2 654.6 737.2 760.0 786.1 805.8 738.1 840.3 798.1 695.5 698.5 802.8 915.6 964.7 940.3 882.7 794.5 800.5 825.5 828.3 833.2 772.7 681.8 557.6 523.9 533.6 695.0 734.0 596.1 515.5 488.9 406.8 299.7 232.7 181.5 133.9 87.8 85.8 57.6 81.6 87.4 56.3 97.4 102.6 -9999.0 -9999.0 -9999.0 -9999.0 -9999.0 -9999.0 -9999.0 -9999.0 -9999.0 -9999.0 -9999.0 -9999.0 -9999.0 -9999.0 -9999.0 -9999.0 -9999.0 -9999.0 -9999.0 -9999.0 -9999.0 -9999.0 -9999.0 -9999.0 -9999.0 -9999.0 -9999.0 -9999.0 -9999.0 -9999.0 -9999.0 -9999.0 -9999.0 -9999.0 -9999.0 -9999.0 -9999.0 -9999.0 -9999.0 -9999.0 -9999.0 -9999.0 -9999.0 -9999.0 -9999.0 -9999.0 -9999.0 -9999.0 -9999.0 -9999.0 -9999.0 -9999.0 -9999.0 -9999.0 -9999.0 -9999.0 -9999.0 -9999.0 -9999.0 -9999.0 -9999.0 -9999.0 -9999.0 -9999.0 -9999.0 -9999.0 -9999.0 -9999.0 -9999.0 -9999.0 -9999.0 -9999.0 -9999.0 -9999.0 -9999.0 -9999.0 -9999.0 -9999.0 -9999.0 -9999.0 -9999.0 -9999.0 -9999.0 -9999.0 -9999.0 -9999.0 -9999.0 -9999.0 -9999.0 -9999.0 -9999.0 -9999.0 -9999.0 -9999.0 -9999.0 -9999.0 -9999.0 -9999.0 -9999.0 -9999.0 -9999.0 -9999.0 -9999.0 -9999.0 -9999.0 -9999.0 -9999.0 -9999.0 -9999.0 -9999.0 -9999.0 -9999.0 -9999.0 -9999.0 -9999.0 -9999.0 -9999.0 -9999.0 -9999.0 -9999.0 -9999.0 -9999.0 -9999.0 -9999.0 -9999.0 -9999.0 -9999.0 -9999.0 -9999.0 -9999.0 -9999.0 -9999.0 -9999.0 -9999.0 -9999.0 -9999.0 -9999.0 -9999.0 -9999.0 -9999.0 -9999.0 -9999.0 -9999.0 -9999.0 -9999.0 -9999.0 -9999.0 -9999.0 -9999.0 -9999.0 -9999.0 -9999.0 -9999.0 -9999.0 -9999.0 -9999.0 -9999.0 -9999.0 -9999.0 -9999.0 -9999.0 -9999.0 -9999.0 -9999.0 -9999.0 -9999.0 -9999.0 -9999.0 -9999.0 -9999.0 -9999.0 -9999.0 -9999.0 -9999.0 -9999.0 -9999.0 -9999.0 -9999.0 -9999.0 -9999.0 -9999.0 -9999.0 -9999.0 -9999.0 -9999.0 -9999.0 -9999.0 -9999.0 -9999.0 -9999.0 -9999.0 -9999.0 -9999.0 -9999.0 -9999.0 -9999.0 -9999.0 -9999.0 -9999.0 73.1 114.0 182.6 242.7 281.7 208.3 251.6 298.1 227.6 270.2 268.9 297.3 377.6 428.5 409.8 394.2 406.3 469.0 500.0 428.6 441.3 474.5 517.9 574.7 552.8 593.6 750.7 793.3 658.9 569.3 568.8 462.9 450.0 446.6 464.0 480.5 453.8 402.2 361.0 397.9 344.4 371.7 391.6 417.5 329.4 217.2 247.5 290.3 328.5 400.6 357.3 342.3 312.7 210.6 259.4 339.8 346.2 429.8 483.5 570.6 549.6 444.6 358.5
1233.7 1163.8 1073.5 1035.9 1046.6 955.8 836.0 854.0 1065.5 1172.9 1214.3 1316.4 1450.7 1659.5 1707.3 1460.8 1230.9 1036.2 1230.4 1328.7 1325.3 1343.2 1461.4 1432.7 1433.3 1368.4 1226.0 1254.2 1379.4 1496.8 1559.6 1640.2 1658.0 1547.5 1444.3 1332.6 1270.4 1163.0 1004.8 1017.4 1147.1 1135.3 957.9 795.6 892.1 990.9 1130.0 1258.7 1420.4 1492.5 1347.4 1189.4 1053.5 942.0 1134.2 1271.1 1273.9 1260.4 1232.5 1298.0 1297.1 1283.6 1448.2 1672.6 1690.9 1548.3 1370.0 1328.0 1347.4 1454.1 1392.1 1240.4 1104.2 992.8 911.0 816.0 712.7 579.5 536.9 660.0 705.8 753.1 877.3 964.0 1014.6 1130.3 1165.7 1035.2 872.5 819.6 803.5 777.4 757.0 733.7 772.2 806.7 699.3 690.9 751.3 827.0 926.0 845.2 848.0 942.2 932.7 896.1 948.6 1065.0 1157.6 1076.0 977.2 1098.2 1160.8 1102.4 1056.3 908.7 812.5 707.0 703.1 807.6 871.2 814.4 764.2 833.0 925.1 874.3 745.2 775.8 864.3 953.2 923.9 827.7 799.2 811.0 837.9 745.0 617.7 686.9 703.2 620.2 612.9 608.2 634.6 697.6 673.0 492.6 354.4 328.5 322.2 224.6 190.3 123.6 101.3 114.7 88.5 168.5 196.3 156.6 98.2 146.0 192.9 -9999.0 -9999.0 -9999.0 -9999.0 -9999.0 -9999.0 -9999.0 -9999.0 -9999.0 -9999.0 -9999.0 -9999.0 -9999.0 -9999.0 -9999.0 -9999.0 -9999.0 -9999.0 -9999.0 -9999.0 -9999.0 -9999.0 -9999.0 -9999.0 -9999.0 -9999.0 -9999.0 -9999.0 -9999.0 -9999.0 -9999.0 -9999.0 -9999.0 -9999.0 -9999.0 -9999.0 -9999.0 -9999.0 -9999.0 -9999.0 -9999.0 -9999.0 -9999.0 -9999.0 -9999.0 -9999.0 -9999.0 -9999.0 -9999.0 -9999.0 -9999.0 -9999.0 -9999.0 -9999.0 -9999.0 -9999.0 -9999.0 -9999.0 -9999.0 -9999.0 -9999.0 -9999.0 -9999.0 -9999.0 -9999.0 -9999.0 -9999.0 -9999.0 -9999.0 -9999.0 -9999.0 -9999.0 -9999.0 -9999.0 -9999.0 -9999.0 -9999.0 -9999.0 -9999.0 -9999.0 -9999.0 -9999.0 -9999.0 -9999.0 -9999.0 -9999.0 -9999.0 -9999.0 -9999.0 -9999.0 -9999.0 -9999.0 -9999.0 -9999.0 -9999.0 -9999.0 -9999.0 -9999.0 -9999.0 -9999.0 -9999.0 -9999.0 -9999.0 -9999.0 -9999.0 -9999.0 -9999.0 -9999.0 -9999.0 -9999.0 -9999.0 -9999.0 -9999.0 -9999.0 -9999.0 -9999.0 -9999.0 -9999.0 -9999.0 -9999.0 -9999.0 -9999.0 -9999.0 -9999.0 -9999.0 -9999.0 -9999.0 -9999.0 -9999.0 -9999.0 -9999.0 -9999.0 -9999.0 -9999.0 -9999.0 -9999.0 -9999.0 -9999.0 -9999.0 -9999.0 -9999.0 -9999.0 -9999.0 -9999.0 -9999.0 -9999.0 -9999.0 -9999.0 -9999.0 -9999.0 -9999.0 -9999.0 -9999.0 -9999.0 -9999.0 -9999.0 -9999.0 -9999.0 -9999.0 -9999.0 -9999.0 -9999.0 -9999.0 -9999.0 -9999.0 -9999.0 -9999.0 -9999.0 -9999.0 -9999.0 -9999.0 -9999.0 -9999.0 -9999.0 -9999.0 -9999.0 -9999.0 -9999.0 -9999.0 -9999.0 -9999.0 -9999.0 -9999.0 -9999.0 -9999.0 -9999.0 -9999.0 -9999.0 -9999.0 -9999.0 -9999.0 -9999.0 -9999.0 -9999.0 -9999.0 -9999.0 -9999.0 -9999.0 -9999.0 -9999.0 136.2 205.2 291.0 432.5 401.6 382.2 314.8 277.1 259.9 223.5 223.7 292.1 272.0 322.6 348.2 361.8 442.2 547.2 550.5 556.5 573.6 577.1 642.9 696.2 700.8 770.3 797.9 717.6 703.6 626.1 558.6 552.6 527.7 535.6 507.3 416.8 382.6 388.1 408.6 353.2 354.6 311.0 300.2 276.2 253.8 217.5 182.8 285.3 306.5 287.2 334.1 245.7 218.0 251.1 289.7 262.0 345.5 464.4 526.5 457.0 392.3 340.3
1427.9 1390.6 1249.6 1087.5 1018.4 951.8 846.3 898.9 1056.8 1181.6 1318.5 1447.9 1574.6 1739.9 1775.2 1580.6 1345.8 1120.6 1249.3 1526.2 1582.1 1600.0 1659.6 1536.1 1387.9 1312.5 1405.9 1473.2 1375.9 1412.1 1544.0 1651.7 1654.4 1523.2 1397.3 1309.1 1237.9 1151.3 1154.0 1242.3 1268.5 1161.2 952.2 838.1 976.5 1024.7 1071.0 1184.7 1332.2 1440.9 1273.0 1161.4 1039.3 959.6 1148.6 1339.5 1389.2 1386.4 1374.2 1323.2 1431.4 1466.8 1542.9 1703.2 1681.2 1584.2 1461.7 1512.2 1552.1 1490.5 1322.1 1170.5 1040.6 916.0 865.2 818.6 722.8 596.5 555.0 647.4 716.3 773.1 798.4 819.6 889.7 1047.4 1034.5 891.9 843.8 881.0 859.4 850.7 808.3 790.6 812.4 756.4 691.6 701.5 798.4 871.6 966.7 897.1 944.4 959.7 969.6 1031.8 1055.8 1095.3 1165.1 1184.9 1137.2 1158.3 1307.7 1266.2 1075.9 916.8 818.0 732.2 749.1 881.8 934.6 878.8 831.8 915.4 1010.3 949.7 857.5 891.2 956.1 981.0 839.7 702.3 620.1 603.4 659.7 631.5 490.4 532.4 556.3 438.7 501.3 562.5 540.3 556.5 601.5 534.8 383.2 250.5 206.1 161.0 136.2 172.8 202.6 233.5 185.0 268.1 281.1 195.6 190.0 262.5 286.8 -9999.0 -9999.0 -9999.0 -9999.0 -9999.0 -9999.0 -9999.0 -9999.0 -9999.0 -9999.0 -9999.0 -9999.0 -9999.0 -9999.0 -9999.0 -9999.0 -9999.0 -9999.0 -9999.0 -9999.0 -9999.0 -9999.0 -9999.0 -9999.0 -9999.0 -9999.0 -9999.0 -9999.0 -9999.0 -9999.0 -9999.0 -9999.0 -9999.0 -9999.0 -9999.0 -9999.0 -9999.0 -9999.0 -9999.0 -9999.0 -9999.0 -9999.0 -9999.0 -9999.0 -9999.0 -9999.0 -9999.0 -9999.0 -9999.0 -9999.0 -9999.0 -9999.0 -9999.0 -9999.0 -9999.0 -9999.0 -9999.0 -9999.0 -9999.0 -9999.0 -9999.0 -9999.0 -9999.0 -9999.0 -9999.0 -9999.0 -9999.0 -9999.0 -9999.0 -9999.0 -9999.0 -9999.0 -9999.0 -9999.0 -9999.0 -9999.0 -9999.0 -9999.0 -9999.0 -9999.0 -9999.0 -9999.0 -9999.0 -9999.0 -9999.0 -9999.0 -9999.0 -9999.0 -9999.0 -9999.0 -9999.0 -9999.0 -9999.0 -9999.0 -9999.0 -9999.0 -9999.0 -9999.0 -9999.0 -9999.0 -9999.0 -9999.0 -9999.0 -9999.0 -9999.0 -9999.0 -9999.0 -9999.0 -9999.0 -9999.0 -9999.0 -9999.0 -9999.0 -9999.0 -9999.0 -9999.0 -9999.0 -9999.0 -9999.0 -9999.0 -9999.0 -9999.0 -9999.0 -9999.0 -9999.0 -9999.0 -9999.0 -9999.0 -9999.0 -9999.0 -9999.0 -9999.0 -9999.0 -9999.0 -9999.0 -9999.0 -9999.0 -9999.0 -9999.0 -9999.0 -9999.0 -9999.0 -9999.0 -9999.0 -9999.0 -9999.0 -9999.0 -9999.0 -9999.0 -9999.0 -9999.0 -9999.0 -9999.0 -9999.0 -9999.0 -9999.0 -9999.0 -9999.0 -9999.0 -9999.0 -9999.0 -9999.0 -9999.0 -9999.0 -9999.0 -9999.0 -9999.0 -9999.0 -9999.0 -9999.0 -9999.0 -9999.0 -9999.0 -9999.0 -9999.0 -9999.0 -9999.0 -9999.0 -9999.0 -9999.0 -9999.0 -9999.0 -9999.0 -9999.0 -9999.0 -9999.0 -9999.0 -9999.0 -9999.0 -9999.0 -9999.0 -9999.0 -9999.0 -9999.0 -9999.0 -9999.0 -9999.0 -9999.0 -9999.0 -9999.0 -9999.0 245.7 312.2 389.3 440.6 359.1 233.7 167.2 170.2 93.3 144.6 243.4 156.6 199.5 202.4 270.5 387.6 572.1 533.7 410.9 426.2 436.1 509.4 524.2 568.2 656.6 707.8 725.4 695.6 677.3 652.8 571.6 517.6 539.4 546.3 481.0 465.9 488.8 433.4 401.4 411.4 420.6 387.0 339.0 235.7 155.8 190.8 168.3 174.4 267.1 238.7 206.8 295.1 308.2 313.7 264.5 246.9 320.1 385.6 300.5 254.7 284.4
1553.2 1379.9 1184.1 1135.9 1060.2 915.1 868.2 1018.8 1083.1 1137.7 1230.4 1380.5 1542.2 1733.2 1849.2 1663.5 1426.0 1191.9 1285.1 1539.8 1725.1 1778.3 1704.1 1522.4 1405.3 1445.6 1527.3 1595.4 1532.3 1488.9 1577.6 1637.5 1764.6 1703.4 1559.5 1406.4 1377.3 1458.0 1405.4 1325.2 1136.7 993.3 881.2 988.1 1127.1 1199.2 1127.0 1245.3 1386.7 1458.0 1325.9 1238.1 1130.7 980.2 1073.3 1232.3 1348.5 1445.6 1491.4 1465.2 1482.6 1612.2 1721.9 1724.3 1632.7 1566.4 1523.9 1505.9 1534.9 1407.1 1257.3 1096.1 952.1 836.5 754.7 724.9 671.6 590.7 539.8 606.0 648.6 656.3 726.9 821.9 917.5 1053.4 1008.5 872.3 966.8 1073.9 1067.3 979.1 866.1 794.2 763.2 705.1 646.6 669.6 751.4 843.1 960.6 1014.4 1044.1 1063.4 1050.4 1032.4 1020.4 1029.1 1050.5 1122.4 1208.9 1267.9 1335.0 1338.4 1210.2 1096.6 951.6 846.3 910.7 977.0 985.7 919.7 931.5 923.6 842.3 854.7 891.7 936.0 973.4 878.1 862.1 743.9 588.3 451.2 476.1 509.9 401.7 463.4 511.1 400.1 405.5 500.4 389.1 387.2 486.0 522.8 405.2 262.3 267.9 255.5 283.9 338.1 371.0 380.4 317.9 291.5 354.4 331.1 278.7 256.0 223.8 -9999.0 -9999.0 -9999.0 -9999.0 -9999.0 -9999.0 -9999.0 -9999.0 -9999.0 -9999.0 -9999.0 -9999.0 -9999.0 -9999.0 -9999.0 -9999.0 -9999.0 -9999.0 -9999.0 -9999.0 -9999.0 -9999.0 -9999.0 -9999.0 -9999.0 -9999.0 -9999.0 -9999.0 -9999.0 -9999.0 -9999.0 -9999.0 -9999.0 -9999.0 -9999.0 -9999.0 -9999.0 -9999.0 -9999.0 -9999.0 -9999.0 -9999.0 -9999.0 -9999.0 -9999.0 -9999.0 -9999.0 -9999.0 -9999.0 -9999.0 -9999.0 -9999.0 -9999.0 -9999.0 -9999.0 -9999.0 -9999.0 -9999.0 -9999.0 -9999.0 -9999.0 -9999.0 -9999.0 -9999.0 -9999.0 -9999.0 -9999.0 -9999.0 -9999.0 -9999.0 -9999.0 -9999.0 -9999.0 -9999.0 -9999.0 -9999.0 -9999.0 -9999.0 -9999.0 -9999.0 -9999.0 -9999.0 -9999.0 -9999.0 -9999.0 -9999.0 -9999.0 -9999.0 -9999.0 -9999.0 -9999.0 -9999.0 -9999.0 -9999.0 -9999.0 -9999.0 -9999.0 -9999.0 -9999.0 -9999.0 -9999.0 -9999.0 -9999.0 -9999.0 -9999.0 -9999.0 -9999.0 -9999.0 -9999.0 -9999.0 -9999.0 -9999.0 -9999.0 -9999.0 -9999.0 -9999.0 -9999.0 -9999.0 -9999.0 -9999.0 -9999.0 -9999.0 -9999.0 -9999.0 -9999.0 -9999.0 -9999.0 -9999.0 -9999.0 -9999.0 -9999.0 -9999.0 -9999.0 -9999.0 -9999.0 -9999.0 -9999.0 -9999.0 -9999.0 -9999.0 -9999.0 -9999.0 -9999.0 -9999.0 -9999.0 -9999.0 -9999.0 -9999.0 -9999.0 -9999.0 -9999.0 -9999.0 -9999.0 -9999.0 -9999.0 -9999.0 -9999.0 -9999.0 -9999.0 -9999.0 -9999.0 -9999.0 -9999.0 -9999.0 -9999.0 -9999.0 -9999.0 -9999.0 -9999.0 -9999.0 -9999.0 -9999.0 -9999.0 -9999.0 -9999.0 -9999.0 -9999.0 -9999.0 -9999.0 -9999.0 -9999.0 -9999.0 -9999.0 -9999.0 -9999.0 -9999.0 -9999.0 -9999.0 -9999.0 -9999.0 -9999.0 -9999.0 -9999.0 -9999.0 -9999.0 -9999.0 -9999.0 -9999.0 -9999.0 -9999.0 -9999.0 -9999.0 -9999.0 -9999.0 -9999.0 339.5 -9999.0 -9999.0 -9999.0 -9999.0 -9999.0 135.8 95.7 146.2 217.8 289.6 414.8 536.4 438.9 303.5 299.9 392.4 457.7 372.0 475.2 448.4 516.6 615.9 583.2 519.0 469.6 467.0 414.2 402.1 495.9 451.6 390.6 395.0 400.0 357.1 323.0 292.7 304.0 306.3 263.6 206.0 198.8 188.2 168.7 198.6 163.8 156.0 183.4 234.6 252.6 251.6 196.6 251.3 285.0 206.9 231.1 271.9
1420.1 1306.5 1236.4 1089.0 1005.2 969.0 890.8 972.0 1036.1 1164.8 1266.1 1339.3 1472.9 1617.1 1772.7 1685.9 1445.9 1264.9 1421.0 1659.1 1837.6 1890.0 1793.0 1596.0 1593.2 1585.2 1692.1 1757.5 1675.7 1625.8 1679.7 1671.3 1761.9 1740.1 1624.3 1615.5 1606.2 1509.1 1374.2 1203.6 1038.5 901.9 927.0 1037.1 1199.4 1341.9 1299.7 1270.8 1414.4 1453.2 1303.3 1187.7 1093.3 986.6 1000.0 1122.7 1231.9 1310.4 1364.2 1420.6 1425.6 1528.5 1675.5 1769.3 1756.7 1678.8 1573.3 1451.6 1366.3 1306.8 1257.3 1145.0 1035.8 940.1 833.5 713.5 595.9 548.3 580.6 698.3 778.3 693.3 755.5 875.4 948.6 1042.2 951.5 956.2 1054.4 1141.2 1028.1 910.4 835.0 734.5 718.4 681.6 648.0 672.4 728.1 809.5 883.4 911.6 943.8 929.9 921.3 909.5 880.4 841.1 923.9 982.8 1067.9 1202.3 1226.8 1269.7 1238.4 1150.6 1033.4 967.6 969.2 895.7 846.6 788.0 785.1 777.8 678.5 646.6 728.0 831.3 859.8 748.1 753.8 757.1 657.2 517.4 446.2 361.5 345.9 462.4 525.0 466.5 369.5 344.3 305.1 268.5 369.1 463.6 465.7 413.6 428.5 447.5 390.4 344.2 281.3 278.1 271.2 168.3 221.5 340.4 -9999.0 -9999.0 -9999.0 -9999.0 -9999.0 -9999.0 -9999.0 -9999.0 -9999.0 -9999.0 -9999.0 -9999.0 -9999.0 -9999.0 -9999.0 -9999.0 -9999.0 -9999.0 -9999.0 -9999.0 -9999.0 -9999.0 -9999.0 -9999.0 -9999.0 -9999.0 -9999.0 -9999.0 -9999.0 -9999.0 -9999.0 -9999.0 -9999.0 -9999.0 -9999.0 -9999.0 -9999.0 -9999.0 -9999.0 -9999.0 -9999.0 -9999.0 -9999.0 -9999.0 -9999.0 -9999.0 -9999.0 -9999.0 -9999.0 -9999.0 -9999.0 -9999.0 -9999.0 -9999.0 -9999.0 -9999.0 -9999.0 -9999.0 -9999.0 -9999.0 -9999.0 -9999.0 -9999.0 -9999.0 -9999.0 -9999.0 -9999.0 -9999.0 -9999.0 -9999.0 -9999.0 -9999.0 -9999.0 -9999.0 -9999.0 -9999.0 -9999.0 -9999.0 -9999.0 -9999.0 -9999.0 -9999.0 -9999.0 -9999.0 -9999.0 -9999.0 -9999.0 -9999.0 -9999.0 -9999.0 -9999.0 -9999.0 -9999.0 -9999.0 -9999.0 -9999.0 -9999.0 -9999.0 -9999.0 -9999.0 -9999.0 -9999.0 -9999.0 -9999.0 -9999.0 -9999.0 -9999.0 -9999.0 -9999.0 -9999.0 -9999.0 -9999.0 -9999.0 -9999.0 -9999.0 -9999.0 -9999.0 -9999.0 -9999.0 -9999.0 -9999.0 -9999.0 -9999.0 -9999.0 -9999.0 -9999.0 -9999.0 -9999.0 -9999.0 -9999.0 -9999.0 -9999.0 -9999.0 -9999.0 -9999.0 -9999.0 -9999.0 -9999.0 -9999.0 -9999.0 -9999.0 -9999.0 -9999.0 -9999.0 -9999.0 -9999.0 -9999.0 -9999.0 -9999.0 -9999.0 -9999.0 -9999.0 -9999.0 -9999.0 -9999.0 -9999.0 -9999.0 -9999.0 -9999.0 -9999.0 -9999.0 -9999.0 -9999.0 -9999.0 -9999.0 -9999.0 -9999.0 -9999.0 -9999.0 -9999.0 -9999.0 -9999.0 -9999.0 -9999.0 -9999.0 -9999.0 -9999.0 -9999.0 -9999.0 -9999.0 -9999.0 -9999.0 -9999.0 -9999.0 -9999.0 -9999.0 -9999.0 -9999.0 -9999.0 -9999.0 -9999.0 -9999.0 -9999.0 -9999.0 -9999.0 -9999.0 -9999.0 -9999.0 -9999.0 -9999.0 -9999.0 -9999.0 -9999.0 -9999.0 -9999.0 -9999.0 -9999.0 -9999.0 -9999.0 -9999.0 -9999.0 -9999.0 -9999.0 -9999.0 -9999.0 118.1 171.9 257.4 365.3 443.9 351.3 273.7 193.5 271.0 338.0 361.3 260.9 303.9 342.5 463.7 589.6 567.4 445.4 375.8 367.7 359.5 333.5 425.4 408.1 335.0 287.8 283.4 244.9 235.7 221.2 195.5 184.9 187.6 249.5 259.5 261.5 278.4 297.1 194.4 176.6 214.0 160.9 191.2 152.6 150.6 181.4 172.6 205.0 309.1 385.9
1464.6 1305.8 1178.6 1140.4 1184.8 1043.1 926.3 1054.8 1175.7 1228.4 1288.1 1344.1 1433.7 1566.5 1730.2 1742.8 1489.8 1351.8 1613.6 1877.9 2009.5 2004.7 1850.2 1761.0 1808.3 1776.1 1805.6 1881.8 1834.0 1844.8 1831.4 1832.1 1763.9 1707.2 1741.1 1669.2 1578.7 1380.6 1246.1 1126.7 993.6 887.1 1040.9 1068.4 1097.2 1231.7 1375.7 1423.6 1513.1 1523.6 1367.7 1231.7 1111.3 1107.8 1004.8 1030.7 1090.3 1149.5 1211.6 1254.9 1358.9 1477.9 1585.2 1741.2 1832.1 1707.0 1521.5 1351.5 1201.4 1083.9 1065.8 1010.6 922.5 902.7 841.4 688.2 576.9 601.1 698.4 798.1 884.1 799.8 777.0 803.4 905.7 1001.3 1039.4 1131.0 1218.1 1184.6 1075.4 960.8 838.5 745.4 792.9 749.6 674.7 674.6 699.3 714.0 732.0 741.6 763.0 770.5 768.4 799.7 831.2 905.7 871.5 950.9 956.2 1019.6 1063.5 1134.0 1097.2 1083.3 1026.5 910.7 775.9 614.4 634.0 627.3 613.7 635.7 581.7 492.4 598.5 693.1 717.6 616.5 601.1 574.4 637.8 543.7 428.3 324.8 328.3 380.1 410.4 427.7 404.4 359.4 304.6 235.8 286.3 376.2 430.4 467.3 382.0 309.4 250.2 169.3 149.8 101.9 118.7 123.9 122.7 -9999.0 -9999.0 -9999.0 -9999.0 -9999.0 -9999.0 -9999.0 -9999.0 -9999.0 -9999.0 -9999.0 -9999.0 -9999.0 -9999.0 -9999.0 -9999.0 -9999.0 -9999.0 -9999.0 -9999.0 -9999.0 -9999.0 -9999.0 -9999.0 -9999.0 -9999.0 -9999.0 -9999.0 -9999.0 -9999.0 -9999.0 -9999.0 -9999.0 -9999.0 -9999.0 -9999.0 -9999.0 -9999.0 -9999.0 -9999.0 -9999.0 -9999.0 -9999.0 -9999.0 -9999.0 -9999.0 -9999.0 -9999.0 -9999.0 -9999.0 -9999.0 -9999.0 -9999.0 -9999.0 -9999.0 -9999.0 -9999.0 -9999.0 -9999.0 -9999.0 -9999.0 -9999.0 -9999.0 -9999.0 -9999.0 -9999.0 -9999.0 -9999.0 -9999.0 -9999.0 -9999.0 -9999.0 -9999.0 -9999.0 -9999.0 -9999.0 -9999.0 -9999.0 -9999.0 -9999.0 -9999.0 -9999.0 -9999.0 -9999.0 -9999.0 -9999.0 -9999.0 -9999.0 -9999.0 -9999.0 -9999.0 -9999.0 -9999.0 -9999.0 -9999.0 -9999.0 -9999.0 -9999.0 -9999.0 -9999.0 -9999.0 -9999.0 -9999.0 -9999.0 -9999.0 -9999.0 -9999.0 -9999.0 -9999.0 -9999.0 -9999.0 -9999.0 -9999.0 -9999.0 -9999.0 -9999.0 -9999.0 -9999.0 -9999.0 -9999.0 -9999.0 -9999.0 -9999.0 -9999.0 -9999.0 -9999.0 -9999.0 -9999.0 -9999.0 -9999.0 -9999.0 -9999.0 -9999.0 -9999.0 -9999.0 -9999.0 -9999.0 -9999.0 -9999.0 -9999.0 -9999.0 -9999.0 -9999.0 -9999.0 -9999.0 -9999.0 -9999.0 -9999.0 -9999.0 -9999.0 -9999.0 -9999.0 -9999.0 -9999.0 -9999.0 -9999.0 -9999.0 -9999.0 -9999.0 -9999.0 -9999.0 -9999.0 -9999.0 -9999.0 -9999.0 -9999.0 -9999.0 -9999.0 -9999.0 -9999.0 -9999.0 -9999.0 -9999.0 -9999.0 -9999.0 -9999.0 -9999.0 -9999.0 -9999.0 -9999.0 -9999.0 -9999.0 -9999.0 -9999.0 -9999.0 -9999.0 -9999.0 -9999.0 -9999.0 -9999.0 -9999.0 -9999.0 -9999.0 -9999.0 -9999.0 -9999.0 -9999.0 -9999.0 -9999.0 -9999.0 -9999.0 -9999.0 -9999.0 -9999.0 -9999.0 -9999.0 -9999.0 -9999.0 -9999.0 -9999.0 -9999.0 -9999.0 -9999.0 -9999.0 -9999.0 -9999.0 204.1 261.5 341.9 449.0 402.8 254.8 188.1 145.5 224.6 300.6 213.0 213.6 271.4 367.6 485.9 534.0 579.4 530.2 452.4 399.4 393.0 326.8 325.2 366.3 301.9 248.4 222.9 201.2 290.7 312.1 289.0 284.7 274.1 316.7 312.0 295.6 316.5 360.5 336.5 326.0 272.3 158.7 127.5 118.4 128.4 112.9 129.2 201.4 275.3 317.9
1513.4 1449.2 1420.5 1389.8 1270.4 1079.9 952.3 1115.9 1228.2 1330.2 1444.8 1532.8 1621.6 1727.2 1838.1 1810.0 1573.1 1379.6 1638.8 1935.7 2034.6 2012.9 1958.5 2023.6 2075.7 1952.0 1942.4 1922.8 1896.2 1880.1 1854.6 1704.6 1520.0 1455.5 1475.3 1498.9 1492.8 1461.0 1371.5 1206.7 1019.2 952.3 1150.8 1249.1 1221.0 1217.0 1272.4 1377.2 1559.3 1508.5 1372.4 1197.5 1202.5 1114.0 1049.3 1148.8 1123.2 1097.3 1110.0 1209.4 1293.8 1393.6 1541.1 1720.3 1759.6 1659.2 1528.9 1348.2 1166.8 1052.5 978.8 909.0 873.8 809.3 767.5 699.5 574.1 602.3 764.6 888.1 996.4 964.3 919.9 864.0 984.2 1065.0 1194.9 1279.8 1254.2 1129.2 974.2 899.9 818.0 757.5 787.8 736.5 696.0 666.1 720.3 764.3 802.0 845.4 819.3 863.2 809.0 891.2 947.7 947.9 904.0 1044.6 1057.9 1067.4 1082.9 975.8 864.1 848.6 936.1 794.4 631.8 546.5 479.9 469.1 435.7 497.0 466.5 419.0 498.6 543.5 513.8 499.2 445.7 414.0 497.0 543.3 477.8 370.2 262.3 251.0 304.4 280.2 351.4 369.5 290.8 211.7 286.4 328.0 337.7 295.2 312.6 222.9 189.8 153.3 150.8 112.8 46.0 -9999.0 -9999.0 -9999.0 -9999.0 -9999.0 -9999.0 -9999.0 -9999.0 -9999.0 -9999.0 -9999.0 -9999.0 -9999.0 -9999.0 -9999.0 -9999.0 -9999.0 -9999.0 -9999.0 -9999.0 -9999.0 -9999.0 -9999.0 -9999.0 -9999.0 -9999.0 -9999.0 -9999.0 -9999.0 -9999.0 -9999.0 -9999.0 -9999.0 -9999.0 -9999.0 -9999.0 -9999.0 -9999.0 -9999.0 -9999.0 -9999.0 -9999.0 -9999.0 -9999.0 -9999.0 -9999.0 -9999.0 -9999.0 -9999.0 -9999.0 -9999.0 -9999.0 -9999.0 -9999.0 -9999.0 -9999.0 -9999.0 -9999.0 -9999.0 -9999.0 -9999.0 -9999.0 -9999.0 -9999.0 -9999.0 -9999.0 -9999.0 -9999.0 -9999.0 -9999.0 -9999.0 -9999.0 -9999.0 -9999.0 -9999.0 -9999.0 -9999.0 -9999.0 -9999.0 -9999.0 -9999.0 -9999.0 -9999.0 -9999.0 -9999.0 -9999.0 -9999.0 -9999.0 -9999.0 -9999.0 -9999.0 -9999.0 -9999.0 -9999.0 -9999.0 -9999.0 -9999.0 -9999.0 -9999.0 -9999.0 -9999.0 -9999.0 -9999.0 -9999.0 -9999.0 -9999.0 -9999.0 -9999.0 -9999.0 -9999.0 -9999.0 -9999.0 -9999.0 -9999.0 -9999.0 -9999.0 -9999.0 -9999.0 -9999.0 -9999.0 -9999.0 -9999.0 -9999.0 -9999.0 -9999.0 -9999.0 -9999.0 -9999.0 -9999.0 -9999.0 -9999.0 -9999.0 -9999.0 -9999.0 -9999.0 -9999.0 -9999.0 -9999.0 -9999.0 -9999.0 -9999.0 -9999.0 -9999.0 -9999.0 -9999.0 -9999.0 -9999.0 -9999.0 -9999.0 -9999.0 -9999.0 -9999.0 -9999.0 -9999.0 -9999.0 -9999.0 -9999.0 -9999.0 -9999.0 -9999.0 -9999.0 -9999.0 -9999.0 -9999.0 -9999.0 -9999.0 -9999.0 -9999.0 -9999.0 -9999.0 -9999.0 -9999.0 -9999.0 -9999.0 -9999.0 -9999.0 -9999.0 -9999.0 -9999.0 -9999.0 -9999.0 -9999.0 -9999.0 -9999.0 -9999.0 -9999.0 -9999.0 -9999.0 -9999.0 -9999.0 -9999.0 -9999.0 -9999.0 -9999.0 -9999.0 -9999.0 -9999.0 -9999.0 -9999.0 -9999.0 -9999.0 -9999.0 -9999.0 -9999.0 -9999.0 -9999.0 -9999.0 -9999.0 -9999.0 -9999.0 -9999.0 -9999.0 -9999.0 -9999.0 -9999.0 -9999.0 -9999.0 -9999.0 -9999.0 398.9 369.1 333.7 265.3 160.5 75.9 126.3 156.6 153.8 138.3 240.5 288.9 342.1 428.9 450.2 531.8 613.5 558.1 441.6 367.6 328.3 319.2 310.9 313.6 290.7 257.8 260.5 335.0 438.6 419.6 357.5 274.0 251.2 272.0 269.6 211.2 244.0 304.6 358.1 313.1 244.4 168.9 120.9 100.3 107.7 153.5 189.6 202.5 187.2
1896.2 1835.4 1808.5 1586.9 1335.3 1106.7 990.0 1176.2 1382.0 1518.0 1565.9 1690.1 1875.1 1985.1 1997.5 1846.1 1604.5 1406.0 1559.9 1720.9 1783.8 1830.6 1993.3 2187.4 2285.7 2213.3 2086.9 1932.2 1798.6 1707.8 1633.2 1675.7 1712.4 1583.5 1502.7 1379.5 1261.0 1245.4 1223.8 1114.7 996.6 1077.0 1295.2 1427.1 1442.8 1445.1 1468.8 1493.1 1584.8 1487.8 1344.9 1325.4 1277.2 1126.1 1180.0 1255.1 1325.3 1280.5 1166.3 1287.6 1411.6 1508.5 1613.7 1674.7 1628.3 1517.6 1406.6 1294.2 1267.9 1227.7 1152.7 1059.0 956.7 864.7 790.6 696.2 591.0 603.8 778.4 932.6 1017.0 967.6 973.0 972.4 1058.2 1185.1 1275.5 1271.0 1107.5 982.1 934.6 846.4 784.5 826.3 740.5 784.2 713.1 678.3 751.9 848.1 924.5 971.5 960.4 995.5 914.2 959.9 1068.4 1127.8 1009.7 1150.3 1219.5 1140.8 1058.8 915.6 708.3 663.3 854.0 903.6 905.2 827.4 620.8 511.3 365.8 315.5 304.8 294.3 335.8 402.7 387.9 397.9 457.9 367.1 323.1 420.4 474.2 434.6 314.3 222.1 228.8 224.7 290.2 352.9 342.0 197.9 237.5 278.7 360.9 283.4 213.2 184.2 173.1 220.1 186.6 82.7 48.1 -9999.0 -9999.0 -9999.0 -9999.0 -9999.0 -9999.0 -9999.0 -9999.0 -9999.0 -9999.0 -9999.0 -9999.0 -9999.0 -9999.0 -9999.0 -9999.0 -9999.0 -9999.0 -9999.0 -9999.0 -9999.0 -9999.0 -9999.0 -9999.0 -9999.0 -9999.0 -9999.0 -9999.0 -9999.0 -9999.0 -9999.0 -9999.0 -9999.0 -9999.0 -9999.0 -9999.0 -9999.0 -9999.0 -9999.0 -9999.0 -9999.0 -9999.0 -9999.0 -9999.0 -9999.0 -9999.0 -9999.0 -9999.0 -9999.0 -9999.0 -9999.0 -9999.0 -9999.0 -9999.0 -9999.0 -9999.0 -9999.0 -9999.0 -9999.0 -9999.0 -9999.0 -9999.0 -9999.0 -9999.0 -9999.0 -9999.0 -9999.0 -9999.0 -9999.0 -9999.0 -9999.0 -9999.0 -9999.0 -9999.0 -9999.0 -9999.0 -9999.0 -9999.0 -9999.0 -9999.0 -9999.0 -9999.0 -9999.0 -9999.0 -9999.0 -9999.0 -9999.0 -9999.0 -9999.0 -9999.0 -9999.0 -9999.0 -9999.0 -9999.0 -9999.0 -9999.0 -9999.0 -9999.0 -9999.0 -9999.0 -9999.0 -9999.0 -9999.0 -9999.0 -9999.0 -9999.0 -9999.0 -9999.0 -9999.0 -9999.0 -9999.0 -9999.0 -9999.0 -9999.0 -9999.0 -9999.0 -9999.0 -9999.0 -9999.0 -9999.0 -9999.0 -9999.0 -9999.0 -9999.0 -9999.0 -9999.0 -9999.0 -9999.0 -9999.0 -9999.0 -9999.0 -9999.0 -9999.0 -9999.0 -9999.0 -9999.0 -9999.0 -9999.0 -9999.0 -9999.0 -9999.0 -9999.0 -9999.0 -9999.0 -9999.0 -9999.0 -9999.0 -9999.0 -9999.0 -9999.0 -9999.0 -9999.0 -9999.0 -9999.0 -9999.0 -9999.0 -9999.0 -9999.0 -9999.0 -9999.0 -9999.0 -9999.0 -9999.0 -9999.0 -9999.0 -9999.0 -9999.0 -9999.0 -9999.0 -9999.0 -9999.0 -9999.0 -9999.0 -9999.0 -9999.0 -9999.0 -9999.0 -9999.0 -9999.0 -9999.0 -9999.0 -9999.0 -9999.0 -9999.0 -9999.0 -9999.0 -9999.0 -9999.0 -9999.0 -9999.0 -9999.0 -9999.0 -9999.0 -9999.0 -9999.0 -9999.0 -9999.0 -9999.0 -9999.0 -9999.0 -9999.0 -9999.0 -9999.0 -9999.0 -9999.0 -9999.0 -9999.0 -9999.0 -9999.0 -9999.0 -9999.0 -9999.0 -9999.0 -9999.0 -9999.0 -9999.0 -9999.0 -9999.0 -9999.0 -9999.0 -9999.0 141.1 88.7 85.2 82.8 82.7 93.4 123.7 136.5 237.7 274.0 315.3 368.0 436.8 499.9 589.1 591.5 479.8 416.6 414.2 460.5 453.0 386.1 267.6 338.5 370.9 468.9 467.0 357.8 338.1 320.2 310.4 267.9 240.2 237.9 226.3 185.9 209.0 242.1 237.7 199.3 123.9 108.8 103.8 109.0 114.5 110.4 122.7
