ncols   465
nrows   32
xllcorner    12.265845
yllcorner    41.360197
cellsize    0.005009
NODATA_value -9999
-9999.0 -9999.0 -9999.0 -9999.0 -9999.0 -9999.0 -9999.0 -9999.0 -9999.0 -9999.0 -9999.0 -9999.0 -9999.0 -9999.0 -9999.0 -9999.0 -9999.0 -9999.0 -9999.0 -9999.0 -9999.0 -9999.0 -9999.0 -9999.0 -9999.0 -9999.0 -9999.0 -9999.0 -9999.0 -9999.0 -9999.0 -9999.0 -9999.0 -9999.0 -9999.0 -9999.0 -9999.0 -9999.0 -9999.0 -9999.0 -9999.0 -9999.0 -9999.0 -9999.0 -9999.0 -9999.0 -9999.0 -9999.0 -9999.0 -9999.0 -9999.0 -9999.0 -9999.0 -9999.0 -9999.0 -9999.0 -9999.0 -9999.0 -9999.0 -9999.0 -9999.0 -9999.0 52.8 70.2 77.1 92.2 91.3 97.6 106.3 108.7 111.7 113.7 116.4 118.0 117.7 114.5 103.3 105.3 105.6 116.6 115.2 106.4 93.8 95.9 99.4 102.6 105.9 108.9 104.0 102.3 107.0 104.6 94.8 89.9 84.9 79.7 71.2 65.9 61.8 62.7 71.4 65.6 70.5 69.2 68.6 67.5 68.1 70.4 70.4 70.7 70.6 66.4 63.0 59.5 58.2 59.3 61.7 65.1 65.0 65.2 64.8 63.8 61.9 61.1 60.0 59.1 58.4 57.8 56.8 54.9 54.2 54.4 53.3 51.3 47.4 43.9 33.5 44.6 48.6 51.4 52.4 54.6 52.2 50.7 53.2 112.8 268.0 418.4 520.3 529.7 463.8 420.6 406.0 481.6 561.5 461.5 403.4 304.5 304.4 299.3 286.8 288.9 325.9 353.0 351.7 383.8 385.6 359.4 333.1 324.3 297.6 270.8 267.0 318.5 265.6 209.4 180.7 161.8 144.6 145.1 136.3 125.9 143.0 154.4 111.6 115.0 143.3 146.3 162.3 234.6 396.0 480.0 379.6 377.6 458.0 472.6 432.3 356.4 220.5 140.7 120.7 138.0 141.5 148.3 170.6 175.9 181.5 198.2 239.2 282.7 357.0 442.4 530.6 572.4 644.4 701.2 728.1 703.1 655.9 513.5 516.8 410.5 292.5 204.3 182.4 186.9 189.2 196.3 195.3 186.9 170.6 180.2 174.9 189.2 179.4 184.1 218.8 204.7 181.8 178.2 184.8 186.0 164.3 166.7 149.5 142.9 133.5 133.2 124.1 112.9 106.8 106.4 145.8 164.8 166.7 142.6 120.4 99.0 105.2 118.3 119.4 115.7 105.9 112.2 121.8 124.3 120.8 116.5 113.2 112.4 130.8 153.1 156.4 159.4 161.2 163.4 164.5 164.4 163.8 162.8 161.3 161.0 159.9 152.3 160.3 161.0 161.3 157.5 163.2 207.6 328.8 444.7 499.7 518.0 456.6 499.8 459.0 489.0 417.3 413.7 449.4 478.9 555.6 575.0 700.4 651.1 485.6 317.3 265.8 183.1 144.5 106.1 87.7 84.8 94.1 103.9 121.5 137.6 158.5 169.4 194.0 254.6 364.2 487.6 539.9 668.9 759.0 870.4 937.1 1015.2 1111.1 1187.4 1159.3 1124.8 1134.4 1116.7 1133.0 1083.9 998.4 1008.5 1092.5 1076.2 984.2 834.8 800.5 799.7 747.9 706.2 672.3 659.0 631.0 676.1 647.3 549.5 456.3 357.2 366.1 294.1 294.3 308.6 339.4 365.9 437.7 398.7 287.2 251.6 253.5 256.6 258.2 257.1 251.4 239.3 236.9 271.0 305.4 316.8 313.7 312.4 338.5 386.8 439.3 466.3 535.4 572.7 644.7 764.3 892.2 935.5 903.6 799.6 756.9 756.4 811.5 826.0 784.0 822.9 850.5 911.1 920.4 896.9 900.9 874.3 893.8 882.2 876.3 874.2 910.5 940.0 982.0 1066.4 1164.3 1278.6 1366.2 1345.2 1210.8 1028.1 943.2 889.7 877.6 862.9 804.4 777.8 742.4 700.6 687.6 632.2 593.5 573.7 560.9 555.0 552.6 549.4 547.1 545.1 542.8 540.9 538.5 536.2 535.8 536.5 533.2 556.8 599.9 639.2 676.3 736.4 759.6 706.8 640.7 584.0 525.5 505.6 578.2 641.5 702.4 758.8 750.0 712.1 715.2 750.8 740.5 713.0 713.9 733.3 761.7
-9999.0 -9999.0 -9999.0 -9999.0 -9999.0 -9999.0 -9999.0 -9999.0 -9999.0 -9999.0 -9999.0 -9999.0 -9999.0 -9999.0 -9999.0 -9999.0 -9999.0 -9999.0 -9999.0 -9999.0 -9999.0 -9999.0 -9999.0 -9999.0 -9999.0 -9999.0 -9999.0 -9999.0 -9999.0 -9999.0 -9999.0 -9999.0 -9999.0 -9999.0 -9999.0 -9999.0 -9999.0 -9999.0 -9999.0 -9999.0 -9999.0 -9999.0 -9999.0 -9999.0 -9999.0 -9999.0 -9999.0 -9999.0 -9999.0 -9999.0 -9999.0 -9999.0 -9999.0 -9999.0 -9999.0 -9999.0 -9999.0 -9999.0 -9999.0 -9999.0 -9999.0 -9999.0 -9999.0 62.5 75.6 84.7 92.7 99.9 100.4 104.1 108.2 113.5 114.2 113.8 110.2 105.3 97.3 101.2 107.3 116.5 101.5 93.7 86.8 91.9 102.6 106.1 109.2 110.3 107.5 106.5 108.0 112.1 104.3 95.6 87.8 81.6 77.7 71.0 61.4 62.6 62.4 64.4 65.7 66.4 67.2 65.1 67.5 69.4 70.5 69.8 67.0 63.8 60.5 57.4 58.3 60.7 64.7 67.3 65.7 65.6 65.0 64.7 62.2 60.6 59.3 58.2 57.5 56.3 56.0 55.0 54.1 54.1 53.7 49.5 45.7 39.5 39.2 44.7 46.9 50.2 52.1 50.9 48.1 45.5 44.2 48.2 99.6 195.5 291.5 394.6 426.6 414.2 366.0 284.4 353.3 362.4 291.9 261.9 274.1 284.2 272.9 278.1 294.8 315.1 330.8 430.7 456.8 393.0 330.0 286.6 282.9 260.4 274.7 370.3 308.5 285.7 213.7 167.3 119.2 125.2 120.2 112.4 104.2 100.0 95.0 91.9 97.3 105.8 115.7 204.0 364.8 357.6 248.1 180.9 189.7 195.3 179.3 178.1 145.9 114.7 108.0 125.5 134.3 136.1 149.5 149.5 149.8 168.2 191.4 258.4 299.5 350.9 383.6 435.5 515.0 607.1 710.8 783.9 777.2 751.4 698.3 589.9 471.2 303.8 201.7 208.2 275.3 324.8 203.5 183.6 203.5 215.0 190.2 202.5 189.2 199.8 235.1 242.9 219.2 249.8 277.0 267.7 247.8 237.8 230.7 244.7 299.0 277.4 232.7 180.2 152.2 155.3 201.8 254.7 283.0 257.5 218.1 135.2 98.7 109.4 111.3 106.0 101.0 103.8 115.1 106.1 105.5 129.1 140.3 146.4 148.9 149.7 151.7 155.6 158.4 157.6 158.6 160.4 160.4 162.5 161.6 160.4 158.3 145.9 142.0 155.0 157.7 155.2 153.1 153.5 169.7 245.1 288.5 317.5 329.9 347.1 343.6 367.3 303.6 312.3 299.0 310.9 394.6 489.6 667.2 613.8 504.5 459.3 414.2 305.2 194.5 104.3 91.8 79.9 88.4 95.6 105.8 120.0 139.2 157.2 186.2 239.4 313.1 362.2 453.1 621.8 729.8 751.0 765.7 920.2 1084.9 1173.4 1220.5 1221.4 1229.8 1252.4 1243.2 1159.5 1095.6 1098.2 1098.2 1007.7 923.9 861.1 840.0 797.0 746.6 729.9 728.2 708.3 673.3 696.7 672.2 572.5 502.4 413.2 345.3 289.8 273.0 266.7 264.4 276.8 290.2 263.7 246.5 244.4 247.7 248.3 243.1 236.9 231.9 230.5 259.7 287.1 315.1 343.1 375.7 444.1 483.6 515.6 581.8 621.0 655.6 760.2 811.9 839.5 898.1 931.5 893.1 908.5 947.8 985.7 1025.9 1040.9 999.0 1033.0 1024.5 1141.1 1146.8 1188.8 1198.2 1204.5 1205.8 1156.3 1132.7 1089.6 1074.1 1067.7 1150.0 1243.9 1246.5 1281.3 1356.7 1359.3 1307.9 1177.6 1051.6 982.9 942.6 862.1 792.6 763.5 726.8 741.0 737.3 703.5 647.3 604.8 579.7 560.2 555.3 550.4 547.6 543.3 540.1 539.0 536.9 535.3 533.4 525.9 526.0 546.6 570.7 605.9 656.2 690.6 688.4 691.1 682.4 658.7 572.5 508.4 560.9 639.4 714.3 764.8 761.2 734.9 737.9 732.2 708.9 677.9 690.4 736.0 743.3
-9999.0 -9999.0 -9999.0 -9999.0 -9999.0 -9999.0 -9999.0 -9999.0 -9999.0 -9999.0 -9999.0 -9999.0 -9999.0 -9999.0 -9999.0 -9999.0 -9999.0 -9999.0 -9999.0 -9999.0 -9999.0 -9999.0 -9999.0 -9999.0 -9999.0 -9999.0 -9999.0 -9999.0 -9999.0 -9999.0 -9999.0 -9999.0 -9999.0 -9999.0 -9999.0 -9999.0 -9999.0 -9999.0 -9999.0 -9999.0 -9999.0 -9999.0 -9999.0 -9999.0 -9999.0 -9999.0 -9999.0 -9999.0 -9999.0 -9999.0 -9999.0 -9999.0 -9999.0 -9999.0 -9999.0 -9999.0 -9999.0 -9999.0 -9999.0 -9999.0 -9999.0 -9999.0 -9999.0 61.5 71.4 84.2 93.3 101.3 102.6 105.4 109.1 111.1 112.4 107.1 106.4 106.4 99.7 90.6 89.8 92.7 90.6 78.6 81.7 92.0 100.0 104.3 106.9 110.4 112.0 111.5 110.1 112.1 113.8 105.2 93.4 85.4 79.2 75.8 64.6 59.4 59.5 60.6 63.8 63.1 64.6 68.3 70.0 71.6 69.5 68.6 64.8 60.9 57.8 56.4 58.7 62.4 65.7 67.6 66.4 65.5 64.9 62.9 61.5 60.5 59.4 58.0 56.3 56.2 54.8 54.5 53.6 53.2 53.2 48.5 44.2 38.9 30.9 39.8 43.4 46.1 49.2 48.9 45.6 41.0 37.7 40.8 45.1 61.2 81.2 122.1 174.9 238.1 273.5 209.7 208.8 271.8 249.7 256.4 287.7 269.1 266.4 273.6 296.9 323.6 322.6 351.5 413.1 394.3 290.1 251.6 249.8 260.8 273.4 379.0 374.3 331.4 273.5 201.1 112.3 109.4 104.1 100.2 95.0 90.5 87.2 84.7 86.8 90.0 93.5 108.2 150.1 135.4 116.9 110.3 98.6 91.0 89.8 89.2 94.3 93.9 93.7 104.8 108.0 116.4 128.3 129.9 130.6 145.2 158.8 218.9 256.9 308.0 320.8 404.0 455.1 496.0 583.2 703.2 791.6 792.0 564.8 461.9 454.5 356.4 224.1 222.4 259.7 319.8 310.0 370.9 458.3 413.4 281.5 238.9 247.8 249.9 227.4 225.5 238.4 237.4 262.3 299.2 287.3 308.5 358.8 322.5 333.0 367.1 358.4 282.1 259.1 286.6 271.7 334.7 378.7 381.2 298.2 183.8 122.7 98.7 94.4 92.4 93.1 103.0 98.6 95.6 129.7 142.0 149.4 145.3 147.5 147.6 147.7 153.7 155.4 152.8 153.2 156.6 158.3 160.2 162.0 160.7 159.9 158.5 137.1 139.9 153.5 152.9 152.2 151.8 152.6 162.6 191.5 217.7 222.0 229.9 236.6 208.2 216.2 235.7 228.2 247.2 406.8 556.9 592.5 556.8 537.3 531.8 468.6 355.0 279.9 130.1 87.5 78.0 88.1 96.3 106.2 114.9 125.9 159.8 195.5 229.0 263.3 312.2 377.6 504.8 543.2 632.7 719.7 934.0 1081.3 1101.7 1113.7 1162.1 1202.8 1187.4 1163.6 1087.1 1023.3 1035.6 994.4 999.5 950.8 920.1 881.2 824.9 799.2 778.1 757.5 728.0 691.7 712.6 697.9 690.4 676.1 551.2 382.3 271.8 257.9 253.7 251.5 249.7 245.4 243.9 243.7 242.1 240.3 235.6 231.8 226.0 242.1 304.4 373.9 403.6 462.8 450.6 469.4 484.6 492.1 531.3 621.6 777.7 795.8 841.9 894.3 962.3 1063.8 1075.2 1020.1 1051.7 1029.7 1040.7 1067.0 1081.2 1053.8 1035.5 1058.1 1136.1 1159.6 1190.1 1243.8 1257.1 1257.7 1211.4 1197.2 1185.4 1183.5 1176.8 1163.9 1160.9 1142.3 1140.4 1177.8 1165.8 1118.5 1084.1 1047.9 911.8 758.3 705.9 694.5 689.1 716.0 756.4 731.6 708.0 677.5 643.3 594.0 564.2 551.2 539.9 538.5 533.1 531.7 530.8 533.0 532.2 531.6 520.4 525.6 533.5 548.2 580.8 614.0 616.2 619.4 624.0 653.5 634.1 569.6 512.6 577.7 628.9 672.3 730.2 726.4 750.1 732.5 699.6 685.0 660.7 667.6 686.5 678.4
-9999.0 -9999.0 -9999.0 -9999.0 -9999.0 -9999.0 -9999.0 -9999.0 -9999.0 -9999.0 -9999.0 -9999.0 -9999.0 -9999.0 -9999.0 -9999.0 -9999.0 -9999.0 -9999.0 -9999.0 -9999.0 -9999.0 -9999.0 -9999.0 -9999.0 -9999.0 -9999.0 -9999.0 -9999.0 -9999.0 -9999.0 -9999.0 -9999.0 -9999.0 -9999.0 -9999.0 -9999.0 -9999.0 -9999.0 -9999.0 -9999.0 -9999.0 -9999.0 -9999.0 -9999.0 -9999.0 -9999.0 -9999.0 -9999.0 -9999.0 -9999.0 -9999.0 -9999.0 -9999.0 -9999.0 -9999.0 -9999.0 -9999.0 -9999.0 -9999.0 -9999.0 -9999.0 -9999.0 -9999.0 68.2 79.1 93.6 99.5 104.8 108.5 110.2 112.0 110.8 105.8 101.5 99.8 98.7 93.4 86.6 77.2 82.8 76.0 81.1 85.5 91.1 99.0 103.9 106.2 109.7 105.6 102.3 107.2 113.4 104.2 97.7 88.3 78.9 73.2 65.1 58.7 58.5 63.3 68.7 72.7 75.1 73.0 74.4 73.6 70.8 69.2 64.7 60.5 56.3 55.8 60.9 62.4 65.7 65.3 64.7 64.2 63.6 62.9 61.1 60.1 59.8 57.4 56.6 55.6 54.7 54.0 52.6 53.3 52.1 50.2 46.3 44.1 39.7 30.8 37.7 42.4 45.7 47.0 44.0 40.3 29.8 32.2 39.3 41.0 43.2 45.8 50.7 58.3 71.9 85.1 100.0 114.6 187.7 299.3 335.4 352.3 306.1 296.5 321.1 342.6 350.5 334.5 322.1 295.0 226.9 238.2 284.3 258.1 295.9 342.0 280.1 192.7 171.1 133.7 99.1 98.3 92.5 88.6 86.2 83.3 81.6 80.3 81.0 80.6 81.4 82.8 84.0 85.5 82.9 85.4 82.5 80.8 83.8 89.9 128.1 211.8 153.3 105.2 94.1 101.2 118.5 111.6 119.6 133.0 132.6 136.3 176.3 208.6 279.0 365.8 379.8 404.7 492.4 612.2 688.6 751.0 533.4 338.3 276.6 220.5 196.9 207.7 288.0 332.9 460.8 593.2 622.8 540.0 419.8 352.3 369.0 345.3 292.5 261.6 259.4 271.4 263.2 262.9 260.1 278.0 292.8 298.7 363.7 425.2 434.6 316.2 309.6 344.2 390.4 419.6 402.1 449.8 383.3 206.6 151.5 128.5 113.4 102.8 93.1 91.3 89.2 101.8 125.0 133.6 140.1 136.0 143.5 148.0 142.7 150.3 151.0 144.9 152.0 154.8 156.8 158.7 159.5 160.0 160.1 157.3 152.3 130.0 148.2 151.8 151.4 150.9 151.1 153.5 161.3 172.2 174.0 168.9 163.6 159.6 160.1 165.6 173.6 200.2 300.1 488.2 534.5 532.4 587.5 550.2 472.1 323.8 197.6 110.5 85.0 76.7 86.2 90.8 94.6 102.1 113.3 133.4 158.3 191.1 239.0 281.7 332.6 388.8 467.2 546.1 628.5 768.5 918.3 1053.7 1056.0 1095.5 1134.5 1124.0 1047.3 1018.3 973.9 924.3 947.7 986.0 865.7 809.3 793.7 743.9 724.3 731.3 703.3 713.2 756.8 802.5 839.7 853.1 768.4 572.2 343.4 248.7 243.5 243.5 245.9 244.4 242.2 242.6 241.7 237.5 232.5 229.1 222.9 223.4 280.3 477.8 604.5 620.8 686.7 663.6 613.2 727.9 743.8 756.6 677.2 806.5 877.7 910.0 939.1 959.9 1023.8 1046.5 1021.4 1044.9 1071.1 1084.7 1110.6 1107.6 1092.8 1067.4 1118.6 1198.8 1249.4 1199.5 1231.6 1239.4 1224.4 1204.7 1151.1 1139.7 1144.7 1151.5 1146.7 1159.4 1163.2 1145.9 1113.7 1048.8 1019.3 932.2 834.5 770.4 747.6 725.4 697.5 666.3 696.8 694.8 686.1 634.5 615.1 591.7 572.8 561.0 550.6 546.6 542.5 535.1 531.3 526.0 521.6 524.8 525.0 522.1 518.1 521.4 529.9 540.4 554.1 561.7 566.5 569.7 596.5 595.7 546.5 514.6 565.2 610.6 671.1 689.1 666.2 707.6 704.4 700.1 705.9 674.1 641.0 657.3 691.2
-9999.0 -9999.0 -9999.0 -9999.0 -9999.0 -9999.0 -9999.0 -9999.0 -9999.0 -9999.0 -9999.0 -9999.0 -9999.0 -9999.0 -9999.0 -9999.0 -9999.0 -9999.0 -9999.0 -9999.0 -9999.0 -9999.0 -9999.0 -9999.0 -9999.0 -9999.0 -9999.0 -9999.0 -9999.0 -9999.0 -9999.0 -9999.0 -9999.0 -9999.0 -9999.0 -9999.0 -9999.0 -9999.0 -9999.0 -9999.0 -9999.0 -9999.0 -9999.0 -9999.0 -9999.0 -9999.0 -9999.0 -9999.0 -9999.0 -9999.0 -9999.0 -9999.0 -9999.0 -9999.0 -9999.0 -9999.0 -9999.0 -9999.0 -9999.0 -9999.0 -9999.0 -9999.0 -9999.0 -9999.0 -9999.0 71.3 81.8 87.8 95.6 108.5 108.0 106.9 104.1 103.2 100.2 95.1 88.7 84.0 80.1 75.3 69.6 69.9 76.6 81.2 89.1 91.9 95.0 99.8 100.4 95.8 94.1 92.1 96.2 92.2 88.7 86.8 80.9 67.5 59.2 56.5 60.5 69.9 73.1 76.5 76.5 75.1 74.7 73.9 72.5 71.6 66.4 61.4 56.9 55.0 59.5 62.8 65.0 64.8 64.0 63.1 63.6 62.3 61.6 60.2 60.1 57.2 54.9 54.9 54.5 53.5 53.7 53.3 53.0 52.0 50.0 47.4 43.7 40.7 32.3 34.7 40.6 44.1 45.6 42.4 40.3 33.8 27.3 32.5 36.6 38.2 40.0 43.6 49.9 59.5 72.4 78.2 89.5 173.3 267.4 360.6 386.7 433.7 396.4 348.6 340.5 329.9 307.3 221.5 235.4 239.6 208.6 162.3 180.1 190.1 138.3 99.6 100.4 92.3 90.9 89.8 86.5 82.8 79.7 78.3 77.4 77.3 78.2 76.4 75.2 74.9 79.0 79.0 78.4 77.3 78.7 90.6 169.6 262.5 362.7 408.0 297.5 164.3 112.0 97.2 106.1 107.3 125.5 124.2 119.5 126.3 139.7 155.4 202.3 255.2 257.4 297.0 412.5 492.3 557.3 652.4 530.8 308.7 210.2 185.9 185.8 223.2 363.9 479.4 424.5 463.7 584.2 705.5 649.7 489.8 521.1 569.9 457.1 336.9 301.3 292.1 302.3 289.7 256.4 236.3 234.1 256.5 303.8 362.8 390.9 334.9 336.2 346.0 357.9 398.0 472.3 480.0 351.3 222.2 172.5 144.3 130.2 115.8 115.0 103.1 87.6 101.5 112.4 113.9 115.5 127.1 136.9 144.3 138.7 148.0 141.0 147.0 153.8 155.0 156.5 158.4 159.4 159.5 155.9 154.4 151.4 132.0 148.5 152.3 151.2 150.5 150.2 150.5 152.0 152.7 150.8 148.6 144.2 139.3 134.4 132.6 134.5 132.8 194.7 374.0 452.1 438.3 515.2 488.7 436.2 280.3 159.6 93.7 85.1 75.5 81.0 84.2 88.0 95.0 104.6 126.1 159.5 194.6 226.1 272.5 309.8 335.0 376.3 449.9 531.1 618.1 734.7 862.3 852.3 895.4 948.1 966.3 902.2 861.2 823.7 790.6 906.0 905.9 875.9 822.2 784.1 784.7 703.0 697.9 720.2 811.9 877.5 924.6 857.6 705.8 577.6 417.4 273.8 234.5 233.2 232.9 233.7 234.0 232.9 233.4 231.8 228.8 226.2 220.1 215.6 234.7 337.8 456.1 634.6 722.3 757.7 764.9 717.9 749.7 856.4 879.0 870.0 842.6 847.1 851.2 848.4 871.1 916.6 982.2 1014.6 1016.9 1064.1 1065.8 1078.1 1123.3 1127.6 1067.6 1108.8 1164.0 1233.9 1211.3 1294.8 1338.9 1314.5 1309.0 1235.2 1221.6 1226.3 1233.7 1207.1 1211.1 1202.9 1173.8 1090.3 1035.2 963.1 864.0 801.2 782.9 832.6 816.5 739.9 673.8 681.4 645.3 642.9 650.7 632.9 621.2 617.6 620.1 610.5 597.0 565.8 551.8 544.5 533.9 528.3 523.7 524.2 521.5 521.0 515.8 517.3 522.4 527.1 530.2 533.8 536.3 537.1 537.5 511.8 520.7 570.6 625.1 644.5 626.9 643.5 660.4 696.9 671.1 655.4 645.3 638.5 650.4 659.9
-9999.0 -9999.0 -9999.0 -9999.0 -9999.0 -9999.0 -9999.0 -9999.0 -9999.0 -9999.0 -9999.0 -9999.0 -9999.0 -9999.0 -9999.0 -9999.0 -9999.0 -9999.0 -9999.0 -9999.0 -9999.0 -9999.0 -9999.0 -9999.0 -9999.0 -9999.0 -9999.0 -9999.0 -9999.0 -9999.0 -9999.0 -9999.0 -9999.0 -9999.0 -9999.0 -9999.0 -9999.0 -9999.0 -9999.0 -9999.0 -9999.0 -9999.0 -9999.0 -9999.0 -9999.0 -9999.0 -9999.0 -9999.0 -9999.0 -9999.0 -9999.0 -9999.0 -9999.0 -9999.0 -9999.0 -9999.0 -9999.0 -9999.0 -9999.0 -9999.0 -9999.0 -9999.0 -9999.0 -9999.0 -9999.0 65.7 75.4 90.3 96.4 100.4 101.7 99.9 101.1 100.4 94.7 88.2 83.9 81.6 79.0 72.0 66.1 71.7 74.2 78.4 79.4 83.6 88.3 90.4 90.0 88.4 85.8 82.9 85.4 82.1 80.6 75.8 71.4 56.3 57.5 58.9 70.3 75.0 75.2 74.6 74.2 73.8 72.6 72.3 71.4 69.1 65.8 61.6 56.2 55.0 59.5 64.2 66.3 65.0 64.9 63.2 62.3 63.0 61.1 60.4 60.1 57.1 56.1 55.0 53.5 53.7 54.0 53.3 52.9 52.6 52.3 51.2 46.8 44.0 41.1 34.8 32.5 40.8 42.9 44.2 42.8 40.2 38.4 33.6 27.1 27.5 34.0 39.1 42.7 48.1 54.1 57.6 58.0 61.9 103.4 204.3 264.9 328.1 385.7 290.4 221.2 223.2 224.0 158.9 140.4 131.3 118.4 98.1 92.3 95.1 90.0 84.4 85.4 85.1 85.4 85.4 82.0 80.2 77.4 76.4 73.9 72.5 72.1 72.6 72.9 73.6 74.4 75.2 77.1 126.5 117.9 123.2 261.1 492.9 598.1 511.8 408.5 276.1 199.6 114.5 103.3 114.3 117.0 120.3 124.1 132.3 133.3 140.4 153.3 172.2 180.1 207.1 276.5 311.9 328.6 393.5 342.1 224.1 174.5 197.8 192.0 248.5 402.0 563.4 560.9 482.0 504.8 664.3 773.6 627.1 637.9 674.2 548.0 482.2 397.6 344.1 293.8 274.7 269.3 250.8 234.7 239.4 273.5 253.2 296.4 354.6 327.0 329.2 349.9 343.2 404.9 407.7 298.5 225.1 178.9 158.1 151.9 143.3 152.7 124.6 93.7 101.9 107.6 107.9 108.7 118.4 133.7 134.5 136.5 143.7 137.5 145.0 147.2 149.9 153.0 153.6 155.6 155.0 152.9 150.2 138.8 127.1 148.8 151.8 150.7 149.2 147.8 147.3 146.8 148.5 148.7 144.9 140.7 138.0 132.7 127.3 121.7 116.9 122.6 160.1 221.8 257.9 387.2 453.2 492.2 332.2 147.0 84.4 83.4 76.5 80.2 81.6 86.6 91.9 102.2 122.4 147.8 172.0 205.2 239.4 256.8 291.3 339.4 388.5 436.1 514.5 565.1 629.0 698.2 728.0 760.2 764.8 795.4 716.4 704.4 691.5 793.6 793.7 814.7 745.5 860.4 844.6 769.5 783.7 863.7 797.4 612.6 581.1 579.4 470.7 356.6 263.6 230.2 227.0 226.3 223.8 223.2 226.6 225.4 224.6 223.2 220.3 221.9 213.8 218.0 227.2 371.3 569.2 622.4 672.3 775.8 839.9 794.8 762.5 834.2 875.1 891.2 898.1 882.0 871.5 838.0 839.0 849.7 861.6 907.6 923.6 997.4 1022.3 1041.6 1068.2 1109.2 1069.7 1099.9 1135.1 1199.4 1205.8 1240.5 1273.7 1251.5 1245.7 1241.7 1238.1 1237.6 1227.5 1211.6 1191.8 1177.6 1148.7 1110.6 1051.3 982.6 987.5 948.4 901.5 868.0 782.1 712.3 732.3 758.3 730.9 757.7 701.9 676.3 670.4 695.7 706.8 697.3 658.3 612.1 585.3 561.3 545.0 536.0 532.9 530.1 527.8 524.4 520.0 511.2 509.9 509.5 513.1 516.6 509.7 504.2 504.7 507.7 506.0 516.7 557.4 584.7 627.1 622.0 668.5 690.0 680.4 632.0 613.8 623.9 648.8 665.3
-9999.0 -9999.0 -9999.0 -9999.0 -9999.0 -9999.0 -9999.0 -9999.0 -9999.0 -9999.0 -9999.0 -9999.0 -9999.0 -9999.0 -9999.0 -9999.0 -9999.0 -9999.0 -9999.0 -9999.0 -9999.0 -9999.0 -9999.0 -9999.0 -9999.0 -9999.0 -9999.0 -9999.0 -9999.0 -9999.0 -9999.0 -9999.0 -9999.0 -9999.0 -9999.0 -9999.0 -9999.0 -9999.0 -9999.0 -9999.0 -9999.0 -9999.0 -9999.0 -9999.0 -9999.0 -9999.0 -9999.0 -9999.0 -9999.0 -9999.0 -9999.0 -9999.0 -9999.0 -9999.0 -9999.0 -9999.0 -9999.0 -9999.0 -9999.0 -9999.0 -9999.0 -9999.0 -9999.0 -9999.0 -9999.0 -9999.0 -9999.0 87.5 97.1 99.2 100.2 97.8 97.6 97.4 90.2 85.1 82.5 80.5 80.1 76.1 62.5 67.2 74.1 75.8 73.9 77.5 81.1 80.7 80.9 80.4 79.8 76.3 74.4 72.1 71.5 68.7 55.6 54.6 64.6 74.6 72.4 73.4 73.1 72.6 72.4 70.8 69.5 67.9 66.0 63.2 60.8 61.5 57.3 54.2 59.4 64.7 67.6 68.0 66.8 65.1 64.7 61.8 59.6 59.4 59.0 57.5 56.3 54.0 54.2 54.4 54.1 53.8 52.7 52.4 51.9 51.9 50.5 47.0 45.2 42.8 37.8 30.5 39.2 40.9 43.6 43.4 41.7 39.6 38.5 35.1 28.2 32.1 39.3 43.2 46.0 47.5 49.0 49.2 51.4 56.6 62.3 83.3 123.0 166.1 221.3 257.0 240.1 143.1 122.9 112.4 103.0 97.4 89.8 82.7 82.2 82.3 82.3 82.3 82.3 85.8 80.5 78.0 75.8 73.0 70.7 70.5 70.9 92.1 116.7 107.6 98.9 78.4 88.0 188.5 304.1 223.5 371.0 592.0 596.5 562.4 491.0 390.7 261.1 134.2 106.1 107.1 114.2 125.5 130.0 136.2 137.2 140.9 143.9 141.6 147.4 147.0 154.3 156.2 170.5 176.5 171.6 167.5 235.5 282.7 208.1 269.0 374.6 493.4 572.1 567.9 538.8 642.3 829.6 847.6 843.9 834.6 747.8 597.4 436.1 373.1 334.7 301.6 274.7 253.3 247.9 241.3 233.2 239.6 254.0 339.9 359.4 400.4 435.1 383.1 279.6 267.4 255.4 226.4 201.9 171.8 169.9 176.3 175.5 155.9 132.2 107.6 94.1 95.8 103.0 104.3 113.1 120.3 136.1 134.6 136.0 140.8 140.8 139.9 145.3 149.5 150.0 151.1 151.5 151.5 130.5 127.5 148.4 149.8 150.4 148.9 147.2 146.1 145.8 145.0 147.1 145.1 141.9 141.5 136.8 129.3 123.9 117.5 113.2 112.0 118.1 134.1 188.6 286.4 323.4 227.3 128.7 81.4 79.9 71.8 78.3 81.2 86.3 94.1 103.2 115.4 132.3 144.3 164.3 194.6 238.1 270.9 304.3 328.1 337.0 389.8 477.8 524.6 554.5 581.0 602.6 641.5 641.6 650.7 648.8 651.2 664.5 662.5 684.2 771.9 888.5 873.0 880.2 912.5 875.3 717.8 528.0 380.0 318.0 257.5 237.6 226.0 221.6 220.6 219.2 218.1 216.4 216.1 217.5 218.0 217.3 217.5 217.3 211.4 215.3 221.1 254.7 373.9 533.3 696.6 808.8 911.3 896.5 858.2 867.4 951.1 946.2 952.1 948.2 916.1 874.2 860.2 865.4 851.8 859.3 866.2 971.8 1033.1 1059.2 1108.0 1174.7 1186.6 1242.3 1289.7 1327.4 1303.2 1322.9 1368.4 1357.6 1335.2 1313.3 1332.4 1314.7 1272.6 1235.7 1238.0 1245.9 1271.2 1255.9 1264.2 1187.0 1136.7 1061.6 1004.1 910.7 855.0 815.0 791.6 797.4 772.3 730.4 723.1 762.3 748.8 752.4 761.1 736.4 736.9 765.1 669.5 630.6 590.6 562.9 548.6 532.7 529.1 525.4 522.1 519.7 518.1 516.7 511.7 511.1 512.9 517.4 532.3 538.1 538.1 532.8 516.9 545.5 577.6 603.0 631.4 639.7 632.2 605.5 606.7 634.1 660.0 680.3
-9999.0 -9999.0 -9999.0 -9999.0 -9999.0 -9999.0 -9999.0 -9999.0 -9999.0 -9999.0 -9999.0 -9999.0 -9999.0 -9999.0 -9999.0 -9999.0 -9999.0 -9999.0 -9999.0 -9999.0 -9999.0 -9999.0 -9999.0 -9999.0 -9999.0 -9999.0 -9999.0 -9999.0 -9999.0 -9999.0 -9999.0 -9999.0 -9999.0 -9999.0 -9999.0 -9999.0 -9999.0 -9999.0 -9999.0 -9999.0 -9999.0 -9999.0 -9999.0 -9999.0 -9999.0 -9999.0 -9999.0 -9999.0 -9999.0 -9999.0 -9999.0 -9999.0 -9999.0 -9999.0 -9999.0 -9999.0 -9999.0 -9999.0 -9999.0 -9999.0 -9999.0 -9999.0 -9999.0 -9999.0 -9999.0 -9999.0 -9999.0 78.1 92.3 92.9 94.0 97.1 98.5 86.8 81.9 79.6 79.5 82.1 82.9 76.1 61.8 60.0 66.5 67.9 68.0 71.0 73.7 74.8 74.6 76.9 75.7 73.3 67.5 62.0 57.6 54.3 53.2 59.2 63.1 66.2 67.5 68.6 68.9 70.5 70.4 70.0 68.4 64.1 60.8 57.1 53.3 54.7 55.6 53.9 58.8 65.5 69.7 70.7 68.6 68.3 66.0 64.5 65.4 61.9 59.0 57.8 56.5 56.0 55.3 54.6 53.3 52.6 53.0 52.0 51.6 52.2 51.8 50.1 47.3 45.4 42.7 39.6 30.3 35.4 40.2 42.5 43.8 43.6 41.7 39.3 36.4 27.4 33.5 39.4 41.8 39.8 42.3 44.3 47.3 48.6 46.7 44.9 44.7 48.1 85.6 167.7 197.7 125.4 96.0 90.6 98.4 171.1 138.7 89.0 83.6 85.9 106.0 93.7 86.4 105.4 126.6 91.9 75.6 72.3 70.1 70.1 72.7 150.1 332.8 321.3 254.6 113.5 94.7 145.4 344.6 392.6 551.5 680.9 632.1 592.2 504.9 366.6 239.7 144.6 113.7 107.0 109.3 121.2 130.4 126.5 135.5 139.3 140.4 135.6 187.7 262.8 270.4 270.7 226.8 200.2 203.8 243.8 377.0 324.7 214.4 263.5 425.7 524.8 569.1 628.1 634.6 622.0 768.7 937.6 920.6 799.5 683.5 556.7 457.5 404.0 353.2 309.9 275.7 350.4 367.9 263.7 237.6 233.9 237.9 264.7 365.7 494.9 470.1 400.7 285.5 233.6 231.2 202.1 172.9 172.9 175.7 164.5 147.2 143.2 129.4 116.4 102.0 92.6 90.1 93.6 101.1 104.5 107.3 112.6 119.2 132.5 134.2 130.3 146.8 148.7 143.9 146.4 144.4 152.0 148.0 121.1 122.9 146.7 147.7 146.2 145.8 145.4 145.5 144.9 143.0 142.7 141.1 141.3 137.2 131.1 124.3 120.2 114.5 109.7 106.7 104.2 107.8 107.8 108.5 98.7 93.9 81.6 77.2 70.6 81.9 84.6 90.4 96.3 103.8 112.3 123.4 134.3 157.6 204.1 230.8 244.1 275.1 276.7 284.9 324.2 385.8 437.1 452.7 432.0 435.7 472.6 510.2 524.3 572.8 573.9 575.6 619.6 675.7 751.9 690.9 652.1 695.1 659.3 604.1 537.9 417.2 288.5 246.4 220.6 215.1 217.9 216.8 215.3 213.9 212.1 211.6 211.2 212.2 213.6 213.8 211.7 206.4 207.6 214.3 218.2 223.6 256.6 341.9 529.4 718.3 818.0 939.5 977.1 999.3 1035.8 1060.3 1042.9 1013.3 970.8 942.4 904.4 934.6 885.2 869.3 861.9 920.6 1047.8 1110.7 1160.4 1187.5 1254.3 1294.0 1291.2 1324.2 1316.4 1293.2 1308.7 1350.6 1346.5 1411.9 1502.4 1478.9 1422.6 1391.4 1336.3 1349.2 1361.6 1347.8 1333.7 1250.7 1182.1 1102.6 1065.7 1045.0 1073.7 1008.9 966.0 911.1 837.0 795.0 798.4 837.1 835.3 827.2 806.4 894.4 962.1 951.2 803.6 721.3 665.0 672.6 696.7 671.4 627.6 573.1 530.6 526.9 522.8 525.0 528.5 528.6 529.3 527.6 536.5 541.8 548.0 553.4 540.4 531.1 545.0 556.5 575.6 585.3 597.8 608.9 619.9 631.0 659.4 682.7
-9999.0 -9999.0 -9999.0 -9999.0 -9999.0 -9999.0 -9999.0 -9999.0 -9999.0 -9999.0 -9999.0 -9999.0 -9999.0 -9999.0 -9999.0 -9999.0 -9999.0 -9999.0 -9999.0 -9999.0 -9999.0 -9999.0 -9999.0 -9999.0 -9999.0 -9999.0 -9999.0 -9999.0 -9999.0 -9999.0 -9999.0 -9999.0 -9999.0 -9999.0 -9999.0 -9999.0 -9999.0 -9999.0 -9999.0 -9999.0 -9999.0 -9999.0 -9999.0 -9999.0 -9999.0 -9999.0 -9999.0 -9999.0 -9999.0 -9999.0 -9999.0 -9999.0 -9999.0 -9999.0 -9999.0 -9999.0 -9999.0 -9999.0 -9999.0 -9999.0 -9999.0 -9999.0 -9999.0 -9999.0 -9999.0 -9999.0 -9999.0 -9999.0 78.2 88.6 91.0 91.2 92.1 86.7 79.5 72.2 71.5 75.8 71.2 63.5 53.3 60.0 65.2 68.9 69.0 68.2 70.5 72.2 74.0 73.9 73.8 72.7 69.3 64.5 61.5 55.5 52.4 53.4 54.6 56.4 58.0 60.1 64.9 67.9 68.2 68.5 66.2 59.6 57.4 54.5 49.4 50.7 52.0 54.6 60.1 64.8 67.9 67.8 69.4 67.9 67.3 67.6 66.8 65.3 63.8 61.6 60.6 58.7 57.3 54.7 54.6 53.6 52.5 52.4 52.3 52.0 51.5 51.3 50.2 47.7 45.4 42.7 38.9 31.4 30.9 38.5 41.5 42.7 43.9 42.2 39.6 36.8 27.0 30.7 37.6 29.8 39.2 42.3 46.4 46.5 44.5 42.9 42.9 42.8 42.2 47.4 72.3 68.9 68.5 75.4 115.9 204.8 188.2 162.8 117.9 132.3 184.2 148.9 99.2 101.5 128.4 136.0 127.7 78.7 69.6 70.0 80.7 155.1 343.9 507.6 408.5 228.0 143.8 139.4 280.6 504.6 619.9 719.5 671.6 658.4 573.5 418.0 290.2 181.5 118.6 113.0 120.8 115.4 115.7 121.2 127.3 129.7 130.1 136.3 167.8 294.4 426.9 506.2 500.6 432.2 403.8 446.9 446.8 285.7 222.6 267.2 398.3 524.0 598.5 667.3 719.8 675.2 796.6 975.1 935.5 837.4 770.3 628.2 536.3 447.5 398.8 374.6 305.1 435.6 423.2 284.3 240.7 238.4 238.8 255.4 314.0 430.0 432.0 395.8 296.4 227.9 182.1 189.2 167.8 153.7 154.6 149.4 133.1 122.5 114.1 123.1 125.2 125.2 115.7 98.5 88.8 93.0 96.4 100.7 101.2 105.1 117.6 118.6 134.9 144.8 138.6 133.4 146.0 146.4 148.5 151.3 129.5 114.6 130.4 142.3 140.8 141.2 142.8 142.7 140.2 139.6 138.5 137.4 135.7 131.8 126.3 121.0 115.6 111.2 105.6 101.9 99.9 99.5 94.1 87.1 85.4 84.1 80.4 69.5 81.2 85.5 88.1 96.6 109.4 154.5 199.8 137.3 149.5 163.0 180.4 200.9 202.3 244.2 277.7 307.6 334.8 363.2 350.0 326.5 325.4 398.4 486.4 552.2 546.0 599.6 653.0 758.5 824.3 738.2 593.3 506.1 531.7 508.8 414.3 350.4 289.0 236.0 214.6 210.3 211.3 211.9 211.2 210.3 208.6 207.8 207.5 208.9 209.2 209.9 211.9 209.7 204.7 212.2 213.4 215.4 212.6 225.5 263.8 340.0 435.4 525.1 658.9 761.5 793.7 895.0 991.4 1052.4 1048.2 992.6 911.0 918.7 1002.7 958.1 909.5 863.1 870.5 921.8 1070.7 1117.7 1153.3 1230.3 1263.0 1252.1 1271.0 1273.3 1210.6 1263.3 1403.8 1484.2 1499.5 1478.3 1442.9 1443.3 1438.2 1393.5 1376.9 1410.3 1436.8 1431.9 1378.2 1252.0 1212.6 1178.7 1283.4 1278.9 1182.9 1189.6 1123.7 1092.4 1070.1 975.2 957.3 1032.8 1071.7 996.6 990.6 1126.3 1116.1 996.9 842.2 817.1 923.6 980.6 879.3 743.6 660.7 587.5 585.9 559.1 542.7 545.6 547.3 541.4 539.9 541.4 543.6 545.7 551.5 546.2 529.8 566.6 571.0 576.6 578.0 599.1 598.0 589.3 594.2 616.7 655.1
-9999.0 -9999.0 -9999.0 -9999.0 -9999.0 -9999.0 -9999.0 -9999.0 -9999.0 -9999.0 -9999.0 -9999.0 -9999.0 -9999.0 -9999.0 -9999.0 -9999.0 -9999.0 -9999.0 -9999.0 -9999.0 -9999.0 -9999.0 -9999.0 -9999.0 -9999.0 -9999.0 -9999.0 -9999.0 -9999.0 -9999.0 -9999.0 -9999.0 -9999.0 -9999.0 -9999.0 -9999.0 -9999.0 -9999.0 -9999.0 -9999.0 -9999.0 -9999.0 -9999.0 -9999.0 -9999.0 -9999.0 -9999.0 -9999.0 -9999.0 -9999.0 -9999.0 -9999.0 -9999.0 -9999.0 -9999.0 -9999.0 -9999.0 -9999.0 -9999.0 -9999.0 -9999.0 -9999.0 -9999.0 -9999.0 -9999.0 -9999.0 -9999.0 -9999.0 75.7 85.1 88.7 92.6 90.8 83.1 76.8 69.7 65.3 58.9 54.7 49.3 52.8 58.1 60.0 61.5 61.6 63.5 67.9 68.2 69.0 70.3 69.8 71.0 64.9 61.2 55.9 51.2 54.7 57.3 60.2 61.5 60.8 63.3 64.0 65.3 64.4 59.9 56.2 52.1 48.4 51.4 57.3 60.7 61.0 62.9 65.1 66.9 66.0 66.8 67.9 68.4 68.5 67.1 65.7 65.5 65.8 65.3 65.9 62.7 60.1 56.5 54.2 53.2 52.8 52.3 52.2 51.6 51.7 51.1 50.1 48.2 45.5 43.1 39.8 33.5 28.7 36.0 39.3 41.4 43.4 41.7 38.8 37.0 28.6 26.9 27.7 37.3 41.0 44.4 44.5 43.4 43.4 42.9 41.8 41.8 42.0 44.9 46.3 50.4 81.1 128.3 181.1 269.9 310.1 290.7 218.1 269.4 209.9 124.4 146.8 137.6 109.8 113.8 88.4 71.0 67.8 84.8 148.3 304.8 503.3 601.1 467.1 316.6 210.9 233.9 397.9 589.1 772.8 743.1 693.6 660.7 530.6 384.8 241.7 140.0 120.8 121.0 127.2 123.7 124.5 128.5 136.2 132.8 146.4 169.3 245.9 391.7 520.4 587.6 625.9 651.0 702.8 589.2 394.5 287.4 237.1 331.2 450.6 522.9 669.0 761.3 758.0 822.9 934.4 1062.6 980.0 798.1 708.4 565.3 467.6 418.8 359.4 307.3 318.1 316.0 255.5 248.5 241.0 241.0 254.7 288.0 404.3 520.8 468.6 353.5 241.0 195.7 168.4 160.0 147.8 145.4 141.8 141.0 143.9 146.5 167.6 182.5 188.7 171.9 140.5 112.6 93.5 84.8 88.8 91.5 95.1 97.9 104.0 121.4 131.1 137.8 132.0 145.4 147.6 138.3 144.6 146.8 145.5 128.6 112.7 123.5 135.4 139.5 139.5 138.6 138.8 136.2 133.5 126.9 125.0 126.4 123.5 120.3 112.0 110.0 102.8 98.8 99.0 98.1 96.5 89.7 80.6 74.8 66.1 74.9 85.1 97.8 122.7 194.8 307.1 195.7 126.4 125.0 128.6 143.7 161.3 199.5 252.8 325.3 376.3 333.9 279.1 268.1 307.4 436.6 514.1 594.2 681.2 681.5 734.9 843.9 987.4 943.4 768.0 719.8 599.2 428.6 349.0 306.6 278.6 252.8 227.6 213.7 209.4 207.8 207.6 207.5 205.5 204.8 204.4 205.7 206.8 206.9 205.9 212.1 211.8 241.2 239.8 227.5 221.6 218.3 222.1 235.8 268.3 328.3 377.6 406.8 437.9 544.9 638.5 761.8 855.9 914.2 924.6 819.4 840.9 959.7 939.4 899.1 861.8 863.6 870.5 903.3 1028.1 1127.8 1149.6 1220.8 1218.0 1206.5 1222.0 1271.9 1397.0 1463.8 1486.3 1418.7 1432.0 1399.6 1393.3 1422.4 1466.0 1439.0 1376.0 1477.1 1511.5 1451.5 1332.1 1320.4 1318.5 1493.7 1415.0 1431.5 1407.1 1358.0 1337.3 1390.9 1291.6 1161.7 1159.6 1218.5 1156.1 1113.5 1130.4 1183.7 1091.2 971.2 912.1 978.0 971.0 913.6 831.0 763.9 739.6 739.9 700.2 639.4 576.1 567.3 561.2 558.5 558.6 557.8 556.0 553.3 547.1 531.8 540.2 566.7 563.0 557.4 555.9 562.7 572.1 571.8 590.5 606.5
-9999.0 -9999.0 -9999.0 -9999.0 -9999.0 -9999.0 -9999.0 -9999.0 -9999.0 -9999.0 -9999.0 -9999.0 -9999.0 -9999.0 -9999.0 -9999.0 -9999.0 -9999.0 -9999.0 -9999.0 -9999.0 -9999.0 -9999.0 -9999.0 -9999.0 -9999.0 -9999.0 -9999.0 -9999.0 -9999.0 -9999.0 -9999.0 -9999.0 -9999.0 -9999.0 -9999.0 -9999.0 -9999.0 -9999.0 -9999.0 -9999.0 -9999.0 -9999.0 -9999.0 -9999.0 -9999.0 -9999.0 -9999.0 -9999.0 -9999.0 -9999.0 -9999.0 -9999.0 -9999.0 -9999.0 -9999.0 -9999.0 -9999.0 -9999.0 -9999.0 -9999.0 -9999.0 -9999.0 -9999.0 -9999.0 -9999.0 -9999.0 -9999.0 -9999.0 -9999.0 78.9 90.6 92.6 92.3 83.5 77.8 73.9 63.2 54.7 46.7 46.5 52.0 54.9 56.5 57.7 58.5 57.8 57.2 61.7 64.7 70.0 68.0 68.1 65.4 57.6 55.0 50.7 51.5 53.7 55.8 59.3 61.0 61.6 61.6 60.5 60.2 55.9 53.0 48.3 50.9 57.6 60.6 63.7 64.7 66.3 66.5 67.2 66.0 65.4 67.3 67.8 67.8 68.5 68.7 67.5 66.7 67.0 66.5 64.5 63.3 59.0 57.0 56.2 53.5 52.2 51.6 51.6 51.4 50.9 50.3 50.2 48.6 45.7 43.9 40.4 35.5 26.4 34.5 37.7 40.4 42.6 42.5 39.6 38.2 32.3 25.2 35.2 38.6 42.8 43.4 43.6 43.2 42.5 42.6 41.4 40.8 41.8 39.4 36.0 52.5 141.8 195.2 246.1 324.1 394.7 316.9 238.0 211.0 185.7 211.7 220.7 156.1 131.5 111.1 87.7 67.4 86.6 139.8 223.1 377.2 602.3 643.3 531.3 385.2 333.4 374.2 598.9 767.9 819.3 737.8 650.5 592.2 483.1 324.1 203.0 155.0 127.9 136.6 144.4 135.8 132.6 140.0 139.4 151.8 168.4 217.7 303.4 374.8 465.4 557.0 624.0 721.0 774.1 613.2 446.0 298.9 269.8 330.2 449.6 621.6 779.7 847.6 916.7 985.2 1032.7 1030.8 880.9 765.8 579.6 459.0 349.5 301.4 299.1 305.1 332.9 304.5 268.4 257.6 279.6 298.9 305.3 355.3 456.0 454.8 397.9 267.9 205.5 177.1 165.4 166.3 171.5 169.1 158.5 169.7 175.7 210.8 301.4 353.8 250.2 182.3 127.4 108.2 87.0 88.6 77.8 84.6 93.9 95.0 105.6 128.7 126.3 131.5 134.9 138.7 142.3 134.7 131.1 139.4 140.0 136.2 110.6 120.0 135.2 138.4 135.5 134.7 133.8 130.9 125.9 115.4 111.9 110.9 117.7 118.4 109.5 106.1 103.3 99.9 100.9 97.5 92.7 85.5 76.3 66.9 65.1 83.4 104.1 152.6 299.2 325.4 178.3 119.3 114.3 121.0 134.0 136.9 163.1 204.0 235.4 260.8 261.8 225.4 227.8 277.5 387.6 519.5 639.6 713.4 839.5 947.6 1044.3 1135.9 938.0 712.9 589.9 587.5 447.5 339.2 290.4 265.5 240.6 225.3 216.5 209.4 206.0 203.1 203.4 202.9 201.3 201.3 202.4 203.4 200.8 193.3 209.4 247.2 391.9 407.7 413.3 394.7 303.6 257.8 237.1 240.0 264.5 295.3 307.8 344.6 402.1 459.0 535.2 586.3 684.7 717.1 625.8 816.9 901.6 874.8 865.4 864.5 881.2 884.8 884.3 898.9 946.1 958.8 1036.3 1131.8 1184.3 1238.7 1258.0 1259.5 1359.8 1417.4 1480.5 1430.7 1422.7 1392.4 1453.5 1495.0 1466.6 1448.9 1430.7 1481.2 1498.2 1458.2 1529.9 1454.9 1624.2 1656.1 1606.4 1529.5 1481.9 1467.8 1494.6 1537.5 1465.5 1359.7 1304.0 1252.9 1245.3 1289.3 1280.0 1228.3 1196.5 1077.0 1029.4 1050.2 977.2 902.3 849.6 793.8 735.4 667.9 618.1 605.5 586.7 591.8 584.4 577.2 578.6 570.7 562.2 556.5 547.5 533.1 546.5 549.4 549.4 549.9 553.0 562.4 578.6 608.4 619.8
-9999.0 -9999.0 -9999.0 -9999.0 -9999.0 -9999.0 -9999.0 -9999.0 -9999.0 -9999.0 -9999.0 -9999.0 -9999.0 -9999.0 -9999.0 -9999.0 -9999.0 -9999.0 -9999.0 -9999.0 -9999.0 -9999.0 -9999.0 -9999.0 -9999.0 -9999.0 -9999.0 -9999.0 -9999.0 -9999.0 -9999.0 -9999.0 -9999.0 -9999.0 -9999.0 -9999.0 -9999.0 -9999.0 -9999.0 -9999.0 -9999.0 -9999.0 -9999.0 -9999.0 -9999.0 -9999.0 -9999.0 -9999.0 -9999.0 -9999.0 -9999.0 -9999.0 -9999.0 -9999.0 -9999.0 -9999.0 -9999.0 -9999.0 -9999.0 -9999.0 -9999.0 -9999.0 -9999.0 -9999.0 -9999.0 -9999.0 -9999.0 -9999.0 -9999.0 -9999.0 67.5 80.9 82.9 86.0 86.4 81.4 72.8 59.1 -9999.0 -9999.0 -9999.0 53.8 54.7 56.5 56.4 57.0 52.5 52.3 52.8 64.8 67.9 65.7 65.6 61.4 54.4 51.5 50.1 53.7 51.4 55.8 56.1 56.0 57.1 57.5 57.0 57.2 53.6 50.3 46.1 44.2 52.2 58.2 62.6 63.6 64.5 65.5 64.6 64.4 64.9 65.6 65.5 66.7 66.9 68.0 68.9 67.8 67.3 66.3 64.0 62.6 61.3 59.8 59.4 56.8 53.8 53.1 51.7 51.3 51.4 49.8 49.5 49.3 48.7 46.1 43.6 39.8 36.3 27.6 31.7 36.1 39.1 41.9 41.8 39.6 34.7 28.2 36.3 38.9 40.9 42.4 43.9 43.0 42.4 41.5 41.9 39.8 37.9 35.5 26.3 36.3 72.2 193.4 255.8 216.5 240.6 270.3 251.4 213.2 203.4 219.0 209.3 182.7 172.4 153.0 98.3 78.4 68.3 88.3 148.8 281.2 513.9 631.4 663.2 610.2 577.5 443.9 568.4 711.7 771.8 721.3 627.1 568.6 540.2 455.2 316.5 250.4 179.7 161.2 158.2 150.9 143.0 136.8 142.4 156.1 177.9 212.2 254.8 310.2 411.0 539.6 643.4 715.3 794.8 788.5 559.9 353.1 273.7 322.6 432.3 571.0 751.0 923.1 984.9 1031.8 942.7 908.4 908.4 746.2 548.9 397.0 323.3 306.9 302.8 343.5 498.6 497.1 369.9 383.6 374.9 364.9 294.2 280.5 328.0 354.4 378.1 269.9 192.6 167.2 154.5 145.6 143.0 148.7 147.2 153.0 164.6 213.6 269.7 342.3 292.1 184.3 139.4 117.5 129.7 112.8 97.9 80.9 76.1 77.5 84.4 119.2 118.0 135.2 136.4 124.1 138.0 139.1 127.1 126.6 136.3 140.9 130.3 112.3 109.0 126.7 134.9 131.8 129.4 126.6 124.4 122.3 119.1 109.0 109.2 113.8 115.7 116.5 109.5 103.3 92.5 83.7 85.7 80.6 77.9 61.9 80.0 94.6 106.7 169.7 233.9 164.8 120.5 105.9 108.8 115.3 125.1 121.9 158.6 146.9 163.6 182.4 188.4 192.2 189.2 205.4 245.3 304.6 395.4 541.5 670.6 782.2 897.4 949.2 876.4 714.8 633.9 567.6 453.6 340.2 268.1 255.7 265.3 232.3 217.3 210.6 205.6 201.6 200.2 200.3 199.4 198.1 198.6 196.4 190.1 201.0 272.2 250.9 306.3 387.2 465.6 499.1 464.8 435.2 381.3 305.7 253.3 256.5 273.5 302.8 342.0 363.7 391.4 429.2 458.4 452.0 506.3 706.4 917.1 919.9 885.6 876.5 887.0 871.6 869.6 870.0 874.1 886.3 906.2 956.4 1042.2 1137.0 1201.0 1205.0 1298.8 1375.2 1450.9 1477.8 1413.4 1388.8 1385.9 1453.2 1563.3 1561.9 1487.8 1551.2 1657.4 1711.8 1739.9 1684.4 1751.3 1847.1 1824.5 1667.3 1527.5 1471.5 1473.5 1569.6 1658.7 1604.0 1507.0 1472.2 1478.2 1535.7 1476.5 1387.8 1321.6 1213.7 1143.7 1127.1 1069.9 1019.2 912.7 756.7 695.7 710.8 720.5 672.2 615.2 621.5 616.2 604.1 599.2 584.9 572.1 561.7 543.3 542.2 552.8 553.8 553.6 554.2 556.6 564.5 588.9 622.0 634.8
-9999.0 -9999.0 -9999.0 -9999.0 -9999.0 -9999.0 -9999.0 -9999.0 -9999.0 -9999.0 -9999.0 -9999.0 -9999.0 -9999.0 -9999.0 -9999.0 -9999.0 -9999.0 -9999.0 -9999.0 -9999.0 -9999.0 -9999.0 -9999.0 -9999.0 -9999.0 -9999.0 -9999.0 -9999.0 -9999.0 -9999.0 -9999.0 -9999.0 -9999.0 -9999.0 -9999.0 -9999.0 -9999.0 -9999.0 -9999.0 -9999.0 -9999.0 -9999.0 -9999.0 -9999.0 -9999.0 -9999.0 -9999.0 -9999.0 -9999.0 -9999.0 -9999.0 -9999.0 -9999.0 -9999.0 -9999.0 -9999.0 -9999.0 -9999.0 -9999.0 -9999.0 -9999.0 -9999.0 -9999.0 -9999.0 -9999.0 -9999.0 -9999.0 -9999.0 -9999.0 -9999.0 75.7 80.7 -9999.0 -9999.0 -9999.0 -9999.0 -9999.0 -9999.0 -9999.0 -9999.0 -9999.0 -9999.0 -9999.0 -9999.0 52.0 50.3 47.8 56.5 66.9 60.5 58.7 57.9 56.9 55.8 54.4 49.1 48.0 47.3 49.2 51.4 53.5 55.3 54.5 54.3 53.4 49.6 47.2 43.7 41.1 45.3 51.8 57.5 59.3 60.5 61.0 62.6 65.0 62.3 63.9 66.1 65.3 65.4 65.5 67.4 66.9 66.2 67.2 65.5 62.7 61.3 60.3 60.6 59.3 57.7 57.3 55.0 52.5 50.8 50.4 50.1 49.2 49.3 48.3 46.2 44.1 41.5 37.1 30.1 27.9 35.5 39.3 40.9 39.3 33.5 25.0 33.1 36.3 38.1 40.1 42.5 42.4 42.2 41.7 41.5 39.5 36.6 32.2 23.1 29.7 34.6 66.3 182.5 233.0 187.1 166.7 217.9 258.9 237.5 243.1 238.8 194.3 164.0 127.3 97.3 93.7 75.1 73.8 93.8 174.4 284.5 411.0 638.5 697.3 666.7 649.4 652.6 656.0 589.4 566.2 572.0 656.9 617.2 510.1 395.0 306.4 248.6 197.9 175.6 161.0 146.6 145.8 149.6 160.8 178.7 204.5 241.1 328.9 392.9 484.8 623.0 748.9 835.0 682.6 471.6 326.2 294.6 350.0 441.0 569.2 723.4 919.9 913.4 875.5 834.9 800.2 809.2 679.7 500.4 398.8 345.5 327.3 344.1 391.2 529.8 565.7 544.1 472.0 444.1 396.7 349.4 282.3 267.9 335.5 296.0 219.1 184.8 171.2 177.2 166.7 158.0 144.6 135.5 136.4 147.8 168.7 188.7 205.4 211.5 169.8 148.6 138.5 154.1 130.3 123.1 113.3 91.0 83.5 77.6 89.3 102.2 108.0 123.2 135.2 122.9 127.6 114.6 134.7 137.5 132.4 124.1 130.1 107.6 118.7 133.8 127.9 128.1 122.6 118.5 115.4 112.1 111.8 108.7 102.3 103.4 108.5 105.2 97.6 90.1 96.5 97.5 96.0 82.6 61.4 77.7 106.1 111.9 137.3 135.2 115.5 102.0 99.5 103.3 104.7 106.0 116.9 124.2 123.2 126.9 139.6 146.6 149.4 152.0 175.0 198.8 234.3 267.7 352.2 460.9 539.9 595.3 621.7 620.0 643.0 670.8 648.8 603.3 500.7 296.4 276.0 369.6 281.3 213.3 208.4 204.1 201.1 198.2 197.4 196.4 195.7 194.8 185.7 189.8 197.7 207.7 208.0 221.4 276.7 371.3 458.0 542.1 579.5 562.1 471.5 405.6 388.6 319.8 272.3 281.0 309.7 320.2 333.4 323.7 372.3 468.6 623.8 803.9 951.0 996.5 1016.5 1012.0 973.6 972.4 952.3 935.1 981.9 1003.0 1019.7 1013.2 1040.2 1065.0 1133.5 1179.9 1169.9 1223.7 1304.6 1339.9 1327.2 1384.1 1480.8 1581.2 1574.0 1551.0 1569.5 1677.9 1835.0 1928.8 1909.9 1882.7 1974.2 1861.0 1724.7 1636.0 1541.0 1474.1 1507.4 1608.8 1709.3 1714.3 1699.4 1677.2 1632.0 1526.2 1406.3 1371.3 1320.9 1239.5 1176.1 1094.9 1024.0 997.1 900.2 824.9 865.6 836.2 782.3 687.1 663.9 648.5 629.1 612.0 593.2 578.3 556.1 550.4 562.0 565.9 570.5 574.4 579.0 586.6 582.5 591.0 592.8 600.7
-9999.0 -9999.0 -9999.0 -9999.0 -9999.0 -9999.0 -9999.0 -9999.0 -9999.0 -9999.0 -9999.0 -9999.0 -9999.0 -9999.0 -9999.0 -9999.0 -9999.0 -9999.0 -9999.0 -9999.0 -9999.0 -9999.0 -9999.0 -9999.0 -9999.0 -9999.0 -9999.0 -9999.0 -9999.0 -9999.0 -9999.0 -9999.0 -9999.0 -9999.0 -9999.0 -9999.0 -9999.0 -9999.0 -9999.0 -9999.0 -9999.0 -9999.0 -9999.0 -9999.0 -9999.0 -9999.0 -9999.0 -9999.0 -9999.0 -9999.0 -9999.0 -9999.0 -9999.0 -9999.0 -9999.0 -9999.0 -9999.0 -9999.0 -9999.0 -9999.0 -9999.0 -9999.0 -9999.0 -9999.0 -9999.0 -9999.0 -9999.0 -9999.0 -9999.0 -9999.0 -9999.0 -9999.0 56.8 -9999.0 -9999.0 -9999.0 -9999.0 -9999.0 -9999.0 -9999.0 -9999.0 -9999.0 -9999.0 -9999.0 -9999.0 -9999.0 -9999.0 -9999.0 52.0 57.9 59.2 57.1 54.7 54.8 52.9 51.7 49.5 47.5 49.3 45.9 50.2 53.7 53.3 53.1 53.1 50.9 47.6 43.8 38.5 41.3 47.0 52.4 54.9 56.2 56.5 56.4 57.1 58.6 58.3 61.6 63.8 62.2 64.4 65.3 65.6 65.5 67.6 64.9 67.1 63.1 62.7 62.5 60.9 57.7 58.8 59.6 58.6 55.8 53.1 50.8 50.5 51.1 50.6 48.9 48.9 47.6 44.6 40.8 38.2 32.2 26.6 35.8 37.7 39.1 37.7 33.3 24.6 31.4 35.5 38.2 39.8 41.6 41.9 42.0 41.5 39.8 36.6 34.0 30.1 22.2 30.5 35.9 52.3 103.4 128.0 108.9 143.1 245.0 245.9 246.4 228.4 191.6 155.9 130.1 122.1 90.6 70.5 72.4 86.2 117.7 215.7 352.6 551.0 711.9 707.6 702.4 731.5 719.7 582.1 561.8 642.8 724.6 671.5 504.5 416.0 442.3 364.1 228.4 212.6 174.8 151.0 160.3 168.4 170.9 183.5 210.6 257.7 307.2 422.5 510.0 628.9 734.7 836.4 635.4 423.4 306.5 301.0 352.8 461.7 620.8 766.2 949.9 922.9 847.7 806.8 750.2 781.9 692.2 522.2 417.4 426.6 478.3 456.8 504.3 592.0 653.1 566.0 498.2 461.3 410.3 348.7 338.8 305.6 249.2 258.1 273.7 261.3 224.9 218.7 213.6 259.2 244.9 214.8 168.5 136.4 132.3 151.8 155.1 155.8 160.7 185.4 163.5 140.7 128.3 119.7 113.2 102.4 99.5 82.9 77.3 91.4 94.8 100.2 117.0 119.6 111.6 111.3 125.9 129.9 128.2 119.2 110.1 107.9 104.0 124.7 115.8 125.8 126.5 122.6 116.8 113.9 121.1 117.3 111.3 102.8 97.6 94.4 96.8 97.1 102.4 91.4 87.9 71.9 63.3 79.0 93.8 92.8 97.3 106.3 99.1 92.1 96.7 100.4 103.5 125.7 198.7 137.0 110.5 119.7 125.7 127.1 124.3 124.9 135.5 153.7 168.5 185.5 214.3 290.8 345.9 395.7 402.5 401.3 404.7 424.7 443.8 543.6 564.3 339.9 271.1 329.9 317.3 211.4 204.8 202.5 199.6 196.9 194.6 193.2 193.5 191.5 183.9 193.3 195.7 195.3 198.6 203.8 221.8 262.3 344.1 501.6 606.5 640.6 607.2 549.4 521.3 428.0 330.0 268.8 279.8 284.0 288.4 315.2 356.6 396.1 447.1 625.0 787.3 959.5 1090.0 1098.7 1074.8 1087.2 1039.5 986.4 958.6 959.1 961.8 960.4 971.9 983.4 1005.3 1005.0 1009.6 1038.3 1074.0 1086.6 1104.3 1187.9 1282.1 1336.1 1370.3 1414.6 1494.5 1547.8 1575.3 1678.7 1860.0 1913.1 2007.6 1917.4 1812.4 1724.2 1638.0 1508.8 1551.0 1595.8 1623.5 1637.6 1649.3 1658.6 1664.0 1611.1 1514.6 1430.8 1328.7 1252.2 1194.5 1163.0 1111.2 1033.0 958.3 902.5 879.2 843.2 793.4 727.9 686.2 663.2 639.2 610.3 588.7 570.0 562.8 586.1 600.0 608.5 627.7 641.0 645.8 638.9 624.8 604.5 586.5 580.1
-9999.0 -9999.0 -9999.0 -9999.0 -9999.0 -9999.0 -9999.0 -9999.0 -9999.0 -9999.0 -9999.0 -9999.0 -9999.0 -9999.0 -9999.0 -9999.0 -9999.0 -9999.0 -9999.0 -9999.0 -9999.0 -9999.0 -9999.0 -9999.0 -9999.0 -9999.0 -9999.0 -9999.0 -9999.0 -9999.0 -9999.0 -9999.0 -9999.0 -9999.0 -9999.0 -9999.0 -9999.0 -9999.0 -9999.0 -9999.0 -9999.0 -9999.0 -9999.0 -9999.0 -9999.0 -9999.0 -9999.0 -9999.0 -9999.0 -9999.0 -9999.0 -9999.0 -9999.0 -9999.0 -9999.0 -9999.0 -9999.0 -9999.0 -9999.0 -9999.0 -9999.0 -9999.0 -9999.0 -9999.0 -9999.0 -9999.0 -9999.0 -9999.0 -9999.0 -9999.0 -9999.0 -9999.0 -9999.0 -9999.0 -9999.0 -9999.0 -9999.0 -9999.0 -9999.0 -9999.0 -9999.0 -9999.0 -9999.0 -9999.0 -9999.0 -9999.0 -9999.0 -9999.0 -9999.0 -9999.0 57.5 56.4 55.5 55.1 52.8 51.1 52.7 52.9 49.7 44.7 45.1 48.5 50.1 51.2 51.1 47.5 44.1 39.2 36.7 42.2 46.6 49.5 52.2 53.1 53.7 53.9 54.3 54.9 54.7 55.7 57.4 60.2 64.1 63.7 64.4 64.2 64.3 64.5 64.3 63.3 61.7 62.1 61.5 58.6 60.3 60.0 58.3 56.4 55.4 54.6 53.7 53.4 51.2 50.1 49.5 49.3 47.0 45.0 41.7 38.7 35.3 26.8 33.0 37.3 39.3 37.3 34.7 26.5 28.4 34.7 36.9 39.0 40.2 41.7 41.9 41.2 39.1 36.0 33.2 29.1 22.4 28.6 33.6 36.2 48.8 72.5 96.1 200.0 221.8 162.5 154.7 142.8 132.0 111.8 106.9 123.7 81.2 67.8 80.8 97.3 143.1 238.9 382.4 581.9 724.1 715.8 729.5 762.6 651.6 698.2 700.9 693.4 595.2 485.5 518.3 513.0 454.0 264.7 276.9 301.5 218.2 185.4 188.1 213.7 226.4 231.0 266.4 325.9 383.3 490.8 595.4 691.3 806.3 641.8 412.5 301.0 336.5 422.6 529.0 656.6 781.9 806.0 905.7 854.3 814.8 748.4 619.7 568.5 524.8 523.0 580.0 646.9 583.9 650.8 749.4 682.6 560.4 473.3 388.6 316.8 308.8 331.1 307.1 320.1 317.3 340.6 299.1 285.5 325.6 301.2 487.4 544.2 481.6 330.1 220.7 149.1 125.1 141.9 138.5 170.1 250.9 227.2 229.4 191.8 130.5 113.3 103.1 93.7 81.4 76.4 88.3 92.2 94.1 105.1 110.8 103.6 111.3 125.1 119.9 116.7 124.6 112.3 87.7 110.4 111.4 105.1 111.6 123.2 125.1 118.8 118.8 119.8 107.1 109.6 108.9 108.7 102.6 101.6 104.8 99.1 90.1 81.3 61.6 68.6 87.8 83.9 85.5 84.8 86.9 88.8 88.7 95.6 100.3 107.4 161.5 207.0 110.1 99.2 109.8 110.2 111.8 108.5 105.6 112.2 117.0 125.8 138.3 152.4 170.2 224.1 263.3 269.2 270.8 275.3 297.6 333.3 445.4 537.4 355.3 288.3 340.4 377.1 244.4 202.8 200.5 198.3 195.9 193.6 192.9 192.9 189.2 181.3 188.9 191.7 192.6 192.4 195.2 197.6 201.3 220.1 366.0 583.7 728.4 774.3 732.6 679.1 583.8 424.5 299.7 268.9 274.9 282.8 296.7 315.7 359.3 439.8 518.4 624.9 757.8 825.8 749.8 742.7 884.7 924.8 947.3 962.3 984.0 998.7 1034.9 1037.1 1019.5 1016.8 1029.3 1076.9 1114.9 1129.5 1079.4 1054.3 1058.3 1080.7 1104.9 1132.4 1175.9 1244.4 1293.7 1407.7 1573.1 1632.6 1728.9 1808.0 1739.1 1694.1 1668.6 1608.3 1568.4 1584.3 1666.9 1667.4 1632.2 1658.2 1665.3 1644.2 1594.8 1603.5 1593.6 1519.2 1438.8 1366.2 1257.8 1192.6 1112.6 984.1 910.9 878.6 819.8 766.9 726.4 714.0 696.6 663.8 647.3 622.1 583.7 610.8 640.8 668.9 686.9 720.5 742.2 739.8 712.1 686.2 650.7 611.8 587.8
-9999.0 -9999.0 -9999.0 -9999.0 -9999.0 -9999.0 -9999.0 -9999.0 -9999.0 -9999.0 -9999.0 -9999.0 -9999.0 -9999.0 -9999.0 -9999.0 -9999.0 -9999.0 -9999.0 -9999.0 -9999.0 -9999.0 -9999.0 -9999.0 -9999.0 -9999.0 -9999.0 -9999.0 -9999.0 -9999.0 -9999.0 -9999.0 -9999.0 -9999.0 -9999.0 -9999.0 -9999.0 -9999.0 -9999.0 -9999.0 -9999.0 -9999.0 -9999.0 -9999.0 -9999.0 -9999.0 -9999.0 -9999.0 -9999.0 -9999.0 -9999.0 -9999.0 -9999.0 -9999.0 -9999.0 -9999.0 -9999.0 -9999.0 -9999.0 -9999.0 -9999.0 -9999.0 -9999.0 -9999.0 -9999.0 -9999.0 -9999.0 -9999.0 -9999.0 -9999.0 -9999.0 -9999.0 -9999.0 -9999.0 -9999.0 -9999.0 -9999.0 -9999.0 -9999.0 -9999.0 -9999.0 -9999.0 -9999.0 -9999.0 -9999.0 -9999.0 -9999.0 -9999.0 -9999.0 -9999.0 -9999.0 -9999.0 53.7 52.7 51.9 50.2 50.9 52.4 51.7 45.9 44.2 43.7 45.6 49.8 49.5 46.1 42.7 36.3 35.1 38.9 42.7 46.3 50.0 51.6 51.7 51.7 52.2 52.7 53.0 51.6 51.5 52.9 55.9 59.3 60.9 63.0 63.1 62.6 63.6 63.0 61.9 61.3 59.8 59.8 61.5 61.5 58.7 58.7 60.1 59.5 57.4 55.2 53.1 51.0 50.4 49.6 48.6 47.4 45.9 42.8 40.9 36.2 27.2 30.8 36.3 38.3 38.0 34.9 29.1 25.6 33.8 35.8 36.4 38.6 41.1 41.8 41.4 38.8 36.5 33.1 31.8 26.4 24.2 33.0 38.3 47.6 73.8 137.4 111.1 102.0 102.3 100.5 102.4 109.4 80.4 71.8 62.1 69.3 83.5 78.4 98.0 156.4 261.0 403.8 591.4 702.0 683.4 673.4 689.5 744.4 705.0 650.7 568.9 563.9 496.6 430.1 355.1 265.2 347.3 432.3 395.0 300.8 218.7 226.2 264.4 279.3 296.5 371.2 420.1 468.9 536.8 620.3 744.7 693.5 480.5 322.5 297.0 380.1 470.3 513.6 599.1 725.9 883.8 869.8 776.0 697.4 612.8 616.2 572.4 574.3 660.5 659.9 676.8 734.7 759.2 688.2 661.8 536.5 378.0 303.2 383.9 458.6 452.5 445.1 407.2 379.6 359.0 372.5 387.7 301.7 399.9 523.8 574.6 548.2 374.4 223.3 148.4 125.0 145.7 196.4 290.1 341.7 296.9 258.3 155.1 114.3 103.9 97.8 86.3 72.9 81.4 90.2 91.1 92.0 96.7 99.4 97.6 117.2 117.4 107.6 120.4 108.8 82.4 113.3 114.8 104.8 98.6 101.7 106.6 106.4 111.3 110.4 105.1 98.5 104.4 104.1 98.8 93.5 97.1 88.5 82.8 75.2 58.4 61.6 74.1 71.0 71.6 74.0 79.8 84.7 94.4 103.0 99.8 100.4 105.9 103.2 92.2 92.2 96.2 93.2 94.4 101.9 117.6 133.3 144.1 125.8 119.9 123.9 133.3 149.4 172.0 192.7 223.4 295.5 319.2 341.6 436.5 456.5 328.7 322.1 346.4 385.5 352.3 227.3 204.0 197.5 194.2 192.8 190.7 190.2 188.8 181.6 179.0 184.4 188.1 194.7 197.6 200.7 206.4 230.9 344.2 478.1 593.7 757.7 780.8 675.8 534.6 422.1 319.4 272.6 274.1 280.4 286.6 301.0 332.7 374.5 444.6 499.5 567.5 558.0 595.9 833.3 1004.4 1121.9 1149.0 1191.7 1232.7 1251.7 1296.6 1250.3 1212.7 1290.2 1309.5 1371.5 1433.6 1411.7 1296.2 1148.4 1073.3 1063.7 1077.1 1101.0 1129.7 1156.9 1199.5 1320.8 1426.6 1427.6 1589.5 1642.1 1578.0 1623.4 1621.8 1580.9 1632.0 1672.8 1673.0 1768.6 1826.8 1782.4 1712.0 1647.1 1567.3 1526.2 1483.8 1330.3 1254.0 1235.0 1158.0 1125.5 1106.3 1116.0 1027.4 977.4 971.4 907.4 834.6 814.7 780.6 745.7 730.4 682.7 630.7 645.6 688.0 720.9 752.2 785.7 822.1 835.3 832.2 779.6 714.1 662.0 618.2
-9999.0 -9999.0 -9999.0 -9999.0 -9999.0 -9999.0 -9999.0 -9999.0 -9999.0 -9999.0 -9999.0 -9999.0 -9999.0 -9999.0 -9999.0 -9999.0 -9999.0 -9999.0 -9999.0 -9999.0 -9999.0 -9999.0 -9999.0 -9999.0 -9999.0 -9999.0 -9999.0 -9999.0 -9999.0 -9999.0 -9999.0 -9999.0 -9999.0 -9999.0 -9999.0 -9999.0 -9999.0 -9999.0 -9999.0 -9999.0 -9999.0 -9999.0 -9999.0 -9999.0 -9999.0 -9999.0 -9999.0 -9999.0 -9999.0 -9999.0 -9999.0 -9999.0 -9999.0 -9999.0 -9999.0 -9999.0 -9999.0 -9999.0 -9999.0 -9999.0 -9999.0 -9999.0 -9999.0 -9999.0 -9999.0 -9999.0 -9999.0 -9999.0 -9999.0 -9999.0 -9999.0 -9999.0 -9999.0 -9999.0 -9999.0 -9999.0 -9999.0 -9999.0 -9999.0 -9999.0 -9999.0 -9999.0 -9999.0 -9999.0 -9999.0 -9999.0 -9999.0 -9999.0 -9999.0 -9999.0 -9999.0 -9999.0 -9999.0 51.2 51.0 49.8 50.1 49.1 49.7 49.0 44.0 42.9 43.3 45.0 46.9 44.8 42.4 38.6 34.8 32.5 35.4 40.9 45.4 48.7 48.3 49.2 50.0 50.4 50.8 51.2 52.2 51.5 49.7 49.1 53.4 59.0 58.9 60.5 63.2 63.3 63.5 62.7 61.1 62.0 62.5 61.5 59.4 60.4 60.8 60.0 59.5 59.7 56.8 55.4 51.3 50.4 49.3 48.8 48.5 46.5 43.3 40.4 36.8 29.1 27.8 35.1 37.1 38.5 35.8 31.1 23.4 30.4 33.5 35.1 37.7 40.2 41.1 40.6 39.1 37.2 34.9 32.4 27.2 26.2 35.2 42.4 52.2 66.4 70.3 75.4 83.0 88.3 96.6 83.1 61.4 55.7 65.6 86.0 72.4 69.6 82.3 111.3 182.4 276.7 412.6 571.8 682.8 671.9 717.7 736.2 704.8 679.0 619.9 622.7 606.0 392.6 301.5 352.2 346.3 490.9 455.6 382.6 285.7 257.2 365.0 452.5 404.2 396.6 484.1 553.3 588.7 654.4 707.7 720.1 576.5 383.2 298.2 326.9 366.4 440.5 577.3 757.6 899.0 894.1 760.6 625.7 565.2 549.2 524.1 552.2 566.9 633.7 743.9 849.4 766.4 668.7 604.2 476.1 333.3 331.0 453.3 542.2 541.3 507.5 483.7 450.9 424.0 382.3 362.9 339.0 364.0 364.7 401.1 489.9 512.6 384.9 193.4 120.7 166.7 254.7 356.7 427.2 357.3 223.8 138.7 118.7 111.0 105.0 89.2 79.1 75.8 84.6 86.2 86.6 88.2 90.3 104.3 101.2 101.7 111.2 115.7 106.8 79.5 98.7 102.5 98.1 89.8 89.4 97.4 93.3 98.9 100.9 97.5 92.1 89.9 97.1 103.2 95.0 85.7 86.9 84.9 81.1 57.1 54.3 64.6 72.4 75.8 82.1 86.7 90.5 92.6 119.3 132.7 106.7 98.7 94.6 96.0 82.0 75.8 81.9 82.6 108.9 165.9 279.2 290.8 278.3 199.7 149.1 141.1 144.1 187.7 197.2 260.4 431.7 519.7 525.4 560.8 433.7 397.4 392.0 396.9 415.7 408.3 334.0 298.0 226.1 203.0 194.0 189.5 187.6 187.3 184.7 178.6 174.3 174.0 203.8 210.4 209.3 221.0 263.2 340.9 403.4 548.1 700.7 760.5 703.2 527.1 396.2 309.0 292.4 277.9 275.4 281.0 290.7 311.7 345.8 390.9 417.0 409.1 436.5 571.6 693.5 817.6 956.2 1102.0 1175.2 1206.8 1119.1 1207.5 1221.8 1233.6 1236.0 1218.9 1274.9 1335.4 1396.4 1501.4 1362.2 1179.6 1109.1 1105.2 1192.0 1317.2 1295.0 1264.6 1224.3 1248.9 1282.9 1365.7 1401.2 1494.8 1528.7 1433.7 1445.9 1466.0 1604.6 1672.3 1685.6 1790.8 1910.6 1847.6 1727.9 1607.6 1553.1 1482.3 1432.0 1339.5 1367.5 1389.3 1403.9 1341.6 1281.4 1231.4 1186.4 1189.3 1182.9 1151.1 1120.7 1091.8 1094.7 1046.5 1002.3 828.0 722.6 746.8 784.8 817.9 878.2 920.4 947.9 942.3 895.4 812.4 704.0 667.4
-9999.0 -9999.0 -9999.0 -9999.0 -9999.0 -9999.0 -9999.0 -9999.0 -9999.0 -9999.0 -9999.0 -9999.0 -9999.0 -9999.0 -9999.0 -9999.0 -9999.0 -9999.0 -9999.0 -9999.0 -9999.0 -9999.0 -9999.0 -9999.0 -9999.0 -9999.0 -9999.0 -9999.0 -9999.0 -9999.0 -9999.0 -9999.0 -9999.0 -9999.0 -9999.0 -9999.0 -9999.0 -9999.0 -9999.0 -9999.0 -9999.0 -9999.0 -9999.0 -9999.0 -9999.0 -9999.0 -9999.0 -9999.0 -9999.0 -9999.0 -9999.0 -9999.0 -9999.0 -9999.0 -9999.0 -9999.0 -9999.0 -9999.0 -9999.0 -9999.0 -9999.0 -9999.0 -9999.0 -9999.0 -9999.0 -9999.0 -9999.0 -9999.0 -9999.0 -9999.0 -9999.0 -9999.0 -9999.0 -9999.0 -9999.0 -9999.0 -9999.0 -9999.0 -9999.0 -9999.0 -9999.0 -9999.0 -9999.0 -9999.0 -9999.0 -9999.0 -9999.0 -9999.0 -9999.0 -9999.0 -9999.0 -9999.0 -9999.0 -9999.0 -9999.0 48.3 48.0 48.0 48.0 45.7 43.8 42.4 42.8 43.8 44.5 44.4 43.9 41.1 38.7 33.2 35.0 39.4 43.0 45.1 45.2 45.1 45.3 46.3 47.2 47.5 49.0 49.2 51.4 48.7 46.6 48.9 52.9 59.5 59.1 61.2 63.3 65.0 65.0 63.6 63.4 62.5 61.0 60.8 61.0 62.6 60.9 60.1 59.8 57.8 54.4 51.1 50.3 49.4 48.5 48.2 46.2 43.8 40.3 37.4 31.4 25.9 34.1 37.3 38.0 36.1 31.7 24.2 27.1 32.1 34.4 37.2 39.5 41.4 41.6 40.0 37.3 35.3 34.1 27.1 28.4 39.2 46.5 53.4 59.5 64.2 70.8 77.5 76.2 57.2 49.9 52.2 63.0 116.1 142.1 139.3 129.2 128.3 152.1 237.2 293.9 389.7 476.7 553.8 634.3 726.4 719.3 717.9 718.1 711.7 594.2 394.9 363.3 505.9 404.0 526.2 553.8 455.0 416.9 300.7 329.9 507.6 577.0 567.7 524.8 666.5 762.2 782.7 697.0 536.2 399.6 316.7 298.1 314.9 348.3 399.4 461.9 563.8 700.1 846.4 735.5 597.7 540.4 523.5 518.6 573.5 611.5 708.7 740.2 638.7 554.2 452.7 394.4 338.4 309.9 365.8 532.4 630.8 662.8 609.1 594.1 516.5 513.8 490.4 428.5 396.7 351.5 298.0 307.3 416.5 468.9 397.7 233.3 121.0 180.5 337.6 451.6 438.2 344.3 215.5 125.1 105.4 91.7 87.3 84.8 83.4 74.7 72.3 70.3 70.4 75.6 81.1 88.1 89.7 91.8 99.0 99.8 96.4 75.4 89.2 93.0 93.8 90.9 83.9 82.1 85.9 82.1 85.6 90.3 93.6 85.4 86.1 91.8 92.2 87.5 92.4 85.5 63.5 49.7 54.6 69.5 68.4 77.9 85.5 77.9 81.1 87.8 104.0 107.9 100.7 103.8 100.2 92.0 71.4 81.3 97.4 89.0 83.6 97.6 134.2 195.4 299.3 320.8 213.6 180.7 167.1 293.2 308.2 243.8 389.0 508.8 614.3 617.1 533.0 611.4 559.2 490.2 480.5 518.7 537.5 456.0 394.7 309.1 309.1 251.8 195.3 185.4 185.4 182.8 176.0 168.6 187.0 213.7 222.4 233.9 248.5 315.7 440.2 507.7 610.6 669.1 669.4 621.8 467.8 354.9 309.4 284.5 274.5 272.2 286.8 303.0 333.5 348.4 341.7 421.3 541.5 557.6 573.8 686.6 769.8 856.9 895.2 924.9 889.5 935.9 929.7 928.6 951.9 958.5 1004.4 1067.7 1176.0 1366.5 1481.3 1366.6 1357.8 1357.5 1352.3 1383.7 1403.6 1346.1 1220.1 1158.0 1180.1 1171.3 1156.2 1234.6 1259.9 1242.9 1378.8 1368.6 1417.6 1554.9 1529.9 1609.1 1776.5 1795.9 1761.6 1678.4 1648.4 1606.6 1573.5 1539.2 1535.0 1546.7 1507.2 1453.1 1417.1 1380.7 1373.1 1396.0 1380.8 1321.9 1239.1 1182.9 1108.7 1002.9 884.3 808.3 798.2 829.2 872.7 910.0 946.9 1007.7 1041.3 1031.6 978.6 860.1 774.2 753.7
-9999.0 -9999.0 -9999.0 -9999.0 -9999.0 -9999.0 -9999.0 -9999.0 -9999.0 -9999.0 -9999.0 -9999.0 -9999.0 -9999.0 -9999.0 -9999.0 -9999.0 -9999.0 -9999.0 -9999.0 -9999.0 -9999.0 -9999.0 -9999.0 -9999.0 -9999.0 -9999.0 -9999.0 -9999.0 -9999.0 -9999.0 -9999.0 -9999.0 -9999.0 -9999.0 -9999.0 -9999.0 -9999.0 -9999.0 -9999.0 -9999.0 -9999.0 -9999.0 -9999.0 -9999.0 -9999.0 -9999.0 -9999.0 -9999.0 -9999.0 -9999.0 -9999.0 -9999.0 -9999.0 -9999.0 -9999.0 -9999.0 -9999.0 -9999.0 -9999.0 -9999.0 -9999.0 -9999.0 -9999.0 -9999.0 -9999.0 -9999.0 -9999.0 -9999.0 -9999.0 -9999.0 -9999.0 -9999.0 -9999.0 -9999.0 -9999.0 -9999.0 -9999.0 -9999.0 -9999.0 -9999.0 -9999.0 -9999.0 -9999.0 -9999.0 -9999.0 -9999.0 -9999.0 -9999.0 -9999.0 -9999.0 -9999.0 -9999.0 -9999.0 -9999.0 -9999.0 49.2 54.2 50.2 45.7 43.8 42.7 42.4 43.2 42.6 43.3 43.7 39.2 36.7 31.6 36.4 39.5 41.7 43.5 43.7 44.1 44.0 44.6 44.8 44.2 44.0 44.5 46.3 48.4 48.9 48.3 45.5 47.7 54.5 57.1 60.3 64.5 64.7 65.0 65.0 62.8 61.8 61.3 62.0 61.6 61.7 61.0 60.2 58.8 56.2 54.1 51.5 49.2 49.2 48.4 48.3 46.5 43.4 41.1 37.3 33.3 25.0 31.6 35.4 37.1 36.6 33.3 26.5 23.4 30.1 32.8 35.5 37.9 40.8 41.6 40.1 37.7 36.3 33.9 26.7 31.1 39.2 43.2 46.7 48.9 54.0 56.6 51.9 45.5 45.4 61.9 102.6 136.7 188.2 228.6 225.1 275.8 252.2 191.0 264.7 281.0 288.7 323.5 417.8 522.8 553.2 702.0 761.6 771.9 607.1 480.9 393.0 482.8 555.8 543.6 621.5 602.2 580.4 419.4 362.9 529.0 686.4 659.6 682.0 786.5 837.2 783.9 645.5 437.4 324.6 310.4 343.1 444.4 474.9 557.1 634.9 700.6 784.5 886.8 712.9 581.9 529.0 513.8 596.8 719.4 695.8 609.6 586.8 466.9 410.4 376.9 382.8 333.0 335.1 446.0 637.3 713.0 728.7 708.5 713.4 637.2 576.0 477.7 421.8 426.8 381.1 306.2 278.9 292.4 311.9 287.8 208.1 121.5 201.1 340.7 351.9 327.9 289.4 162.0 89.8 83.3 87.0 109.8 176.1 205.3 169.0 129.2 96.6 73.3 65.0 66.0 76.2 78.3 79.0 78.8 78.1 80.1 76.1 72.4 86.1 82.6 76.9 80.9 79.6 72.2 71.2 70.9 74.9 76.8 68.6 66.4 68.3 69.5 70.1 68.0 68.2 70.8 59.1 47.5 47.6 51.1 66.4 69.9 81.6 88.6 87.4 87.6 97.3 103.1 101.8 92.8 82.5 70.7 93.1 99.5 112.5 119.6 109.7 118.8 120.3 171.0 246.7 252.4 199.8 198.5 236.0 256.4 194.7 248.3 371.2 540.1 691.4 745.2 784.8 771.2 691.2 619.0 582.4 593.2 585.0 547.3 528.9 504.2 397.2 326.8 233.5 188.6 182.4 180.9 176.3 167.7 180.0 211.4 208.7 228.8 283.1 421.7 528.8 556.3 574.3 627.8 654.2 545.9 426.8 330.6 294.8 275.1 265.6 268.2 273.9 271.7 299.3 372.5 430.5 540.0 635.2 624.1 608.7 638.0 686.3 713.9 737.1 752.4 771.2 794.9 811.4 832.0 859.9 901.1 976.4 1146.0 1359.5 1412.1 1378.9 1350.5 1359.3 1433.1 1386.3 1484.8 1352.9 1157.7 1089.3 1086.6 1099.7 1088.5 1083.8 1065.3 1065.3 1112.5 1159.1 1219.0 1288.2 1227.0 1345.9 1431.9 1486.5 1546.2 1606.4 1616.6 1555.0 1536.7 1578.7 1581.2 1580.4 1552.5 1542.3 1519.7 1480.2 1457.3 1409.5 1355.3 1284.8 1182.7 1101.2 977.0 919.5 885.6 847.9 849.3 887.8 938.0 994.3 1036.2 1071.9 1089.9 1076.6 993.6 905.1 874.4 808.5
-9999.0 -9999.0 -9999.0 -9999.0 -9999.0 -9999.0 -9999.0 -9999.0 -9999.0 -9999.0 -9999.0 -9999.0 -9999.0 -9999.0 -9999.0 -9999.0 -9999.0 -9999.0 -9999.0 -9999.0 -9999.0 -9999.0 -9999.0 -9999.0 -9999.0 -9999.0 -9999.0 -9999.0 -9999.0 -9999.0 -9999.0 -9999.0 -9999.0 -9999.0 -9999.0 -9999.0 -9999.0 -9999.0 -9999.0 -9999.0 -9999.0 -9999.0 -9999.0 -9999.0 -9999.0 -9999.0 -9999.0 -9999.0 -9999.0 -9999.0 -9999.0 -9999.0 -9999.0 -9999.0 -9999.0 -9999.0 -9999.0 -9999.0 -9999.0 -9999.0 -9999.0 -9999.0 -9999.0 -9999.0 -9999.0 -9999.0 -9999.0 -9999.0 -9999.0 -9999.0 -9999.0 -9999.0 -9999.0 -9999.0 -9999.0 -9999.0 -9999.0 -9999.0 -9999.0 -9999.0 -9999.0 -9999.0 -9999.0 -9999.0 -9999.0 -9999.0 -9999.0 -9999.0 -9999.0 -9999.0 -9999.0 -9999.0 -9999.0 -9999.0 -9999.0 -9999.0 -9999.0 -9999.0 56.7 55.9 -9999.0 -9999.0 -9999.0 -9999.0 -9999.0 -9999.0 -9999.0 39.1 37.1 32.1 35.9 39.5 42.8 43.2 43.3 43.4 43.2 43.4 43.1 43.0 41.2 39.3 39.9 40.2 41.4 42.6 43.2 45.0 47.5 51.6 57.0 61.6 64.8 65.1 64.1 63.4 63.5 63.5 61.7 62.8 62.2 61.0 60.3 59.5 58.2 56.1 53.4 51.8 49.6 48.7 47.6 47.7 46.1 44.5 41.2 37.9 34.2 25.4 29.8 34.9 36.4 35.9 33.3 28.7 22.2 28.1 32.9 35.5 37.8 41.2 41.9 40.7 38.4 36.0 33.9 26.1 32.3 39.0 43.2 49.0 50.8 49.6 45.2 40.6 41.6 53.4 119.2 193.0 234.2 283.0 305.2 322.9 417.5 310.6 267.6 298.6 306.1 279.3 305.2 353.1 393.0 474.9 570.0 739.9 730.8 648.2 478.5 454.5 610.2 670.9 666.3 644.5 605.0 439.2 424.7 577.5 750.5 760.2 744.6 796.0 691.4 529.3 449.9 378.3 314.1 319.7 416.6 547.7 637.8 646.3 693.9 807.9 953.0 947.7 701.9 573.3 532.5 572.0 643.3 717.0 615.6 456.6 410.4 402.7 443.4 541.4 591.2 414.2 344.6 499.2 668.2 730.9 739.8 755.2 737.8 761.4 673.5 510.6 423.4 383.4 342.2 290.8 261.3 243.0 232.7 204.3 158.7 117.5 142.7 182.0 180.3 161.9 152.3 102.8 92.9 103.8 115.2 119.4 181.9 233.1 230.4 193.0 134.5 88.8 77.6 65.2 65.5 62.3 72.5 73.8 71.4 68.0 67.7 60.1 63.9 59.8 55.1 54.3 56.7 54.3 54.4 61.6 60.1 57.6 57.2 55.6 55.0 56.4 57.4 57.1 56.6 59.1 71.2 68.0 58.5 44.2 44.4 59.4 73.2 81.3 88.2 88.4 90.5 97.5 88.8 78.3 68.0 144.7 173.1 148.0 108.8 109.3 123.0 144.0 166.8 137.1 128.1 150.3 211.7 179.9 154.3 164.6 172.1 200.3 288.6 431.7 594.6 670.9 743.6 907.4 893.6 834.5 748.3 677.3 717.0 786.8 760.9 668.2 553.2 473.0 404.5 284.8 206.7 184.0 179.0 173.2 165.9 177.1 206.9 247.1 291.5 408.4 549.6 686.8 701.9 653.8 593.5 463.6 394.8 348.3 313.0 308.4 306.3 260.8 235.4 268.7 331.1 384.5 472.2 584.7 694.1 668.5 707.7 707.7 757.9 751.7 777.4 805.8 810.7 837.0 870.4 886.3 915.2 934.7 1027.8 1179.4 1314.7 1290.4 1286.7 1286.5 1288.8 1321.1 1266.5 1358.6 1278.2 1216.3 1169.7 1104.1 1062.8 1053.7 1046.8 1028.6 1027.7 1033.5 1040.1 1048.0 1070.6 1088.9 1118.9 1154.5 1190.1 1221.9 1301.9 1442.0 1465.2 1458.8 1482.8 1521.2 1524.1 1523.2 1511.5 1485.3 1450.2 1417.5 1345.5 1260.5 1177.8 1138.5 1083.2 956.5 927.8 911.0 937.4 917.5 926.2 974.5 1032.8 1075.9 1094.8 1064.6 1046.3 1023.5 976.8 937.4 859.5
-9999.0 -9999.0 -9999.0 -9999.0 -9999.0 -9999.0 -9999.0 -9999.0 -9999.0 -9999.0 -9999.0 -9999.0 -9999.0 -9999.0 -9999.0 -9999.0 -9999.0 -9999.0 -9999.0 -9999.0 -9999.0 -9999.0 -9999.0 -9999.0 -9999.0 -9999.0 -9999.0 -9999.0 -9999.0 -9999.0 -9999.0 -9999.0 -9999.0 -9999.0 -9999.0 -9999.0 -9999.0 -9999.0 -9999.0 -9999.0 -9999.0 -9999.0 -9999.0 -9999.0 -9999.0 -9999.0 -9999.0 -9999.0 -9999.0 -9999.0 -9999.0 -9999.0 -9999.0 -9999.0 -9999.0 -9999.0 -9999.0 -9999.0 -9999.0 -9999.0 -9999.0 -9999.0 -9999.0 -9999.0 -9999.0 -9999.0 -9999.0 -9999.0 -9999.0 -9999.0 -9999.0 -9999.0 -9999.0 -9999.0 -9999.0 -9999.0 -9999.0 -9999.0 -9999.0 -9999.0 -9999.0 -9999.0 -9999.0 -9999.0 -9999.0 -9999.0 -9999.0 -9999.0 -9999.0 -9999.0 -9999.0 -9999.0 -9999.0 -9999.0 -9999.0 -9999.0 -9999.0 -9999.0 -9999.0 -9999.0 -9999.0 -9999.0 -9999.0 -9999.0 -9999.0 -9999.0 -9999.0 -9999.0 -9999.0 -9999.0 -9999.0 -9999.0 -9999.0 -9999.0 -9999.0 -9999.0 -9999.0 -9999.0 42.6 41.8 38.2 32.7 31.2 34.9 35.4 34.2 35.9 44.0 49.6 49.7 51.3 56.7 59.6 62.9 64.0 64.3 65.3 64.6 63.2 62.3 62.7 61.8 62.2 62.1 59.3 57.7 56.6 54.2 51.7 50.4 49.6 46.9 46.8 46.9 45.3 41.6 38.6 35.3 26.7 26.7 33.4 35.2 35.5 34.5 31.5 24.1 25.5 32.1 35.2 37.6 39.6 41.3 40.6 38.7 36.1 33.4 24.3 36.1 41.7 47.1 51.0 48.2 44.9 39.4 39.3 46.1 78.0 189.7 218.6 259.9 293.9 357.6 460.8 406.3 387.9 403.8 450.3 326.3 309.7 352.2 390.0 419.8 444.3 526.2 605.2 758.1 648.4 540.3 547.5 682.0 716.2 668.4 545.9 489.2 561.5 618.8 733.4 828.4 714.4 585.7 506.7 413.6 370.1 355.2 381.0 357.7 357.7 399.3 457.6 561.2 688.3 787.5 917.1 873.1 667.7 573.7 536.0 506.2 537.9 592.8 493.5 390.1 438.4 573.8 684.3 759.7 621.5 457.4 359.9 423.1 594.5 704.9 713.3 726.7 757.1 765.7 769.7 641.5 513.3 443.2 359.7 290.0 259.1 260.4 251.6 178.5 144.0 133.1 105.4 100.2 99.3 95.7 96.7 105.3 115.9 118.2 131.6 143.3 188.6 295.1 299.0 261.7 173.5 113.7 85.8 71.1 61.3 61.1 62.7 59.9 59.5 59.7 57.2 59.0 55.1 54.1 59.8 62.6 56.0 53.4 51.6 53.4 48.9 50.5 50.0 51.2 51.2 49.0 51.9 55.5 51.7 50.5 49.9 53.2 57.1 48.5 47.5 44.6 54.2 78.3 84.3 79.3 91.2 87.5 73.0 64.3 66.9 228.5 362.8 284.7 208.6 171.1 135.8 130.7 153.2 153.8 150.4 157.7 146.9 136.5 143.5 159.0 172.4 203.2 258.0 334.6 435.7 537.8 691.5 782.2 923.9 1032.0 970.9 814.0 737.9 781.7 831.4 758.6 644.6 586.7 533.8 365.1 280.2 258.4 183.1 173.7 164.5 169.7 190.9 221.8 284.5 382.6 510.0 670.6 710.2 690.0 627.9 467.1 333.9 285.3 280.8 303.4 292.5 253.0 232.8 307.3 334.5 394.8 517.2 631.0 604.7 647.5 767.8 827.3 911.8 932.1 927.2 909.2 917.2 935.6 996.5 1021.6 1082.5 1113.5 1230.6 1265.2 1308.8 1306.4 1286.6 1286.4 1287.0 1260.1 1228.7 1217.8 1199.6 1198.8 1202.4 1195.7 1129.1 1084.9 1052.4 1028.0 1026.5 1025.9 1026.0 1027.0 1032.4 1045.0 1047.9 1045.5 1052.7 1059.7 1094.3 1219.4 1372.3 1405.3 1410.4 1428.5 1430.7 1425.0 1443.7 1457.5 1424.3 1437.4 1383.8 1313.5 1247.7 1130.9 1002.6 916.3 887.1 890.7 938.0 982.1 1007.2 1028.3 1072.1 1122.6 1165.1 1163.0 1139.1 1094.6 1034.4 965.7 882.9
-9999.0 -9999.0 -9999.0 -9999.0 -9999.0 -9999.0 -9999.0 -9999.0 -9999.0 -9999.0 -9999.0 -9999.0 -9999.0 -9999.0 -9999.0 -9999.0 -9999.0 -9999.0 -9999.0 -9999.0 -9999.0 -9999.0 -9999.0 -9999.0 -9999.0 -9999.0 -9999.0 -9999.0 -9999.0 -9999.0 -9999.0 -9999.0 -9999.0 -9999.0 -9999.0 -9999.0 -9999.0 -9999.0 -9999.0 -9999.0 -9999.0 -9999.0 -9999.0 -9999.0 -9999.0 -9999.0 -9999.0 -9999.0 -9999.0 -9999.0 -9999.0 -9999.0 -9999.0 -9999.0 -9999.0 -9999.0 -9999.0 -9999.0 -9999.0 -9999.0 -9999.0 -9999.0 -9999.0 -9999.0 -9999.0 -9999.0 -9999.0 -9999.0 -9999.0 -9999.0 -9999.0 -9999.0 -9999.0 -9999.0 -9999.0 -9999.0 -9999.0 -9999.0 -9999.0 -9999.0 -9999.0 -9999.0 -9999.0 -9999.0 -9999.0 -9999.0 -9999.0 -9999.0 -9999.0 -9999.0 -9999.0 -9999.0 -9999.0 -9999.0 -9999.0 -9999.0 -9999.0 -9999.0 -9999.0 -9999.0 -9999.0 -9999.0 -9999.0 -9999.0 -9999.0 -9999.0 -9999.0 -9999.0 -9999.0 -9999.0 -9999.0 -9999.0 -9999.0 -9999.0 -9999.0 -9999.0 -9999.0 -9999.0 -9999.0 -9999.0 -9999.0 26.2 25.0 25.5 25.6 25.2 28.2 37.7 42.1 47.2 50.7 52.9 55.2 57.4 60.5 63.2 64.0 64.2 63.8 62.9 62.8 62.5 62.8 61.5 61.7 61.5 59.9 56.7 54.9 53.1 52.1 49.9 48.4 47.7 48.6 46.5 44.0 38.2 34.8 28.9 25.0 32.6 35.3 36.5 35.6 33.4 28.2 23.7 31.1 34.6 36.5 38.8 40.7 40.6 39.0 37.0 28.3 34.3 40.9 47.8 49.8 46.7 43.1 38.4 38.3 45.9 58.1 89.4 148.3 195.6 356.0 453.3 499.9 543.1 543.5 543.1 589.4 459.8 354.8 450.9 573.2 614.6 530.4 488.3 595.4 775.1 859.2 751.6 644.8 742.5 805.9 707.3 660.1 682.9 756.0 877.4 885.5 827.8 624.2 508.4 467.2 446.9 461.5 494.7 632.6 576.9 447.9 382.9 478.2 674.6 806.1 925.0 953.2 758.8 571.0 506.8 489.0 472.3 436.9 436.0 429.3 374.2 473.7 678.8 842.9 846.6 735.6 578.6 431.7 374.9 484.1 671.5 778.9 800.5 764.7 741.7 764.4 788.4 640.6 482.3 403.2 327.3 279.9 261.3 222.5 181.0 151.7 137.8 119.7 110.7 103.2 106.2 118.4 115.4 124.7 130.3 149.0 198.1 267.4 324.0 365.7 355.3 251.5 139.3 93.9 85.9 78.6 70.8 59.1 61.0 76.2 74.7 66.6 62.9 63.7 64.7 68.8 69.1 67.6 66.8 55.3 49.4 63.5 82.9 103.1 122.3 75.4 65.7 55.5 53.6 53.4 47.0 45.9 48.2 49.6 49.5 52.0 46.3 46.6 66.7 73.6 70.9 75.4 65.4 52.3 54.2 72.1 201.5 400.4 502.9 455.0 406.6 350.8 260.9 193.5 182.7 186.0 180.2 163.2 156.4 155.7 146.0 169.9 200.8 240.2 317.9 415.8 532.9 661.2 786.7 977.8 1146.5 1030.3 860.1 753.6 759.9 762.1 721.4 601.0 519.2 474.5 426.5 438.5 378.5 256.6 173.1 161.3 168.0 171.0 196.2 253.7 369.9 474.5 585.6 667.4 679.6 621.1 475.4 357.9 280.6 228.3 216.7 211.3 212.1 252.1 366.1 410.2 372.2 431.7 490.9 509.4 618.5 693.9 797.5 926.1 1020.4 1022.9 1030.6 993.7 1031.9 1137.2 1160.3 1224.7 1256.1 1273.2 1311.1 1335.7 1340.5 1322.9 1333.1 1336.0 1352.8 1342.4 1312.0 1274.7 1264.0 1236.6 1237.3 1229.7 1165.7 1138.7 1075.8 1042.4 1034.4 1033.9 1031.3 1029.2 1034.4 1036.5 1035.2 1035.9 1037.7 1042.6 1066.5 1141.0 1207.6 1264.7 1289.8 1322.2 1428.6 1471.9 1468.1 1381.7 1398.0 1362.7 1300.8 1211.9 1067.7 976.3 946.8 934.5 912.4 962.7 1038.6 1085.0 1105.7 1142.2 1207.6 1259.3 1284.5 1274.4 1220.2 1128.6 1043.6 948.8
-9999.0 -9999.0 -9999.0 -9999.0 -9999.0 -9999.0 -9999.0 -9999.0 -9999.0 -9999.0 -9999.0 -9999.0 -9999.0 -9999.0 -9999.0 -9999.0 -9999.0 -9999.0 -9999.0 -9999.0 -9999.0 -9999.0 -9999.0 -9999.0 -9999.0 -9999.0 -9999.0 -9999.0 -9999.0 -9999.0 -9999.0 -9999.0 -9999.0 -9999.0 -9999.0 -9999.0 -9999.0 -9999.0 -9999.0 -9999.0 -9999.0 -9999.0 -9999.0 -9999.0 -9999.0 -9999.0 -9999.0 -9999.0 -9999.0 -9999.0 -9999.0 -9999.0 -9999.0 -9999.0 -9999.0 -9999.0 -9999.0 -9999.0 -9999.0 -9999.0 -9999.0 -9999.0 -9999.0 -9999.0 -9999.0 -9999.0 -9999.0 -9999.0 -9999.0 -9999.0 -9999.0 -9999.0 -9999.0 -9999.0 -9999.0 -9999.0 -9999.0 -9999.0 -9999.0 -9999.0 -9999.0 -9999.0 -9999.0 -9999.0 -9999.0 -9999.0 -9999.0 -9999.0 -9999.0 -9999.0 -9999.0 -9999.0 -9999.0 -9999.0 -9999.0 -9999.0 -9999.0 -9999.0 -9999.0 -9999.0 -9999.0 -9999.0 -9999.0 -9999.0 -9999.0 -9999.0 -9999.0 -9999.0 -9999.0 -9999.0 -9999.0 -9999.0 -9999.0 -9999.0 -9999.0 -9999.0 -9999.0 -9999.0 -9999.0 -9999.0 -9999.0 -9999.0 -9999.0 25.9 25.1 25.0 26.4 34.2 36.3 39.2 43.1 48.5 52.8 54.8 58.8 60.4 62.9 64.2 64.5 65.1 63.7 62.6 63.8 63.3 61.5 61.4 61.7 59.7 57.4 55.4 54.6 52.6 51.5 49.9 49.6 48.7 46.0 42.3 38.4 35.6 31.7 24.5 31.4 34.9 37.3 38.0 35.2 31.4 23.1 28.7 33.7 35.0 37.9 41.4 39.1 36.0 26.9 34.1 40.3 45.7 47.9 45.7 41.4 35.4 38.0 46.6 59.9 76.2 96.3 129.4 232.9 351.8 495.4 630.2 675.0 643.0 618.0 606.2 474.4 441.9 585.3 759.8 707.4 613.2 603.3 754.9 961.1 973.4 857.3 847.9 836.9 691.5 717.9 766.5 858.2 968.1 939.0 746.0 618.0 632.0 706.8 687.2 708.8 696.1 646.7 553.0 499.1 449.8 460.5 538.2 663.9 829.3 741.4 544.1 425.3 356.4 375.9 413.4 452.4 376.1 377.3 419.7 444.2 601.6 808.2 826.1 769.3 678.0 535.8 398.6 430.0 579.0 737.3 885.8 855.7 757.3 753.9 864.0 772.5 605.7 453.4 337.4 281.8 241.5 196.0 170.2 156.2 138.6 127.9 127.9 117.5 187.1 223.0 142.5 127.5 137.3 144.8 206.4 347.0 463.0 576.8 535.6 435.3 262.2 136.3 96.1 88.9 82.7 80.2 78.8 82.6 81.8 79.8 78.6 76.7 76.6 76.9 76.1 75.2 72.0 69.9 64.7 90.8 100.2 129.0 197.7 156.2 97.0 69.6 62.8 61.0 59.8 56.7 52.5 45.9 52.0 46.5 50.6 47.6 42.2 44.1 49.5 50.0 46.0 56.0 70.4 90.1 182.7 364.9 506.9 575.4 599.6 584.9 520.7 387.4 286.7 269.8 229.7 188.7 178.4 169.7 157.4 163.4 177.5 198.3 257.9 362.5 545.8 745.9 925.4 1038.0 1096.9 1029.2 919.0 772.8 718.8 733.7 646.8 584.8 515.8 537.3 557.1 525.0 484.5 378.9 201.3 160.2 166.2 168.1 172.4 224.2 364.2 381.4 458.0 534.0 620.6 598.8 508.2 391.1 289.5 218.3 223.1 264.0 291.1 327.6 409.8 470.0 434.9 434.0 451.9 499.1 584.1 701.9 791.5 826.0 906.6 988.7 1106.3 1166.0 1179.1 1184.1 1221.9 1243.3 1248.4 1244.9 1233.4 1226.0 1214.6 1204.4 1172.0 1126.3 1172.2 1255.3 1256.1 1220.9 1230.9 1249.9 1261.5 1255.3 1202.0 1167.7 1141.2 1108.9 1112.9 1157.8 1157.9 1151.0 1119.2 1090.2 1064.4 1115.8 1073.5 1051.1 1058.3 1081.7 1144.3 1189.0 1195.4 1224.8 1251.9 1286.3 1337.4 1305.4 1262.3 1186.0 1134.0 1059.8 1032.5 1038.7 1012.5 986.4 940.4 962.1 1021.1 1091.7 1159.5 1226.1 1297.4 1365.5 1387.7 1396.3 1335.6 1213.9 1098.9 1016.6
-9999.0 -9999.0 -9999.0 -9999.0 -9999.0 -9999.0 -9999.0 -9999.0 -9999.0 -9999.0 -9999.0 -9999.0 -9999.0 -9999.0 -9999.0 -9999.0 -9999.0 -9999.0 -9999.0 -9999.0 -9999.0 -9999.0 -9999.0 -9999.0 -9999.0 -9999.0 -9999.0 -9999.0 -9999.0 -9999.0 -9999.0 -9999.0 -9999.0 -9999.0 -9999.0 -9999.0 -9999.0 -9999.0 -9999.0 -9999.0 -9999.0 -9999.0 -9999.0 -9999.0 -9999.0 -9999.0 -9999.0 -9999.0 -9999.0 -9999.0 -9999.0 -9999.0 -9999.0 -9999.0 -9999.0 -9999.0 -9999.0 -9999.0 -9999.0 -9999.0 -9999.0 -9999.0 -9999.0 -9999.0 -9999.0 -9999.0 -9999.0 -9999.0 -9999.0 -9999.0 -9999.0 -9999.0 -9999.0 -9999.0 -9999.0 -9999.0 -9999.0 -9999.0 -9999.0 -9999.0 -9999.0 -9999.0 -9999.0 -9999.0 -9999.0 -9999.0 -9999.0 -9999.0 -9999.0 -9999.0 -9999.0 -9999.0 -9999.0 -9999.0 -9999.0 -9999.0 -9999.0 -9999.0 -9999.0 -9999.0 -9999.0 -9999.0 -9999.0 -9999.0 -9999.0 -9999.0 -9999.0 -9999.0 -9999.0 -9999.0 -9999.0 -9999.0 -9999.0 -9999.0 -9999.0 -9999.0 -9999.0 -9999.0 -9999.0 -9999.0 -9999.0 -9999.0 -9999.0 -9999.0 -9999.0 -9999.0 25.0 25.3 26.7 33.0 37.9 41.1 47.2 51.3 54.4 58.2 59.6 62.2 66.2 65.8 63.9 64.5 64.8 62.5 62.6 62.6 61.8 60.3 59.3 57.8 56.5 54.9 53.5 54.0 51.9 50.1 48.1 45.0 43.9 40.4 37.1 33.9 25.5 30.0 35.4 37.9 38.6 36.0 34.2 26.4 25.5 31.3 34.3 37.7 37.4 33.1 23.5 36.6 42.1 45.5 46.8 44.0 40.2 31.2 40.3 46.3 57.2 73.4 95.1 130.3 163.9 205.0 310.3 438.0 614.5 750.7 735.0 723.6 725.1 638.7 586.4 657.3 825.3 860.3 773.9 766.7 822.1 856.3 847.7 737.5 688.9 624.9 533.1 542.7 675.9 785.2 779.3 801.1 824.8 798.5 736.4 565.8 584.2 548.8 461.3 500.1 505.7 583.4 640.9 611.2 582.9 652.4 512.5 369.2 297.0 264.2 286.2 319.1 410.0 409.5 458.2 475.9 435.3 546.9 742.7 830.4 709.2 588.9 499.0 420.2 437.1 571.5 713.6 782.5 798.1 822.5 807.1 816.4 833.6 723.5 529.5 405.7 323.6 255.3 219.7 194.6 166.0 145.9 136.4 128.9 187.2 336.5 410.4 273.9 147.2 142.5 154.9 167.7 220.8 389.4 610.8 744.9 641.6 418.8 203.4 116.9 113.5 103.7 112.3 104.7 110.9 116.2 100.6 120.4 134.1 111.1 106.3 101.3 89.4 84.6 86.7 76.8 102.2 139.3 135.3 196.5 221.5 115.1 77.6 73.1 70.7 79.0 76.1 62.9 57.0 56.1 53.9 55.7 59.2 67.4 46.6 41.7 43.2 51.9 73.2 89.4 108.7 155.0 258.9 399.3 497.4 538.0 578.4 576.8 583.8 494.8 425.4 383.9 318.1 221.1 175.3 157.4 176.8 180.2 185.3 220.2 286.8 437.3 608.8 705.9 808.9 843.7 876.8 844.1 754.9 693.0 711.8 710.5 659.9 615.8 688.1 726.7 642.7 562.6 432.8 290.5 161.9 157.0 165.2 165.6 174.8 253.5 292.8 334.9 409.8 542.1 541.0 486.8 441.3 344.7 196.1 216.5 299.0 320.2 324.2 416.3 505.3 463.4 505.5 571.3 596.2 717.6 765.7 740.0 773.1 844.9 900.8 1011.3 1089.4 1102.0 1149.0 1259.1 1271.1 1287.2 1281.5 1239.1 1159.9 1128.0 1089.6 1074.4 1034.0 976.1 1063.2 1025.7 1106.5 1156.9 1157.2 1170.0 1221.7 1212.2 1230.5 1231.7 1220.6 1250.3 1277.1 1277.5 1253.2 1241.6 1195.9 1132.9 1174.2 1185.6 1134.9 1132.3 1129.0 1083.0 1087.4 1099.0 1119.8 1163.4 1207.3 1277.4 1317.2 1274.1 1175.1 1083.2 1106.4 1138.4 1119.3 1091.5 1051.3 996.3 982.6 1033.8 1099.8 1191.0 1287.6 1376.4 1390.4 1385.6 1404.0 1388.0 1307.0 1188.3 1055.2
-9999.0 -9999.0 -9999.0 -9999.0 -9999.0 -9999.0 -9999.0 -9999.0 -9999.0 -9999.0 -9999.0 -9999.0 -9999.0 -9999.0 -9999.0 -9999.0 -9999.0 -9999.0 -9999.0 -9999.0 -9999.0 -9999.0 -9999.0 -9999.0 -9999.0 -9999.0 -9999.0 -9999.0 -9999.0 -9999.0 -9999.0 -9999.0 -9999.0 -9999.0 -9999.0 -9999.0 -9999.0 -9999.0 -9999.0 -9999.0 -9999.0 -9999.0 -9999.0 -9999.0 -9999.0 -9999.0 -9999.0 -9999.0 -9999.0 -9999.0 -9999.0 -9999.0 -9999.0 -9999.0 -9999.0 -9999.0 -9999.0 -9999.0 -9999.0 -9999.0 -9999.0 -9999.0 -9999.0 -9999.0 -9999.0 -9999.0 -9999.0 -9999.0 -9999.0 -9999.0 -9999.0 -9999.0 -9999.0 -9999.0 -9999.0 -9999.0 -9999.0 -9999.0 -9999.0 -9999.0 -9999.0 -9999.0 -9999.0 -9999.0 -9999.0 -9999.0 -9999.0 -9999.0 -9999.0 -9999.0 -9999.0 -9999.0 -9999.0 -9999.0 -9999.0 -9999.0 -9999.0 -9999.0 -9999.0 -9999.0 -9999.0 -9999.0 -9999.0 -9999.0 -9999.0 -9999.0 -9999.0 -9999.0 -9999.0 -9999.0 -9999.0 -9999.0 -9999.0 -9999.0 -9999.0 -9999.0 -9999.0 -9999.0 -9999.0 -9999.0 -9999.0 -9999.0 -9999.0 -9999.0 -9999.0 -9999.0 -9999.0 -9999.0 25.0 25.5 31.9 38.7 41.4 43.7 48.1 54.2 57.3 60.1 60.9 62.3 62.4 62.8 63.7 63.8 65.0 64.0 63.4 61.9 58.7 59.0 59.2 57.2 57.1 56.2 54.6 52.0 50.1 47.8 46.0 44.0 41.3 38.7 36.5 28.4 27.6 35.1 36.6 38.6 37.1 34.2 29.3 22.9 30.6 34.1 35.9 30.9 28.5 39.4 42.5 45.7 43.9 41.1 38.3 29.3 41.8 47.4 57.9 74.9 107.3 152.4 210.9 250.4 262.9 318.2 460.0 609.7 731.9 812.2 681.0 609.7 669.5 651.8 685.6 791.8 752.0 708.3 572.3 568.5 611.5 614.0 524.7 608.5 548.6 422.9 534.3 574.2 609.0 700.4 731.5 784.5 601.4 424.7 361.8 460.8 345.7 310.2 436.0 627.4 716.9 686.1 538.9 432.9 288.5 236.8 214.3 276.9 371.1 392.7 402.1 394.0 488.3 450.6 432.4 489.1 616.6 792.1 786.1 710.1 582.1 448.5 451.6 511.7 553.2 595.7 692.4 769.7 836.4 850.6 789.5 759.9 675.7 541.3 394.7 275.5 204.7 181.9 174.1 186.4 150.0 161.1 283.3 366.5 444.3 295.0 161.6 160.1 167.5 175.1 193.5 287.9 404.1 540.8 547.5 473.9 258.4 153.2 168.4 171.1 177.4 152.3 165.4 147.4 164.1 172.9 282.7 274.0 247.1 213.9 156.1 110.9 103.6 88.4 114.3 178.7 175.1 221.2 253.3 188.0 111.1 94.2 89.7 80.5 76.7 70.2 79.4 67.0 64.5 64.8 69.9 102.0 59.7 42.6 57.3 76.1 98.8 120.4 158.6 216.5 312.7 445.6 581.9 664.9 771.5 773.1 795.8 757.3 714.0 628.7 407.9 229.9 198.3 177.3 188.3 201.2 216.7 204.0 222.6 304.5 386.0 508.0 592.3 643.9 686.3 702.1 689.2 682.2 739.0 832.2 842.3 782.8 697.0 696.9 621.2 488.0 429.3 284.6 171.4 156.8 161.2 163.4 164.0 187.6 229.1 273.9 293.3 307.8 296.2 290.4 291.7 231.2 187.9 217.8 240.8 246.2 231.4 283.8 354.3 402.0 442.1 531.3 619.8 767.1 810.4 747.5 705.0 722.9 772.5 816.7 926.0 1043.7 1157.4 1182.2 1244.3 1252.6 1177.7 1132.2 1045.8 1001.8 958.1 920.9 882.7 853.0 850.9 837.6 884.1 928.8 986.5 980.0 1007.5 1057.6 1149.9 1188.5 1229.9 1241.4 1268.6 1256.3 1225.2 1216.3 1121.3 1068.3 1086.9 1083.8 1052.5 1074.7 1136.4 1152.7 1181.8 1185.3 1187.0 1223.1 1227.1 1282.9 1391.7 1382.9 1336.2 1240.9 1267.5 1290.9 1236.3 1219.7 1191.2 1154.0 1126.6 1077.6 1114.5 1187.0 1282.4 1379.6 1424.2 1387.8 1369.3 1343.8 1238.1 1137.9 1034.3
-9999.0 -9999.0 -9999.0 -9999.0 -9999.0 -9999.0 -9999.0 -9999.0 -9999.0 -9999.0 -9999.0 -9999.0 -9999.0 -9999.0 -9999.0 -9999.0 -9999.0 -9999.0 -9999.0 -9999.0 -9999.0 -9999.0 -9999.0 -9999.0 -9999.0 -9999.0 -9999.0 -9999.0 -9999.0 -9999.0 -9999.0 -9999.0 -9999.0 -9999.0 -9999.0 -9999.0 -9999.0 -9999.0 -9999.0 -9999.0 -9999.0 -9999.0 -9999.0 -9999.0 -9999.0 -9999.0 -9999.0 -9999.0 -9999.0 -9999.0 -9999.0 -9999.0 -9999.0 -9999.0 -9999.0 -9999.0 -9999.0 -9999.0 -9999.0 -9999.0 -9999.0 -9999.0 -9999.0 -9999.0 -9999.0 -9999.0 -9999.0 -9999.0 -9999.0 -9999.0 -9999.0 -9999.0 -9999.0 -9999.0 -9999.0 -9999.0 -9999.0 -9999.0 -9999.0 -9999.0 -9999.0 -9999.0 -9999.0 -9999.0 -9999.0 -9999.0 -9999.0 -9999.0 -9999.0 -9999.0 -9999.0 -9999.0 -9999.0 -9999.0 -9999.0 -9999.0 -9999.0 -9999.0 -9999.0 -9999.0 -9999.0 -9999.0 -9999.0 -9999.0 -9999.0 -9999.0 -9999.0 -9999.0 -9999.0 -9999.0 -9999.0 -9999.0 -9999.0 -9999.0 -9999.0 -9999.0 -9999.0 -9999.0 -9999.0 -9999.0 -9999.0 -9999.0 -9999.0 -9999.0 -9999.0 -9999.0 -9999.0 -9999.0 -9999.0 -9999.0 26.8 37.5 36.9 37.3 39.5 46.1 51.1 53.8 57.2 57.4 57.4 58.9 60.9 62.9 65.0 68.1 69.0 66.2 63.8 61.4 61.2 61.3 59.7 57.9 55.4 54.3 52.5 50.0 48.3 46.9 44.9 42.4 39.1 37.0 31.3 25.4 33.4 36.4 38.7 38.1 36.5 33.2 25.5 24.7 31.6 27.9 33.5 39.3 43.4 44.4 41.5 38.6 30.2 35.0 42.5 49.9 58.8 81.6 143.0 202.4 233.4 312.5 351.6 390.4 424.8 490.8 624.8 753.8 619.3 434.4 421.6 419.6 536.4 662.7 563.2 593.0 571.5 431.5 425.2 510.2 493.9 422.0 408.2 398.6 308.7 383.4 510.6 561.6 459.7 527.4 542.7 434.1 280.8 258.3 266.3 309.8 469.8 481.8 481.3 507.0 358.4 216.8 228.4 225.0 220.2 314.5 405.7 511.2 452.9 387.3 405.6 418.9 450.7 503.3 508.9 663.5 786.1 762.9 607.9 444.7 435.1 555.4 603.3 599.1 720.4 806.1 863.6 905.2 889.4 837.1 794.6 716.1 544.7 378.2 241.6 201.6 233.9 244.9 169.2 190.2 335.0 393.2 407.0 258.4 187.5 208.2 288.2 277.6 228.2 234.2 266.3 348.8 336.5 313.7 238.0 218.0 229.1 253.5 271.9 241.6 213.8 181.4 252.8 212.2 262.8 320.0 340.7 371.3 343.5 230.5 169.3 121.8 157.5 220.1 267.5 315.4 357.3 359.1 214.5 114.2 89.9 114.6 98.6 88.1 103.1 85.5 76.2 76.6 93.9 127.8 92.2 45.5 47.3 73.7 108.2 136.4 174.9 232.4 295.6 383.7 481.7 597.8 733.1 802.0 861.4 933.4 805.8 587.3 397.7 273.2 221.7 189.8 201.9 216.1 233.7 238.3 215.8 227.6 271.2 405.9 506.1 546.8 598.9 672.3 729.9 710.0 677.9 712.7 743.3 821.7 710.0 642.6 526.4 375.9 320.3 222.0 171.3 155.7 154.1 159.9 159.8 170.4 197.5 205.2 210.6 210.5 210.0 250.3 276.1 199.5 186.6 221.8 202.4 189.8 186.8 216.2 260.4 292.6 353.0 446.7 555.3 707.1 803.6 745.3 660.2 694.2 794.8 860.1 883.7 963.7 1046.4 1190.3 1206.6 1197.2 1118.6 1064.5 1078.0 1081.5 1030.6 966.7 901.6 877.2 865.9 843.6 801.2 685.4 684.8 836.7 823.5 885.6 918.9 916.2 962.3 1007.4 1042.3 1080.0 1075.2 1051.7 981.3 953.5 945.3 991.6 1015.5 1049.7 1118.3 1175.2 1221.1 1307.3 1369.5 1390.9 1343.8 1312.8 1432.9 1547.3 1561.2 1539.1 1479.4 1549.5 1574.7 1577.1 1505.9 1523.0 1451.7 1315.5 1207.5 1217.2 1286.4 1365.2 1377.2 1348.9 1320.2 1256.1 1184.0 1123.3 1076.4
-9999.0 -9999.0 -9999.0 -9999.0 -9999.0 -9999.0 -9999.0 -9999.0 -9999.0 -9999.0 -9999.0 -9999.0 -9999.0 -9999.0 -9999.0 -9999.0 -9999.0 -9999.0 -9999.0 -9999.0 -9999.0 -9999.0 -9999.0 -9999.0 -9999.0 -9999.0 -9999.0 -9999.0 -9999.0 -9999.0 -9999.0 -9999.0 -9999.0 -9999.0 -9999.0 -9999.0 -9999.0 -9999.0 -9999.0 -9999.0 -9999.0 -9999.0 -9999.0 -9999.0 -9999.0 -9999.0 -9999.0 -9999.0 -9999.0 -9999.0 -9999.0 -9999.0 -9999.0 -9999.0 -9999.0 -9999.0 -9999.0 -9999.0 -9999.0 -9999.0 -9999.0 -9999.0 -9999.0 -9999.0 -9999.0 -9999.0 -9999.0 -9999.0 -9999.0 -9999.0 -9999.0 -9999.0 -9999.0 -9999.0 -9999.0 -9999.0 -9999.0 -9999.0 -9999.0 -9999.0 -9999.0 -9999.0 -9999.0 -9999.0 -9999.0 -9999.0 -9999.0 -9999.0 -9999.0 -9999.0 -9999.0 -9999.0 -9999.0 -9999.0 -9999.0 -9999.0 -9999.0 -9999.0 -9999.0 -9999.0 -9999.0 -9999.0 -9999.0 -9999.0 -9999.0 -9999.0 -9999.0 -9999.0 -9999.0 -9999.0 -9999.0 -9999.0 -9999.0 -9999.0 -9999.0 -9999.0 -9999.0 -9999.0 -9999.0 -9999.0 -9999.0 -9999.0 -9999.0 -9999.0 -9999.0 -9999.0 -9999.0 -9999.0 -9999.0 -9999.0 -9999.0 32.6 28.7 29.1 33.6 38.5 44.3 50.0 53.8 55.3 57.0 59.0 60.8 62.3 65.9 69.9 70.9 70.4 67.7 65.7 64.3 63.2 61.4 59.1 57.8 55.4 53.6 51.9 50.3 49.3 47.5 45.1 43.1 40.1 38.2 34.0 25.3 31.6 36.7 38.5 38.8 37.6 34.9 31.5 24.3 22.1 34.8 39.8 43.5 42.0 38.2 34.9 28.7 39.9 43.9 52.8 72.5 90.8 135.9 220.8 334.6 371.6 392.3 463.3 514.8 561.1 631.8 690.3 603.3 415.8 306.3 310.6 387.9 522.9 533.7 472.2 573.8 456.1 321.3 303.0 380.1 408.6 275.5 249.1 215.2 305.9 518.6 596.0 423.8 281.1 284.3 395.5 346.4 175.4 173.2 275.3 289.2 252.7 248.6 208.7 159.8 147.9 310.5 327.1 237.3 281.6 372.4 500.0 451.6 402.9 415.0 463.2 545.4 600.7 575.9 576.3 741.3 745.2 626.4 479.2 413.8 456.6 596.8 669.5 784.6 908.1 936.7 987.9 977.8 1004.2 923.0 866.6 690.8 478.7 314.4 240.0 288.4 306.1 205.5 268.1 384.2 488.3 336.5 272.1 299.8 353.6 366.6 446.6 484.9 378.2 324.7 372.5 367.3 314.4 294.4 282.7 289.7 311.8 333.2 316.8 218.8 185.0 240.0 293.9 285.8 290.4 341.3 398.6 481.8 452.1 296.0 202.9 184.3 259.1 280.1 302.6 350.8 379.3 315.0 158.4 109.8 167.7 206.9 141.7 119.5 122.1 95.3 105.7 127.2 146.3 88.6 51.4 40.4 68.0 91.3 105.1 203.7 297.0 344.1 388.6 444.0 517.1 627.5 725.8 801.6 861.9 714.1 505.9 350.0 262.0 219.5 188.4 215.1 229.4 236.0 245.7 234.8 227.2 238.6 355.7 472.1 549.2 600.9 644.8 671.3 627.7 622.8 623.9 585.8 659.1 532.6 462.2 408.3 279.6 222.1 187.1 173.7 159.1 153.5 154.4 150.1 153.1 159.5 177.1 177.9 185.6 195.8 217.0 208.7 187.8 163.9 205.9 179.1 168.5 185.9 223.5 228.9 256.3 282.0 346.6 447.9 570.4 600.0 528.4 576.3 727.2 885.2 987.4 1060.9 1088.7 1097.2 1174.5 1115.1 1087.6 1079.4 1128.3 1136.6 1200.4 1169.1 1081.7 1016.7 979.4 937.2 937.8 914.6 757.0 567.9 711.2 715.7 731.8 736.3 722.8 701.6 703.3 859.0 945.6 977.2 909.7 820.6 828.7 999.0 1082.5 1064.3 1065.4 1159.8 1301.1 1340.2 1360.9 1365.9 1463.1 1529.0 1448.5 1382.8 1445.4 1526.7 1602.1 1619.1 1745.8 1788.5 1804.6 1777.3 1738.8 1690.5 1543.6 1410.7 1327.6 1296.0 1285.8 1259.2 1239.6 1240.5 1252.3 1244.9 1201.0 1181.2
-9999.0 -9999.0 -9999.0 -9999.0 -9999.0 -9999.0 -9999.0 -9999.0 -9999.0 -9999.0 -9999.0 -9999.0 -9999.0 -9999.0 -9999.0 -9999.0 -9999.0 -9999.0 -9999.0 -9999.0 -9999.0 -9999.0 -9999.0 -9999.0 -9999.0 -9999.0 -9999.0 -9999.0 -9999.0 -9999.0 -9999.0 -9999.0 -9999.0 -9999.0 -9999.0 -9999.0 -9999.0 -9999.0 -9999.0 -9999.0 -9999.0 -9999.0 -9999.0 -9999.0 -9999.0 -9999.0 -9999.0 -9999.0 -9999.0 -9999.0 -9999.0 -9999.0 -9999.0 -9999.0 -9999.0 -9999.0 -9999.0 -9999.0 -9999.0 -9999.0 -9999.0 -9999.0 -9999.0 -9999.0 -9999.0 -9999.0 -9999.0 -9999.0 -9999.0 -9999.0 -9999.0 -9999.0 -9999.0 -9999.0 -9999.0 -9999.0 -9999.0 -9999.0 -9999.0 -9999.0 -9999.0 -9999.0 -9999.0 -9999.0 -9999.0 -9999.0 -9999.0 -9999.0 -9999.0 -9999.0 -9999.0 -9999.0 -9999.0 -9999.0 -9999.0 -9999.0 -9999.0 -9999.0 -9999.0 -9999.0 -9999.0 -9999.0 -9999.0 -9999.0 -9999.0 -9999.0 -9999.0 -9999.0 -9999.0 -9999.0 -9999.0 -9999.0 -9999.0 -9999.0 -9999.0 -9999.0 -9999.0 -9999.0 -9999.0 -9999.0 -9999.0 -9999.0 -9999.0 -9999.0 -9999.0 -9999.0 -9999.0 -9999.0 -9999.0 -9999.0 -9999.0 -9999.0 -9999.0 28.1 31.8 38.2 42.4 45.0 48.9 55.8 58.5 60.3 61.9 63.7 65.6 69.6 70.3 70.6 69.5 64.3 63.0 62.9 61.5 61.4 58.9 56.3 54.8 54.0 53.5 52.2 49.6 48.8 46.9 44.5 41.1 38.8 35.8 27.2 29.9 35.6 36.9 39.2 38.4 38.1 34.6 26.1 30.9 38.5 40.6 38.7 34.7 26.5 36.1 41.8 45.4 50.8 115.5 107.6 135.0 192.7 325.4 433.3 517.2 554.4 542.2 600.8 682.6 733.0 688.2 489.2 339.3 230.9 251.0 404.4 543.4 432.0 444.7 564.4 463.4 274.1 204.2 204.1 163.5 153.3 204.5 329.0 458.0 551.9 488.5 282.2 159.7 156.3 149.2 95.0 92.7 85.3 82.2 89.0 91.7 108.9 116.1 195.2 375.0 427.2 337.0 354.5 434.7 439.0 432.7 508.1 567.2 596.3 618.9 618.9 636.5 576.6 676.4 781.9 680.6 493.7 408.7 459.0 620.1 757.9 879.0 906.6 949.6 1060.0 1088.9 1102.9 1047.9 902.2 742.5 556.8 400.2 283.9 314.1 379.8 260.2 361.2 506.7 528.9 425.9 401.7 505.5 628.4 636.0 644.4 598.9 405.6 502.5 554.6 503.7 425.7 392.2 381.9 377.7 397.3 402.4 369.1 271.7 225.8 210.6 256.1 314.8 332.3 352.7 381.4 465.8 577.2 521.5 331.1 209.8 197.9 234.7 307.0 348.1 396.4 432.2 253.2 162.9 208.7 277.6 233.8 160.8 149.2 151.1 146.5 165.7 127.0 58.7 40.2 50.9 77.9 84.7 93.5 165.9 356.3 455.6 479.4 504.7 554.2 622.2 721.1 846.5 819.2 616.1 440.7 317.6 245.2 225.7 215.7 231.8 259.2 274.4 267.2 270.7 259.3 242.4 278.7 386.0 470.3 470.5 534.1 598.9 684.8 663.7 571.3 486.5 427.4 385.3 304.5 244.4 203.2 181.7 177.2 174.0 163.9 152.7 151.5 149.7 148.3 154.5 159.5 169.5 181.1 174.6 175.5 166.0 156.1 151.8 166.4 160.8 156.1 184.9 189.6 200.1 225.9 247.0 282.7 328.9 382.2 409.6 437.5 544.9 711.9 802.3 880.1 1010.5 1017.1 1091.3 1064.0 1034.2 1075.7 1078.0 1092.6 1079.7 1157.1 1168.3 1116.5 1033.0 1037.6 881.4 823.3 872.9 746.3 535.9 579.2 593.9 585.1 539.5 495.3 518.5 673.6 637.0 713.9 793.2 741.2 841.5 981.3 1085.8 1101.5 1166.1 1145.3 1214.4 1294.7 1344.1 1463.2 1513.4 1451.7 1491.5 1551.3 1548.5 1494.6 1452.0 1461.2 1514.7 1558.7 1603.6 1590.6 1555.5 1584.9 1562.5 1479.5 1408.9 1428.2 1387.3 1249.9 1151.2 1152.2 1190.0 1256.8 1336.4 1322.3 1324.4
-9999.0 -9999.0 -9999.0 -9999.0 -9999.0 -9999.0 -9999.0 -9999.0 -9999.0 -9999.0 -9999.0 -9999.0 -9999.0 -9999.0 -9999.0 -9999.0 -9999.0 -9999.0 -9999.0 -9999.0 -9999.0 -9999.0 -9999.0 -9999.0 -9999.0 -9999.0 -9999.0 -9999.0 -9999.0 -9999.0 -9999.0 -9999.0 -9999.0 -9999.0 -9999.0 -9999.0 -9999.0 -9999.0 -9999.0 -9999.0 -9999.0 -9999.0 -9999.0 -9999.0 -9999.0 -9999.0 -9999.0 -9999.0 -9999.0 -9999.0 -9999.0 -9999.0 -9999.0 -9999.0 -9999.0 -9999.0 -9999.0 -9999.0 -9999.0 -9999.0 -9999.0 -9999.0 -9999.0 -9999.0 -9999.0 -9999.0 -9999.0 -9999.0 -9999.0 -9999.0 -9999.0 -9999.0 -9999.0 -9999.0 -9999.0 -9999.0 -9999.0 -9999.0 -9999.0 -9999.0 -9999.0 -9999.0 -9999.0 -9999.0 -9999.0 -9999.0 -9999.0 -9999.0 -9999.0 -9999.0 -9999.0 -9999.0 -9999.0 -9999.0 -9999.0 -9999.0 -9999.0 -9999.0 -9999.0 -9999.0 -9999.0 -9999.0 -9999.0 -9999.0 -9999.0 -9999.0 -9999.0 -9999.0 -9999.0 -9999.0 -9999.0 -9999.0 -9999.0 -9999.0 -9999.0 -9999.0 -9999.0 -9999.0 -9999.0 -9999.0 -9999.0 -9999.0 -9999.0 -9999.0 -9999.0 -9999.0 -9999.0 -9999.0 -9999.0 -9999.0 -9999.0 -9999.0 -9999.0 -9999.0 -9999.0 39.6 42.0 42.3 44.8 49.2 58.2 61.4 64.1 66.4 66.6 68.3 68.9 68.7 66.9 63.4 62.8 63.8 65.6 61.8 58.9 59.5 58.2 55.8 55.7 53.0 51.9 49.6 49.7 47.7 44.1 41.4 39.6 36.9 29.9 26.2 33.9 36.8 39.4 40.4 36.8 33.8 24.2 34.9 37.9 36.9 29.6 33.5 39.5 43.7 46.4 49.2 114.5 141.8 143.4 192.2 222.5 367.8 517.9 549.0 528.8 593.7 668.1 710.8 713.4 541.9 417.9 271.5 196.9 353.2 493.4 453.3 377.8 460.3 460.6 326.5 168.5 140.4 119.2 114.1 125.7 121.5 180.5 287.4 368.4 451.1 310.7 142.4 69.7 60.8 65.9 61.3 60.1 66.9 98.8 169.9 165.7 229.2 409.4 498.1 426.6 361.2 342.4 304.5 322.9 491.6 642.0 717.0 592.5 494.5 577.3 610.1 595.1 693.7 664.7 467.2 412.7 457.9 555.2 730.1 920.2 1085.7 1090.6 1076.3 1162.8 1131.7 1001.4 889.3 741.2 672.6 579.5 373.6 325.5 382.0 320.6 439.8 553.9 544.8 556.4 649.3 708.8 699.2 653.0 622.2 531.2 527.6 667.6 668.3 614.6 715.4 703.3 695.0 640.3 519.3 481.1 456.3 381.7 314.5 267.3 228.2 227.3 317.0 342.9 369.5 437.7 521.7 592.3 496.7 341.2 255.2 260.3 321.5 356.3 411.9 431.0 289.2 241.2 250.3 296.0 279.8 202.0 152.1 124.8 104.7 133.5 73.6 40.9 47.4 66.1 106.9 120.1 98.5 146.9 315.4 493.9 506.5 583.9 631.9 683.2 747.3 820.1 793.9 564.1 403.6 303.1 236.5 262.9 251.4 258.1 291.7 294.5 291.2 287.9 272.4 269.4 255.1 277.7 349.9 441.0 520.8 577.6 612.2 491.3 385.3 383.7 317.6 267.8 227.1 199.5 189.4 181.0 178.3 175.8 169.1 163.0 161.1 156.5 149.2 146.6 154.6 171.8 166.3 160.2 155.8 149.1 145.6 140.5 143.6 143.6 144.5 164.1 171.7 192.6 226.9 242.0 267.0 298.7 330.9 359.6 420.4 487.3 570.5 682.5 796.1 785.6 843.1 902.1 930.0 909.1 1037.0 1034.2 1030.1 1040.3 1137.5 1060.0 994.0 919.3 953.8 938.2 763.6 636.7 613.0 492.3 516.6 550.2 557.7 516.9 478.5 599.0 825.1 925.1 842.6 776.4 762.5 844.9 919.6 951.7 1011.2 1057.6 1088.5 1176.7 1259.1 1305.8 1372.8 1503.6 1577.0 1553.8 1473.3 1484.1 1535.7 1487.0 1422.6 1321.0 1318.2 1331.4 1334.3 1289.9 1260.7 1238.1 1159.5 1077.4 1105.0 1180.9 1153.4 1068.8 1109.3 1174.6 1301.8 1426.4 1456.8 1346.2
-9999.0 -9999.0 -9999.0 -9999.0 -9999.0 -9999.0 -9999.0 -9999.0 -9999.0 -9999.0 -9999.0 -9999.0 -9999.0 -9999.0 -9999.0 -9999.0 -9999.0 -9999.0 -9999.0 -9999.0 -9999.0 -9999.0 -9999.0 -9999.0 -9999.0 -9999.0 -9999.0 -9999.0 -9999.0 -9999.0 -9999.0 -9999.0 -9999.0 -9999.0 -9999.0 -9999.0 -9999.0 -9999.0 -9999.0 -9999.0 -9999.0 -9999.0 -9999.0 -9999.0 -9999.0 -9999.0 -9999.0 -9999.0 -9999.0 -9999.0 -9999.0 -9999.0 -9999.0 -9999.0 -9999.0 -9999.0 -9999.0 -9999.0 -9999.0 -9999.0 -9999.0 -9999.0 -9999.0 -9999.0 -9999.0 -9999.0 -9999.0 -9999.0 -9999.0 -9999.0 -9999.0 -9999.0 -9999.0 -9999.0 -9999.0 -9999.0 -9999.0 -9999.0 -9999.0 -9999.0 -9999.0 -9999.0 -9999.0 -9999.0 -9999.0 -9999.0 -9999.0 -9999.0 -9999.0 -9999.0 -9999.0 -9999.0 -9999.0 -9999.0 -9999.0 -9999.0 -9999.0 -9999.0 -9999.0 -9999.0 -9999.0 -9999.0 -9999.0 -9999.0 -9999.0 -9999.0 -9999.0 -9999.0 -9999.0 -9999.0 -9999.0 -9999.0 -9999.0 -9999.0 -9999.0 -9999.0 -9999.0 -9999.0 -9999.0 -9999.0 -9999.0 -9999.0 -9999.0 -9999.0 -9999.0 -9999.0 -9999.0 -9999.0 -9999.0 -9999.0 -9999.0 -9999.0 -9999.0 -9999.0 -9999.0 -9999.0 41.6 42.7 42.2 43.7 52.0 60.7 63.8 63.2 65.6 67.3 66.6 67.5 67.3 66.3 68.9 71.2 68.9 66.0 64.0 61.0 59.1 58.5 56.6 55.0 53.1 52.4 51.5 49.3 47.6 45.0 42.4 38.9 36.6 31.3 24.7 32.5 36.2 38.0 39.8 36.3 31.2 24.0 34.8 35.7 25.8 36.2 40.0 44.1 47.3 47.8 67.5 164.1 206.9 220.3 293.1 251.5 308.0 377.8 504.1 582.3 687.6 724.7 740.2 661.1 506.8 337.1 156.1 227.0 421.1 451.5 344.9 322.6 355.3 254.9 216.0 159.7 168.6 111.5 83.0 73.2 68.9 118.1 264.9 438.3 294.0 131.4 63.9 52.7 52.9 52.9 56.2 59.8 65.2 82.3 82.1 133.2 254.4 290.9 340.2 212.0 176.1 153.1 197.6 314.0 403.8 531.0 459.3 397.7 434.5 540.0 501.4 480.9 484.1 426.9 429.3 459.6 579.3 768.4 940.1 1055.1 1131.7 1203.1 1212.5 1119.0 964.8 849.3 739.2 607.0 511.9 418.1 407.5 386.0 339.4 430.7 540.0 624.9 763.8 818.2 786.8 684.4 595.8 592.0 653.3 722.0 724.0 678.1 753.2 882.7 934.1 892.9 868.6 810.9 637.7 542.7 479.2 462.8 356.4 281.3 216.2 276.5 347.5 367.8 454.3 528.7 593.8 637.1 594.8 469.1 393.3 360.4 346.9 345.2 367.0 331.1 318.4 275.9 255.1 209.4 158.6 115.1 83.0 80.7 80.7 56.2 41.3 49.7 80.7 131.3 145.8 165.0 166.8 299.0 415.0 459.8 561.9 628.3 663.6 784.5 795.0 728.8 500.8 361.4 286.1 264.3 290.9 285.6 301.8 315.1 314.6 307.4 298.8 288.1 274.7 254.4 244.5 303.2 425.4 522.7 550.9 468.0 317.0 247.5 222.6 211.9 210.2 201.6 191.7 185.8 183.3 180.0 174.3 169.3 164.2 162.6 160.2 154.4 144.2 150.5 152.1 152.1 148.8 146.0 138.3 134.3 133.6 130.8 137.0 136.5 141.2 154.8 177.3 197.1 215.9 241.9 266.9 289.6 304.4 341.7 399.1 524.0 556.0 599.5 635.0 670.7 754.7 793.1 852.9 933.2 903.2 849.0 917.7 969.4 956.6 937.3 797.8 755.7 758.5 695.4 608.2 499.7 426.6 581.4 542.2 506.6 515.0 418.7 446.3 701.6 917.0 996.6 1028.8 1030.4 949.5 904.7 917.7 968.9 979.1 1023.2 1092.8 1201.8 1249.7 1238.0 1271.5 1376.4 1530.0 1549.5 1497.8 1439.9 1390.7 1358.3 1283.1 1205.8 1189.7 1224.3 1207.6 1150.4 1060.2 956.2 906.5 916.6 931.8 965.0 1019.9 1090.4 1226.9 1382.3 1420.3 1403.7 1363.5
-9999.0 -9999.0 -9999.0 -9999.0 -9999.0 -9999.0 -9999.0 -9999.0 -9999.0 -9999.0 -9999.0 -9999.0 -9999.0 -9999.0 -9999.0 -9999.0 -9999.0 -9999.0 -9999.0 -9999.0 -9999.0 -9999.0 -9999.0 -9999.0 -9999.0 -9999.0 -9999.0 -9999.0 -9999.0 -9999.0 -9999.0 -9999.0 -9999.0 -9999.0 -9999.0 -9999.0 -9999.0 -9999.0 -9999.0 -9999.0 -9999.0 -9999.0 -9999.0 -9999.0 -9999.0 -9999.0 -9999.0 -9999.0 -9999.0 -9999.0 -9999.0 -9999.0 -9999.0 -9999.0 -9999.0 -9999.0 -9999.0 -9999.0 -9999.0 -9999.0 -9999.0 -9999.0 -9999.0 -9999.0 -9999.0 -9999.0 -9999.0 -9999.0 -9999.0 -9999.0 -9999.0 -9999.0 -9999.0 -9999.0 -9999.0 -9999.0 -9999.0 -9999.0 -9999.0 -9999.0 -9999.0 -9999.0 -9999.0 -9999.0 -9999.0 -9999.0 -9999.0 -9999.0 -9999.0 -9999.0 -9999.0 -9999.0 -9999.0 -9999.0 -9999.0 -9999.0 -9999.0 -9999.0 -9999.0 -9999.0 -9999.0 -9999.0 -9999.0 -9999.0 -9999.0 -9999.0 -9999.0 -9999.0 -9999.0 -9999.0 -9999.0 -9999.0 -9999.0 -9999.0 -9999.0 -9999.0 -9999.0 -9999.0 -9999.0 -9999.0 -9999.0 -9999.0 -9999.0 -9999.0 -9999.0 -9999.0 -9999.0 -9999.0 -9999.0 -9999.0 -9999.0 -9999.0 -9999.0 -9999.0 -9999.0 -9999.0 -9999.0 39.6 36.8 38.4 42.3 49.5 58.4 62.0 62.5 63.9 63.6 66.3 68.9 74.3 76.6 74.8 73.9 72.2 70.3 67.6 63.6 62.3 60.8 58.5 56.1 54.4 52.5 50.5 48.2 46.4 44.6 42.4 39.4 36.2 32.7 24.8 28.8 34.7 36.5 37.6 34.6 28.8 30.5 34.7 27.0 35.1 39.4 43.7 45.7 47.4 57.2 114.4 174.9 301.8 386.0 279.0 283.5 344.2 420.3 563.5 713.4 794.6 789.1 572.4 371.6 233.9 143.5 144.0 257.9 272.8 169.6 162.2 278.9 449.2 428.6 360.2 411.9 332.7 251.9 189.9 67.1 66.0 177.9 311.1 150.3 69.5 52.8 50.0 49.5 49.9 52.7 53.2 52.4 51.8 49.6 54.6 74.0 95.5 130.0 100.9 88.8 103.9 115.1 145.0 190.0 242.7 248.5 277.7 342.6 497.6 545.9 491.5 467.5 469.1 457.1 547.6 613.8 723.8 865.3 908.8 960.5 1071.6 1131.7 1087.3 1010.3 872.7 724.8 599.4 513.6 542.2 476.4 424.4 404.8 511.2 705.2 743.2 684.1 667.9 669.5 681.8 756.4 768.9 892.2 899.3 816.5 722.7 785.6 954.6 1058.7 1045.7 1043.8 1043.6 903.8 662.5 487.3 417.4 303.0 241.4 231.2 200.0 284.0 347.2 415.2 520.0 598.6 648.5 703.5 723.5 612.6 472.2 380.3 345.9 350.5 354.3 344.2 329.3 259.8 167.5 144.0 91.1 78.2 64.9 61.2 40.8 41.5 55.0 86.5 121.8 117.0 159.2 183.9 266.6 333.9 399.0 481.6 506.8 540.3 692.0 657.8 595.3 426.4 323.2 275.2 316.0 306.1 305.2 336.3 355.3 341.7 321.8 288.6 277.7 256.7 246.7 243.7 241.7 286.6 295.2 264.7 240.4 218.2 211.3 209.9 212.4 203.2 199.0 195.7 192.5 186.5 180.3 175.5 171.4 166.1 163.4 161.4 157.6 142.9 143.0 142.9 140.8 139.0 139.8 140.0 157.9 155.5 160.9 131.0 137.5 127.3 136.2 153.2 169.6 187.8 208.3 229.5 242.4 254.3 316.1 391.0 475.5 425.9 439.3 510.0 611.5 662.0 657.3 764.0 737.5 753.6 666.0 727.2 722.4 775.6 727.7 722.4 586.9 548.3 548.1 492.6 448.9 386.5 518.3 525.6 486.9 397.3 367.5 514.2 641.7 770.6 837.3 931.6 1033.2 1063.7 999.9 938.4 957.6 1026.7 1089.5 1142.7 1222.7 1269.6 1231.8 1162.1 1207.2 1348.4 1402.5 1498.3 1473.3 1395.2 1285.1 1191.2 1004.6 979.8 1037.1 1067.5 1062.3 997.1 879.7 789.9 805.1 874.9 943.9 983.1 1063.9 1204.5 1274.4 1293.7 1285.8 1275.1
-9999.0 -9999.0 -9999.0 -9999.0 -9999.0 -9999.0 -9999.0 -9999.0 -9999.0 -9999.0 -9999.0 -9999.0 -9999.0 -9999.0 -9999.0 -9999.0 -9999.0 -9999.0 -9999.0 -9999.0 -9999.0 -9999.0 -9999.0 -9999.0 -9999.0 -9999.0 -9999.0 -9999.0 -9999.0 -9999.0 -9999.0 -9999.0 -9999.0 -9999.0 -9999.0 -9999.0 -9999.0 -9999.0 -9999.0 -9999.0 -9999.0 -9999.0 -9999.0 -9999.0 -9999.0 -9999.0 -9999.0 -9999.0 -9999.0 -9999.0 -9999.0 -9999.0 -9999.0 -9999.0 -9999.0 -9999.0 -9999.0 -9999.0 -9999.0 -9999.0 -9999.0 -9999.0 -9999.0 -9999.0 -9999.0 -9999.0 -9999.0 -9999.0 -9999.0 -9999.0 -9999.0 -9999.0 -9999.0 -9999.0 -9999.0 -9999.0 -9999.0 -9999.0 -9999.0 -9999.0 -9999.0 -9999.0 -9999.0 -9999.0 -9999.0 -9999.0 -9999.0 -9999.0 -9999.0 -9999.0 -9999.0 -9999.0 -9999.0 -9999.0 -9999.0 -9999.0 -9999.0 -9999.0 -9999.0 -9999.0 -9999.0 -9999.0 -9999.0 -9999.0 -9999.0 -9999.0 -9999.0 -9999.0 -9999.0 -9999.0 -9999.0 -9999.0 -9999.0 -9999.0 -9999.0 -9999.0 -9999.0 -9999.0 -9999.0 -9999.0 -9999.0 -9999.0 -9999.0 -9999.0 -9999.0 -9999.0 -9999.0 -9999.0 -9999.0 -9999.0 -9999.0 -9999.0 -9999.0 -9999.0 -9999.0 -9999.0 -9999.0 -9999.0 -9999.0 23.9 32.5 40.5 49.6 59.0 58.8 57.6 59.4 63.0 71.4 72.8 74.3 77.9 80.6 81.8 82.2 77.6 76.4 71.0 64.8 62.3 58.9 56.7 53.9 51.4 50.2 46.9 45.6 45.1 42.9 39.4 37.2 35.0 28.3 26.4 33.2 35.1 37.4 34.0 23.5 33.8 25.4 34.3 38.3 42.2 44.5 59.9 151.8 194.2 350.4 441.5 406.4 384.2 380.2 400.7 394.0 420.9 504.6 608.1 652.6 557.3 421.3 242.0 154.7 97.2 89.8 84.5 82.3 122.8 246.8 380.1 414.4 446.8 458.5 524.5 397.5 257.2 86.5 56.7 67.3 104.6 59.7 50.5 48.6 48.0 48.2 48.9 48.8 48.4 48.6 48.2 51.2 56.5 56.6 59.7 63.9 69.6 105.5 205.1 252.2 201.2 320.5 313.4 287.9 332.0 442.6 504.4 608.3 613.9 605.3 552.6 520.5 604.9 752.7 736.2 775.9 830.2 900.5 941.5 934.2 900.0 866.4 884.4 892.0 807.7 676.8 664.0 560.3 575.2 573.9 669.6 712.4 674.7 746.7 866.0 845.8 905.8 963.1 951.9 1054.8 1071.7 929.7 840.5 846.6 846.9 954.8 1052.7 1126.0 1129.7 884.9 568.0 430.9 357.5 267.4 193.9 167.1 194.5 266.6 336.8 380.3 462.8 548.2 599.5 671.5 717.3 743.5 663.8 552.4 432.8 470.0 556.8 496.6 419.1 289.8 203.6 143.9 102.1 75.7 65.2 58.5 41.3 38.4 53.8 69.7 82.6 105.0 136.1 167.3 255.2 328.4 392.2 416.8 388.7 412.8 564.4 528.8 423.4 346.0 290.7 325.5 327.2 321.9 328.5 426.5 439.0 363.3 318.7 310.0 285.0 273.1 266.5 245.2 231.0 223.0 220.4 218.9 221.2 226.2 221.4 213.8 213.6 213.0 208.3 202.7 194.9 187.5 182.2 176.8 171.8 169.0 168.8 165.0 161.5 153.6 143.4 139.9 140.7 140.2 148.0 188.2 231.8 199.3 185.6 186.0 190.5 167.0 134.1 127.5 138.0 157.6 176.2 193.9 201.9 213.6 218.7 251.9 303.3 333.8 364.1 388.3 449.2 524.1 526.4 608.2 567.4 603.8 553.3 586.6 527.0 573.1 507.2 490.0 456.5 448.8 398.4 361.7 354.3 322.5 288.7 291.6 290.8 259.3 283.8 450.8 558.5 612.3 691.8 814.9 925.7 1097.2 1114.6 1050.8 1037.3 1060.5 1130.9 1167.0 1188.2 1196.9 1090.5 1022.5 1023.3 1095.5 1134.4 1172.5 1215.8 1174.3 1039.0 941.6 840.1 742.3 747.3 823.0 922.9 845.2 716.0 750.8 813.6 861.5 908.4 971.8 1045.6 1096.4 1161.0 1188.6 1193.4 1190.6
