ncols   401
nrows   36
xllcorner    12.0642
yllcorner    42.578966
cellsize    0.005006
NODATA_value -9999
-9999.0 176.9 167.6 147.8 141.7 157.3 195.9 229.5 236.2 226.5 209.1 181.7 229.1 207.0 157.2 305.3 259.8 269.1 299.4 326.1 337.4 396.3 421.4 469.3 537.3 569.7 575.1 541.6 503.2 466.5 477.0 499.0 503.2 515.2 395.5 250.4 330.3 336.9 307.2 322.6 295.7 372.7 437.0 466.2 497.1 421.7 345.2 366.2 334.4 326.2 334.2 259.2 163.6 146.2 209.8 239.5 259.5 264.9 300.3 351.1 354.9 326.1 297.8 281.6 295.6 341.8 316.1 276.3 228.6 237.1 245.4 220.3 222.3 236.5 241.0 270.2 314.4 314.7 285.7 271.4 296.0 343.5 318.2 294.6 343.4 371.1 378.1 352.6 306.2 281.9 282.2 300.5 320.7 330.5 348.5 365.2 370.9 415.0 575.8 727.1 882.5 925.4 903.5 933.8 921.6 922.5 910.9 821.0 720.8 635.8 565.4 519.5 482.5 448.4 420.3 424.9 419.3 407.3 407.2 392.6 394.6 413.0 419.9 409.9 400.8 396.8 366.4 336.7 316.8 314.0 317.5 325.5 329.8 333.7 369.7 351.1 336.2 345.9 365.8 369.2 423.8 430.1 436.8 560.9 664.3 679.7 738.9 781.3 768.1 689.7 679.3 711.7 638.8 588.6 535.3 459.6 367.6 356.9 361.3 448.4 540.0 629.9 799.7 839.7 973.9 1145.9 1166.9 1167.5 1145.5 1162.6 1164.8 1052.7 893.2 721.1 691.0 921.5 1191.3 1351.6 1279.7 1138.7 1046.6 1045.9 1009.6 958.8 909.6 785.8 606.0 656.2 882.5 931.3 917.4 899.3 919.1 943.1 913.5 914.0 924.9 962.6 1050.0 1127.1 1140.6 1162.5 1176.1 1095.0 1064.8 896.6 747.7 744.3 754.8 763.4 768.5 769.3 770.9 781.4 796.1 815.2 852.7 913.4 1023.9 1079.0 1145.8 1286.9 1350.4 1377.3 1442.4 1558.0 1589.6 1528.6 1452.4 1456.1 1480.4 1502.8 1439.6 1428.1 1517.8 1569.4 1543.0 1412.0 1182.8 984.8 850.7 726.6 677.1 771.4 906.9 996.3 1042.5 1050.6 1027.9 1100.3 1095.1 1089.7 926.6 888.6 925.6 927.4 911.5 849.5 884.5 881.2 793.3 633.5 638.2 782.7 897.4 830.1 698.0 617.2 543.9 647.1 745.0 860.7 830.6 779.7 790.8 855.8 943.4 1048.6 1072.8 1050.3 1084.1 995.6 883.3 794.8 744.1 702.3 589.6 626.4 665.9 700.0 715.5 760.3 824.6 868.8 903.0 983.9 1087.1 1199.1 1275.6 1242.2 1153.0 1038.5 1053.6 1127.1 1221.1 1297.5 1185.7 1137.2 1031.6 810.9 734.2 636.5 616.2 580.2 528.2 500.7 545.3 617.1 582.0 532.0 552.1 526.2 427.1 365.6 333.1 381.3 377.0 397.7 364.3 316.1 275.6 240.6 213.6 207.7 241.4 297.5 349.4 309.3 252.9 212.9 187.2 174.2 177.9 183.4 197.5 229.5 274.3 256.9 205.6 230.6 197.6 189.3 194.8 234.4 228.0 270.3 257.1 246.9 277.9 247.7 279.5 257.7 241.5 260.4 209.0 210.7 233.8 223.1 202.9 177.3 205.1 185.2 139.6 135.9 136.2 115.4 117.2 67.2 -9999.0 -9999.0 -9999.0 -9999.0 -9999.0 -9999.0 -9999.0 -9999.0 -9999.0 -9999.0 -9999.0 -9999.0 -9999.0 -9999.0 -9999.0 -9999.0 -9999.0 -9999.0 -9999.0 -9999.0 -9999.0 -9999.0 -9999.0
-9999.0 187.4 179.0 172.0 165.6 140.6 143.4 152.2 197.1 233.1 230.6 221.2 190.8 149.0 258.1 305.7 227.6 241.9 263.9 296.8 337.0 370.4 438.2 517.8 534.6 548.2 534.1 502.1 494.2 441.0 463.0 468.0 488.8 477.9 407.1 249.5 289.9 320.1 263.5 319.2 251.2 282.0 325.6 359.3 429.6 418.6 328.2 297.3 274.0 254.9 255.6 187.8 149.7 190.8 276.4 333.2 329.1 328.5 345.5 390.0 403.2 377.0 355.2 355.3 351.0 356.3 329.0 287.4 252.6 246.5 298.0 282.5 244.4 220.3 222.2 245.9 264.8 316.6 332.7 326.1 290.7 335.3 363.7 339.8 357.5 350.0 334.6 303.4 285.9 272.6 280.1 318.5 334.4 326.7 336.6 351.3 347.2 384.3 514.5 648.4 779.5 875.2 855.0 936.9 965.4 972.3 970.0 949.2 864.0 720.3 625.0 536.0 475.5 447.6 433.8 418.3 398.0 386.6 379.0 373.6 378.6 398.6 393.2 415.5 410.5 377.8 351.2 327.9 322.0 322.0 325.1 339.1 341.9 343.3 351.8 352.2 356.9 393.1 387.7 419.5 523.3 563.6 497.8 549.4 630.4 745.5 814.8 832.7 742.5 622.3 539.2 499.0 507.4 493.6 446.2 364.3 328.4 482.6 545.5 500.2 554.8 694.0 879.7 1010.0 983.3 1123.9 1198.8 1186.5 1213.6 1204.1 1127.2 974.6 873.3 751.7 709.3 880.7 1017.7 1200.7 1287.4 1296.7 1184.5 1019.1 954.1 923.8 865.2 685.5 604.3 773.8 891.3 925.5 938.4 942.3 945.5 951.0 924.1 906.3 938.0 982.1 1037.1 1052.0 1067.0 1083.0 1121.6 1106.9 1018.7 949.7 806.4 762.7 768.8 777.9 784.6 789.8 785.4 780.2 786.6 798.6 856.6 1001.6 1116.5 1231.1 1365.7 1404.0 1466.3 1441.4 1424.6 1523.2 1566.6 1493.6 1411.3 1303.5 1356.6 1410.9 1290.6 1199.6 1255.5 1403.3 1403.0 1224.3 987.4 847.6 706.1 698.5 802.9 920.1 1028.0 1061.0 1090.7 1110.0 1113.2 1149.9 1209.9 1238.0 1106.2 1059.2 1119.4 1168.3 1162.6 981.5 884.7 828.2 736.0 666.7 752.6 884.3 986.2 877.3 760.0 651.3 554.0 644.4 705.2 738.9 833.2 901.1 914.8 928.7 980.5 1049.2 1016.6 963.2 1026.1 990.5 938.4 917.3 803.3 723.3 612.3 602.9 737.7 807.1 840.5 812.7 857.7 894.6 947.5 1019.0 1125.1 1244.7 1315.0 1202.3 1111.5 1031.4 985.9 939.8 932.3 952.0 870.4 787.1 761.3 716.9 680.7 666.5 593.7 567.4 547.9 537.8 558.1 549.4 519.7 507.7 541.0 555.0 521.9 471.1 432.7 466.2 480.4 438.4 375.6 307.7 259.4 241.7 216.4 218.7 235.3 299.1 364.3 287.9 230.6 191.6 187.7 196.7 190.9 209.5 246.2 269.4 273.8 280.0 229.4 261.5 276.1 272.9 277.4 274.6 234.5 204.6 212.1 248.8 262.0 213.9 244.5 236.2 226.6 251.6 205.7 190.4 212.5 193.1 171.2 159.0 152.2 149.9 131.9 118.8 121.1 101.5 109.9 97.5 62.0 45.5 -9999.0 -9999.0 -9999.0 -9999.0 -9999.0 -9999.0 -9999.0 -9999.0 -9999.0 -9999.0 -9999.0 -9999.0 -9999.0 -9999.0 -9999.0 -9999.0 -9999.0 -9999.0 -9999.0 -9999.0 -9999.0
-9999.0 200.4 187.6 181.6 175.1 166.1 158.1 150.7 131.8 164.2 193.5 210.8 150.1 160.3 251.4 245.0 215.5 257.7 266.4 297.2 343.0 377.4 429.3 481.5 505.5 510.7 496.2 476.3 449.8 410.9 438.8 438.5 443.0 433.4 389.4 294.4 231.2 272.2 248.1 269.5 195.0 229.7 261.7 304.6 374.7 427.4 403.0 381.3 275.7 196.9 167.7 143.9 227.4 245.1 220.2 291.7 342.1 382.6 405.8 434.6 451.7 427.3 410.8 396.0 349.2 314.6 290.4 275.5 254.5 269.0 310.8 333.8 282.0 255.9 225.1 225.3 247.4 270.1 293.8 344.3 354.8 336.1 334.5 342.2 357.8 307.1 291.2 283.3 266.4 268.2 291.5 346.1 363.8 341.9 322.3 343.9 335.0 355.3 434.9 561.7 663.1 759.6 758.7 820.0 860.4 876.2 955.2 1010.6 880.5 720.8 610.9 518.1 480.9 463.1 429.6 427.4 412.8 386.3 379.1 369.0 364.7 378.0 371.4 391.5 381.5 355.3 332.4 329.0 327.8 332.4 357.1 361.0 373.7 358.9 361.7 381.6 433.3 465.2 461.5 512.8 555.1 568.4 565.6 601.5 727.2 812.2 878.9 919.3 834.4 698.0 573.3 409.0 399.8 393.8 338.9 313.6 483.1 695.2 756.8 707.2 691.2 740.8 962.3 1153.2 1176.5 1209.9 1232.0 1223.8 1204.3 1161.9 1080.9 910.1 793.0 714.0 691.5 858.5 1005.4 1163.5 1312.6 1285.6 1305.0 1143.4 940.4 833.9 791.9 710.0 605.7 802.8 832.7 834.8 847.0 878.4 915.9 890.6 912.2 948.6 978.8 1023.4 1059.0 1048.9 1061.0 1074.0 1050.2 1070.2 1008.5 959.2 933.6 815.2 781.4 792.0 799.6 807.3 818.3 831.1 825.3 821.9 848.3 981.5 1188.7 1351.6 1469.5 1645.2 1677.7 1559.7 1562.3 1586.8 1519.8 1447.9 1373.2 1232.2 1171.4 1228.1 1239.4 1073.1 1131.7 1275.9 1222.9 1048.9 871.5 725.1 697.3 794.3 909.1 1019.4 1079.7 1149.1 1151.5 1182.0 1222.7 1266.6 1339.2 1365.5 1334.5 1252.2 1293.0 1341.4 1296.3 1042.6 907.0 858.5 916.0 784.5 850.8 948.1 1036.9 998.4 899.5 759.9 587.3 677.6 794.1 771.5 745.3 804.8 861.1 940.7 1025.1 964.9 945.6 914.0 984.0 915.3 918.6 888.1 833.5 690.2 592.5 682.6 738.1 781.3 881.7 920.5 906.7 868.8 880.0 974.3 1097.0 1219.3 1177.7 1047.6 989.9 951.6 920.9 865.2 872.3 837.2 796.4 802.5 906.6 937.8 972.4 876.0 737.6 684.4 641.2 602.5 563.4 529.8 488.9 483.5 522.5 544.0 575.1 550.2 517.1 505.8 498.6 476.9 428.7 370.1 331.5 260.5 232.0 223.9 237.3 268.5 294.6 247.4 209.1 217.2 217.3 233.5 249.7 249.1 307.3 362.3 360.5 347.8 314.8 320.2 268.7 264.3 261.6 234.6 256.7 195.4 199.3 222.6 244.3 211.7 207.5 233.7 204.5 227.9 218.6 177.1 200.7 171.8 167.1 142.6 137.2 122.1 119.5 102.6 100.3 89.3 90.4 81.8 77.3 50.4 -9999.0 -9999.0 -9999.0 -9999.0 -9999.0 -9999.0 -9999.0 -9999.0 -9999.0 -9999.0 -9999.0 -9999.0 -9999.0 -9999.0 -9999.0 -9999.0 -9999.0 -9999.0 -9999.0 -9999.0 -9999.0
-9999.0 222.4 197.2 190.3 184.0 175.7 167.1 163.0 152.2 127.0 140.3 159.4 141.7 138.4 190.1 192.4 216.8 230.9 253.5 303.7 376.4 356.5 395.8 447.1 468.9 466.4 435.7 433.5 414.6 382.4 401.1 415.9 379.6 359.7 356.9 329.3 204.2 250.0 179.7 176.9 163.8 186.6 197.1 208.7 245.6 276.3 238.6 327.8 340.1 184.6 156.1 233.4 312.5 332.0 303.6 261.2 292.5 345.5 378.3 413.9 451.4 476.8 472.3 441.8 411.3 365.5 320.9 279.1 278.9 320.6 360.1 377.8 357.0 317.0 263.4 225.8 235.6 265.7 323.1 361.2 341.7 300.3 277.5 312.1 343.3 317.1 272.1 267.0 274.4 292.7 315.1 360.6 362.0 330.6 311.0 324.6 334.3 357.4 407.8 478.2 539.9 625.7 741.6 747.4 759.6 799.5 891.8 1010.6 941.7 793.9 677.5 545.5 474.8 442.7 416.3 409.2 408.6 380.0 367.9 362.4 357.6 357.2 363.7 394.1 367.8 345.6 334.9 337.0 344.1 364.2 393.9 407.6 424.6 379.2 373.8 398.6 470.6 536.4 527.7 541.8 570.2 603.0 607.8 614.8 676.6 780.2 899.8 878.2 819.7 740.5 585.3 408.9 343.4 355.2 302.9 388.1 594.3 772.3 891.7 932.7 924.2 862.0 1003.8 1210.9 1318.4 1305.4 1322.8 1307.4 1240.2 1171.1 1040.4 855.2 826.2 790.7 707.4 869.8 1052.4 1229.4 1357.0 1324.4 1294.8 1144.9 1010.9 853.0 767.1 667.9 606.8 647.9 644.5 697.7 750.3 780.4 794.6 810.1 852.0 871.6 899.8 929.2 952.5 992.6 1043.0 1074.0 1046.1 1004.1 971.8 914.6 887.0 814.3 790.0 800.2 812.1 821.9 844.4 868.6 906.0 922.4 901.9 964.1 1149.9 1329.3 1430.7 1613.4 1732.8 1646.7 1635.2 1552.0 1481.6 1459.6 1393.9 1245.6 1077.8 1018.0 1016.6 948.0 936.7 984.8 942.2 878.8 785.3 687.9 751.7 834.1 896.0 934.4 1022.9 1091.1 1161.8 1248.4 1311.3 1377.8 1472.1 1484.4 1518.2 1422.5 1433.6 1490.2 1459.9 1178.1 1077.0 1052.0 944.7 859.2 950.2 1072.1 1089.1 991.5 841.4 697.6 629.4 737.7 842.2 948.5 903.1 911.3 1006.7 977.4 888.7 902.3 839.8 854.1 876.1 845.4 857.0 830.0 715.7 607.5 664.1 703.6 702.5 738.1 806.9 797.7 793.9 876.3 913.9 942.0 1047.1 1161.6 1077.4 970.6 957.1 960.2 925.0 929.2 1011.5 993.1 1053.3 1096.5 1267.1 1298.0 1222.0 1019.9 841.8 777.1 696.1 619.4 560.6 509.7 474.1 462.7 519.6 551.3 513.8 509.1 441.4 416.3 445.1 455.7 442.9 381.5 310.2 257.4 259.4 237.3 257.5 294.8 314.8 306.8 281.9 241.6 280.2 297.8 281.7 266.8 292.1 284.3 303.9 357.1 392.7 329.1 286.6 230.7 219.8 218.1 235.0 225.7 173.7 204.2 236.0 197.9 191.4 232.5 209.1 188.2 209.5 175.6 183.3 166.7 145.6 131.8 120.0 110.1 105.4 102.8 90.7 81.2 79.8 70.8 64.2 58.3 46.2 -9999.0 -9999.0 -9999.0 -9999.0 -9999.0 -9999.0 -9999.0 -9999.0 -9999.0 -9999.0 -9999.0 -9999.0 -9999.0 -9999.0 -9999.0 -9999.0 -9999.0 -9999.0 -9999.0 -9999.0
-9999.0 210.0 201.9 197.2 192.6 188.4 175.4 166.4 158.7 145.2 129.3 128.2 137.7 125.9 163.8 183.0 199.6 207.7 244.0 288.8 319.2 331.7 355.5 391.9 409.3 402.0 380.2 374.2 361.1 360.1 335.7 353.8 337.3 304.4 303.4 309.3 223.8 155.6 139.6 129.6 126.5 134.6 163.3 211.0 240.2 263.0 230.2 161.0 189.5 155.9 223.3 250.1 315.3 381.9 411.9 349.7 291.5 310.3 347.5 399.3 455.5 506.3 548.4 497.0 443.5 381.3 338.3 303.6 283.2 328.4 387.1 426.7 362.9 310.5 274.5 242.2 227.1 242.0 274.4 281.8 297.6 281.6 270.9 313.4 293.4 316.9 282.4 258.9 284.3 284.7 315.1 328.5 327.6 320.4 299.3 320.4 339.0 357.2 383.0 465.3 515.8 596.7 731.9 766.1 732.1 776.3 816.8 931.2 905.3 772.0 635.5 515.5 461.5 447.1 413.6 392.9 387.4 395.3 382.9 366.3 355.5 353.2 350.4 349.3 350.2 383.7 399.4 372.2 380.4 399.1 432.6 439.2 406.0 403.6 429.7 426.0 501.9 529.8 563.3 600.6 621.4 682.0 716.5 655.8 663.4 756.0 835.9 884.1 809.9 708.4 636.7 470.1 312.3 303.7 387.1 503.3 539.5 648.9 728.6 850.5 957.5 1045.6 1155.4 1255.1 1367.9 1395.5 1363.4 1277.2 1208.2 1106.2 988.6 988.3 908.9 867.1 732.8 807.9 1033.5 1186.0 1242.6 1225.6 1276.1 1276.3 1173.4 980.9 875.9 789.7 787.0 733.2 717.9 637.5 657.7 780.8 796.3 818.0 818.7 831.7 869.5 948.8 1018.6 1031.1 1043.0 1049.9 1021.6 987.0 939.8 876.3 891.1 910.8 879.7 837.1 834.1 841.7 848.8 926.9 995.9 1004.9 954.9 972.3 1082.8 1251.9 1393.2 1541.8 1678.4 1648.3 1666.0 1643.3 1613.2 1519.7 1380.5 1316.0 1260.3 1214.6 1145.0 1009.7 877.3 816.3 789.6 776.8 739.0 717.0 736.4 789.4 814.1 831.1 883.0 987.5 1116.0 1227.1 1328.6 1332.7 1399.1 1477.7 1566.8 1597.8 1565.8 1606.0 1618.7 1444.0 1325.0 1140.4 1073.9 1033.8 1115.0 1007.2 940.1 853.7 732.2 783.1 723.2 898.8 978.4 1021.6 1111.0 1080.5 973.1 845.3 757.5 747.4 722.9 719.7 727.7 729.9 714.9 673.0 642.1 686.7 699.3 787.5 805.7 784.9 815.4 812.9 833.1 885.0 980.4 1016.4 1126.1 1090.2 1064.0 1097.4 1121.0 1103.7 1012.1 966.7 1101.0 1152.1 1281.7 1453.0 1538.9 1445.2 1257.1 1039.3 872.3 785.6 698.6 625.3 571.6 527.0 487.6 457.3 492.5 516.9 444.8 459.2 413.3 370.1 379.4 370.4 359.3 360.6 339.6 325.4 294.5 296.0 343.9 386.5 412.2 359.4 303.7 295.8 314.4 312.8 310.4 265.5 232.4 255.1 328.8 367.6 352.5 346.3 334.0 294.4 284.0 220.5 201.8 230.6 197.8 167.6 194.1 201.0 169.6 222.4 190.4 174.9 195.6 181.3 154.8 152.5 136.5 122.1 112.6 104.5 95.8 93.0 84.4 73.5 71.8 66.7 58.8 50.2 45.5 -9999.0 -9999.0 -9999.0 -9999.0 -9999.0 -9999.0 -9999.0 -9999.0 -9999.0 -9999.0 -9999.0 -9999.0 -9999.0 -9999.0 -9999.0 -9999.0 -9999.0 -9999.0 -9999.0 -9999.0
-9999.0 235.5 224.0 210.0 203.7 191.9 185.2 175.6 164.7 160.1 155.2 139.7 119.7 125.2 152.8 159.7 174.5 198.8 227.2 243.8 269.1 295.6 313.7 342.9 352.7 352.4 339.9 326.2 324.5 327.1 294.8 327.5 293.7 262.1 291.8 244.6 175.9 133.5 136.6 149.9 181.7 238.6 291.0 352.8 377.0 420.9 396.5 323.5 200.3 288.0 329.3 303.8 332.3 385.6 426.4 394.9 374.0 337.8 370.7 428.5 472.9 521.9 568.3 551.5 490.0 426.4 378.5 351.5 318.9 308.7 355.6 391.9 360.6 319.3 291.2 271.0 247.0 232.8 233.4 237.6 258.5 250.3 272.4 276.4 265.8 287.3 267.9 262.2 286.1 283.2 291.3 283.3 283.5 287.7 283.4 301.1 326.5 327.0 339.8 382.9 446.3 536.9 723.8 754.6 699.2 709.3 675.0 763.8 753.1 667.1 573.1 494.4 433.5 441.7 415.9 393.9 382.5 375.3 366.0 364.2 365.8 366.4 365.3 375.2 419.2 533.7 534.3 484.0 446.4 447.3 435.9 436.6 412.6 412.9 421.2 514.5 710.9 738.4 722.5 656.3 712.7 718.6 760.2 759.3 707.7 732.0 837.2 896.8 871.3 801.1 673.1 456.3 314.4 328.8 460.8 621.3 755.2 800.4 850.4 885.8 1019.5 1151.7 1255.4 1336.1 1431.5 1362.6 1248.3 1250.0 1232.5 1229.8 1214.0 1071.1 940.5 940.6 752.6 795.0 981.9 1072.0 1050.2 1048.2 1077.4 1097.4 1070.7 1066.9 1006.9 899.1 872.3 881.3 857.4 787.9 638.0 666.3 783.3 827.0 806.4 795.9 832.2 913.0 1036.3 1069.0 1085.0 1091.4 1051.7 1056.7 1022.4 973.4 953.4 933.3 951.4 932.9 905.9 881.5 866.0 887.9 925.2 949.3 967.9 985.6 1072.8 1202.0 1296.5 1417.6 1552.3 1655.6 1666.5 1639.9 1611.8 1526.5 1515.5 1515.3 1472.7 1411.4 1284.5 1086.5 940.0 875.4 867.8 887.8 875.7 767.9 749.9 873.9 1006.4 963.3 935.6 928.2 976.0 1021.7 1081.1 1159.1 1271.6 1378.7 1475.3 1544.7 1632.5 1674.0 1483.5 1267.9 1211.9 1145.5 1120.1 1086.0 985.3 873.0 806.8 806.2 926.6 989.1 849.3 929.8 1055.2 1169.5 1123.6 988.9 818.0 778.1 847.9 886.2 838.1 806.3 812.2 804.9 733.5 786.1 797.5 833.1 720.9 731.7 787.1 846.4 878.4 932.9 963.3 1007.3 1040.3 1093.6 1151.0 1126.5 1223.1 1312.6 1281.6 1199.6 1119.9 1015.9 1148.5 1276.7 1426.4 1649.5 1607.6 1449.4 1278.1 1075.9 893.5 797.2 703.6 626.5 578.2 540.1 506.5 481.7 453.6 440.5 409.9 393.2 391.4 383.6 366.0 346.7 340.3 320.7 312.8 315.3 312.7 331.2 341.8 356.6 389.3 349.3 278.9 272.6 269.8 280.3 269.9 262.1 254.1 224.6 287.8 311.4 293.1 271.6 257.8 267.4 292.4 245.7 185.0 221.0 231.2 177.9 166.2 173.3 175.7 169.3 182.7 157.7 169.0 159.0 138.9 136.0 122.2 111.8 104.3 97.7 91.3 82.5 79.2 71.3 66.6 60.4 52.2 46.9 46.0 45.6 -9999.0 -9999.0 -9999.0 -9999.0 -9999.0 -9999.0 -9999.0 -9999.0 -9999.0 -9999.0 -9999.0 -9999.0 -9999.0 -9999.0 -9999.0 -9999.0 -9999.0 -9999.0 -9999.0
-9999.0 301.2 258.5 227.6 223.6 204.3 201.5 208.1 216.3 239.6 253.2 210.2 152.2 129.9 120.5 119.9 125.9 160.6 187.6 220.0 276.9 255.3 272.0 287.0 306.2 306.9 299.3 305.9 301.8 318.3 302.4 315.2 308.9 245.8 238.6 264.3 167.4 128.9 150.6 193.4 265.0 349.1 394.4 430.3 462.6 492.9 458.0 349.3 250.5 375.7 430.9 389.9 391.9 436.7 478.5 483.2 460.3 399.1 391.6 439.7 483.3 520.7 563.4 571.2 516.8 480.3 440.1 395.2 343.3 303.5 318.1 336.7 376.6 393.6 396.0 344.4 300.2 271.3 244.1 242.2 235.8 238.7 242.3 243.3 243.9 245.9 246.7 259.9 268.7 262.7 260.1 261.7 267.6 275.8 277.0 283.1 292.3 303.0 332.9 369.6 468.8 546.1 650.3 752.9 754.7 755.0 711.3 588.9 614.9 554.6 489.0 457.2 428.8 408.7 399.6 394.8 383.8 372.9 372.1 378.9 386.9 418.6 427.4 459.3 506.1 489.3 570.2 566.9 531.0 507.2 493.6 523.0 478.3 437.9 505.3 591.2 746.5 830.7 831.0 776.2 697.1 771.1 805.5 817.2 793.7 745.9 824.9 858.6 886.8 816.1 626.3 408.0 296.9 363.7 499.7 655.0 857.5 997.6 1048.7 1080.6 1147.9 1320.8 1458.6 1499.5 1496.8 1458.0 1409.6 1371.3 1349.8 1315.2 1201.6 1018.0 878.1 821.6 777.2 801.2 995.7 1059.3 988.4 965.0 1000.6 993.4 904.5 942.9 1000.7 965.8 899.0 847.2 799.6 758.4 668.0 628.3 690.1 711.9 741.9 762.2 780.7 796.4 856.4 926.0 962.4 1036.4 1087.0 1137.8 1104.3 1084.3 1076.7 1023.7 966.9 956.6 952.9 905.1 901.5 980.2 1024.4 1019.4 1157.6 1130.5 1055.0 1155.9 1311.5 1492.0 1639.5 1745.4 1692.5 1664.0 1693.0 1651.2 1572.6 1530.7 1467.9 1376.7 1218.6 1070.5 970.8 893.3 912.3 944.8 843.4 743.6 814.8 913.4 1075.8 1147.6 1073.1 1058.2 1062.4 1095.4 1128.4 1155.6 1249.4 1372.7 1457.4 1544.1 1641.2 1694.9 1501.1 1294.5 1174.0 1078.8 988.3 912.6 898.3 901.4 1017.4 1041.4 1171.3 1150.7 995.4 1030.3 1148.5 1115.2 1017.7 915.5 806.3 897.7 941.1 1009.2 997.3 1017.1 926.5 977.7 850.7 955.1 978.3 838.9 721.5 751.5 799.2 818.3 858.9 880.8 943.0 1033.9 1158.3 1172.1 1179.7 1167.2 1225.3 1366.2 1462.5 1295.7 1142.1 1126.7 1204.9 1297.3 1300.1 1534.9 1421.6 1263.0 1176.0 1027.0 870.5 783.1 710.8 647.4 598.7 555.3 519.5 495.8 478.8 452.3 421.6 432.2 435.4 424.7 425.2 383.3 398.6 400.5 354.9 313.6 295.7 279.4 331.3 353.2 319.8 335.3 286.4 242.5 268.7 255.9 231.0 231.2 257.9 243.6 207.2 224.9 232.7 243.5 252.2 227.8 259.9 253.3 202.9 188.2 226.0 215.8 181.6 164.0 153.5 164.5 148.7 152.6 139.8 143.7 134.8 128.0 121.5 111.1 103.3 96.2 87.0 80.4 75.8 68.1 64.3 57.0 53.5 50.7 46.7 46.0 -9999.0 -9999.0 -9999.0 -9999.0 -9999.0 -9999.0 -9999.0 -9999.0 -9999.0 -9999.0 -9999.0 -9999.0 -9999.0 -9999.0 -9999.0 -9999.0 -9999.0 -9999.0 -9999.0
-9999.0 292.2 259.0 240.2 222.9 214.5 238.7 268.5 325.4 348.9 328.4 224.8 177.3 181.5 172.5 145.5 130.8 120.4 154.2 197.5 217.0 220.2 253.8 231.2 252.6 278.3 261.1 280.7 264.8 296.5 347.5 274.9 286.1 285.9 260.0 200.4 162.8 124.0 156.2 182.0 240.8 306.0 329.6 372.0 445.0 501.9 494.4 475.2 313.5 426.6 508.5 475.3 458.3 479.6 518.8 534.8 501.2 460.1 420.1 438.1 484.5 528.4 566.7 584.6 563.5 534.2 495.7 452.7 386.6 345.3 305.8 316.1 351.5 396.0 415.1 439.7 367.9 298.2 259.2 277.6 251.8 270.8 274.9 262.4 262.7 269.3 272.5 260.9 254.8 271.5 294.5 304.6 311.1 339.6 322.4 302.5 317.2 291.1 319.6 355.9 426.6 529.0 647.8 744.2 789.7 733.3 709.5 624.3 570.4 505.3 475.7 465.5 437.1 416.5 407.1 386.7 409.7 434.9 428.8 437.8 422.4 436.9 494.4 576.9 645.7 583.5 616.0 663.6 590.6 619.5 553.3 486.7 440.5 474.2 551.9 674.3 763.4 852.5 910.0 898.1 731.1 758.8 844.4 875.7 825.8 770.8 840.6 915.1 927.0 796.8 573.6 396.6 296.7 360.7 465.5 669.3 832.2 818.2 853.9 939.9 1086.2 1261.6 1447.2 1614.8 1644.0 1579.9 1490.0 1404.1 1258.1 1130.6 986.9 924.2 911.8 956.4 896.9 843.8 1062.1 1031.2 918.9 979.4 1007.7 928.4 748.7 730.8 710.0 703.3 687.4 685.7 668.6 645.1 633.9 663.0 649.6 680.4 721.1 764.5 821.3 880.2 901.3 907.7 923.9 942.0 1013.1 1109.1 1143.4 1219.7 1238.7 1133.3 1105.2 1031.9 972.7 925.0 1038.4 1074.2 1155.9 1142.9 1244.6 1276.1 1120.9 1204.0 1314.9 1504.6 1641.0 1711.5 1702.7 1654.3 1707.2 1600.8 1506.3 1405.4 1301.8 1189.7 1069.8 981.1 918.6 866.3 816.7 819.5 757.6 792.6 909.0 1019.8 1105.9 1198.8 1201.5 1138.6 1176.6 1230.3 1294.5 1323.9 1284.0 1380.2 1559.0 1646.1 1706.0 1732.9 1555.7 1388.9 1324.8 1159.8 1010.4 996.0 1090.2 1155.6 1141.9 1298.1 1402.2 1338.5 1263.2 1272.4 1271.2 1178.7 1051.8 876.7 851.3 955.1 1065.1 1112.2 1118.4 1125.5 1061.8 1055.2 988.5 1027.9 960.2 810.6 740.8 811.1 789.5 824.1 887.8 956.0 1011.4 1082.1 1187.5 1210.3 1266.5 1197.0 1230.2 1353.2 1486.3 1424.8 1278.5 1310.2 1337.4 1298.0 1131.6 1205.5 1389.2 1302.6 1179.9 1019.8 874.1 768.6 677.4 608.0 573.8 545.6 515.6 493.1 477.4 460.8 490.5 514.1 530.3 517.3 485.8 486.3 468.4 415.5 361.3 327.7 296.9 280.7 290.5 298.4 303.9 334.4 300.0 244.3 237.9 257.0 257.3 216.3 221.9 234.8 221.5 193.4 205.8 210.8 250.4 230.0 246.6 276.4 242.5 195.7 179.6 212.3 214.4 201.0 182.5 158.6 142.6 127.8 123.8 133.6 129.2 120.1 113.9 105.1 97.3 91.1 80.1 74.2 68.9 63.5 60.4 58.9 57.8 57.4 57.0 66.9 50.4 -9999.0 -9999.0 -9999.0 -9999.0 -9999.0 -9999.0 -9999.0 -9999.0 -9999.0 -9999.0 -9999.0 -9999.0 -9999.0 -9999.0 -9999.0 -9999.0 -9999.0 -9999.0
-9999.0 334.3 294.1 295.9 270.7 241.5 236.4 240.4 265.5 276.9 234.4 196.3 249.0 322.8 285.8 198.7 157.6 126.3 113.9 133.6 182.2 220.6 228.6 197.7 225.0 237.6 237.2 273.7 285.7 235.2 309.0 291.1 218.7 220.2 226.0 170.1 154.5 124.9 145.1 157.2 204.7 292.6 387.4 432.0 466.3 537.0 548.1 527.3 415.8 401.8 499.2 529.6 549.8 558.8 594.3 574.0 522.5 482.4 468.1 459.5 515.9 532.6 573.8 596.0 591.0 543.8 501.6 458.1 404.1 387.0 338.3 326.4 327.0 344.6 390.0 423.7 379.1 300.4 278.6 282.6 283.0 305.1 273.0 271.0 288.2 311.8 291.7 277.2 265.4 266.6 299.2 340.9 380.9 381.0 348.5 319.8 344.0 302.0 326.7 364.7 448.1 546.9 658.9 725.6 715.2 676.0 668.0 640.3 517.1 480.1 498.7 505.0 449.6 425.9 407.5 390.7 417.2 466.3 458.0 479.6 479.2 492.5 601.0 691.6 714.1 719.5 690.1 638.5 651.5 614.1 505.6 450.3 484.5 581.9 526.6 588.8 792.6 855.7 864.8 965.0 891.1 796.7 899.1 943.9 861.6 825.0 855.2 983.5 923.2 729.6 544.2 435.7 311.4 351.7 439.8 576.1 565.8 606.5 720.6 802.1 915.2 1112.2 1334.6 1545.2 1658.4 1581.8 1494.0 1405.3 1321.0 1179.9 1197.3 1087.9 1024.9 983.7 884.3 892.4 1049.2 1004.3 842.0 760.6 735.2 749.2 823.7 865.1 847.5 880.7 861.9 796.7 767.4 717.4 695.5 700.3 662.7 665.9 691.8 738.3 769.7 839.6 904.8 948.4 953.6 961.1 960.7 1001.2 1078.5 1207.7 1258.1 1159.7 1124.0 1085.7 981.9 966.8 1102.3 1147.8 1182.6 1222.9 1351.5 1401.0 1256.9 1216.9 1270.0 1399.7 1518.0 1631.5 1735.9 1638.4 1624.3 1625.6 1585.4 1496.7 1356.3 1227.8 1124.7 1020.8 948.6 921.0 900.9 782.2 761.6 863.9 981.8 1084.7 1173.9 1259.6 1284.7 1238.7 1249.9 1305.9 1322.1 1413.2 1450.3 1394.1 1500.6 1670.8 1761.9 1814.3 1632.5 1454.5 1298.4 1148.8 1085.6 1240.1 1336.3 1381.2 1334.9 1391.2 1555.8 1535.7 1441.6 1413.4 1256.6 1143.2 1040.1 862.8 919.8 1017.0 1117.3 1286.3 1296.6 1258.8 1130.6 1024.7 958.8 905.4 835.2 814.7 775.7 821.5 885.7 915.7 881.1 901.3 964.8 1054.7 1182.3 1260.9 1264.2 1256.7 1257.5 1319.2 1444.6 1549.4 1455.1 1431.3 1450.5 1251.9 1078.6 992.8 1139.5 1273.2 1182.6 982.3 809.0 725.3 648.4 598.6 561.3 545.8 533.8 516.0 495.8 520.5 551.5 562.8 516.9 492.0 444.3 429.6 404.4 345.1 305.7 287.1 283.5 272.8 262.2 270.7 297.2 313.1 291.8 267.7 221.5 238.2 250.9 244.0 218.7 195.7 207.7 194.5 183.6 239.0 255.2 219.2 214.4 238.2 224.0 211.4 192.2 163.9 189.5 186.1 176.3 163.7 154.1 144.5 122.7 108.5 105.8 103.9 102.5 99.0 87.0 80.0 75.8 71.2 66.4 64.7 65.0 71.8 89.6 106.6 119.1 118.0 85.1 -9999.0 -9999.0 -9999.0 -9999.0 -9999.0 -9999.0 -9999.0 -9999.0 -9999.0 -9999.0 -9999.0 -9999.0 -9999.0 -9999.0 -9999.0 -9999.0 -9999.0 -9999.0
-9999.0 415.3 403.0 352.4 305.3 272.0 278.6 296.3 258.6 244.7 253.0 220.0 296.2 348.9 355.6 306.4 249.1 179.9 139.5 120.8 210.3 211.5 199.5 184.0 194.2 207.1 218.5 241.5 240.8 205.2 240.4 227.7 235.2 182.4 161.0 140.4 120.9 127.4 136.1 152.9 228.3 317.7 397.1 468.0 470.8 539.5 572.8 563.5 560.7 518.4 492.6 503.3 541.5 568.9 594.8 571.7 530.0 520.3 500.5 502.3 512.5 571.4 593.1 537.5 510.3 471.1 439.4 406.8 366.5 352.6 328.4 369.1 376.3 351.6 355.7 387.8 408.2 349.8 298.0 316.2 326.2 289.4 272.5 332.0 354.9 354.2 324.1 293.8 274.7 264.7 284.1 327.0 382.7 383.9 350.1 334.4 322.2 322.4 346.8 373.3 455.3 514.1 594.9 670.6 692.8 677.5 659.0 618.0 552.7 501.2 454.9 436.8 419.1 412.6 406.1 418.2 413.4 423.1 466.8 517.0 542.6 499.1 574.6 683.4 770.3 765.4 718.7 680.7 648.0 534.7 457.2 484.9 500.2 593.8 645.0 577.9 701.9 822.5 857.7 942.3 1058.8 898.3 936.7 991.9 936.0 914.7 944.0 1041.6 936.6 739.1 577.0 477.7 307.8 421.1 483.7 425.4 433.7 632.0 745.1 824.1 886.0 1001.9 1174.0 1384.4 1594.4 1611.6 1513.7 1430.7 1354.4 1297.7 1352.7 1231.9 1085.6 995.0 892.1 927.3 1069.4 1042.8 921.4 778.7 815.7 899.1 931.0 946.8 952.1 914.0 898.8 894.5 874.4 834.9 785.7 748.3 702.9 733.6 726.2 701.9 722.2 753.5 789.2 837.3 884.8 935.5 1012.5 1029.2 1094.4 1201.9 1308.9 1301.6 1185.6 1143.1 1094.5 1025.3 1011.5 1118.9 1221.9 1279.1 1295.0 1334.3 1331.1 1316.5 1389.0 1433.6 1561.4 1707.4 1764.6 1660.8 1550.2 1516.7 1539.2 1423.5 1289.4 1182.2 1054.5 943.0 881.3 840.9 807.7 755.9 817.1 906.8 1011.2 1122.9 1224.1 1289.3 1338.5 1370.0 1366.2 1422.8 1422.1 1440.0 1472.8 1512.4 1497.9 1548.0 1699.8 1854.4 1820.2 1643.8 1461.8 1301.9 1187.9 1340.3 1510.5 1606.4 1611.2 1655.9 1619.6 1464.0 1362.6 1310.3 1263.1 1145.9 1078.9 908.9 940.3 1047.6 1147.1 1236.7 1306.6 1314.6 1159.6 1084.6 1016.2 1003.1 990.1 906.1 820.0 878.7 906.9 979.7 980.9 1000.0 1082.4 1121.2 1189.0 1216.9 1160.3 1194.8 1171.8 1297.9 1431.4 1371.3 1261.2 1323.6 1407.3 1277.9 1154.4 1002.4 903.3 931.4 901.3 781.1 699.7 656.0 621.2 605.1 593.4 596.4 553.4 567.8 589.6 566.8 581.2 507.5 444.1 407.5 366.8 342.6 327.5 321.9 324.1 340.9 327.3 297.1 258.8 249.4 267.1 274.0 278.4 273.1 235.6 217.7 242.7 255.9 260.9 243.2 227.2 218.0 184.7 191.9 191.6 193.9 177.6 185.0 180.1 180.0 169.7 162.5 150.8 146.2 132.2 130.4 121.4 113.2 104.4 101.2 97.7 94.8 90.3 86.4 81.9 78.0 74.1 72.7 76.5 88.2 87.1 93.7 120.2 145.6 131.4 124.3 117.5 65.1 -9999.0 -9999.0 -9999.0 -9999.0 -9999.0 -9999.0 -9999.0 -9999.0 -9999.0 -9999.0 -9999.0 -9999.0 -9999.0 -9999.0 -9999.0 -9999.0 -9999.0
-9999.0 480.4 466.6 422.9 373.6 350.1 346.4 395.3 356.4 356.2 335.5 253.9 294.4 362.0 367.2 357.3 331.0 259.6 189.7 130.7 123.2 131.6 138.2 150.7 166.6 179.7 187.8 201.6 171.9 163.5 170.7 161.3 146.9 131.9 123.0 122.2 127.4 138.3 187.7 254.4 268.7 283.6 336.8 384.3 410.8 474.4 531.1 627.9 692.6 705.2 651.1 569.0 626.3 576.5 565.0 543.7 539.4 563.4 540.0 529.7 526.7 559.6 551.3 512.7 438.3 403.4 386.8 382.7 381.1 373.0 343.8 381.6 408.5 398.6 391.1 410.4 427.4 390.4 334.9 375.2 344.4 315.9 278.5 299.9 338.9 363.6 317.5 297.8 277.1 281.1 277.7 317.1 374.9 394.1 368.1 355.3 328.4 328.3 353.6 422.2 576.4 648.6 613.3 666.9 707.3 690.8 618.0 566.7 540.4 471.0 467.6 493.6 476.1 482.3 457.0 468.9 430.2 428.6 458.4 510.6 584.8 540.3 664.7 722.8 704.1 727.1 730.3 682.6 589.4 503.4 511.5 511.8 545.6 551.4 669.6 733.4 783.2 912.9 1001.9 999.3 1056.9 1017.9 978.2 903.3 922.6 846.7 858.6 911.9 872.9 714.7 587.2 379.9 339.2 526.2 708.1 733.2 608.0 610.1 631.7 671.8 778.2 942.6 1026.9 1140.0 1432.8 1596.9 1581.5 1493.9 1424.7 1376.2 1326.8 1218.4 1038.6 1001.2 903.4 1003.5 1100.4 1043.0 928.4 752.4 897.0 939.4 957.7 951.7 956.5 977.3 965.8 989.8 940.9 889.7 915.2 825.1 759.0 770.8 823.0 840.6 810.7 774.8 761.5 768.1 803.9 822.2 891.2 995.1 1087.9 1187.1 1305.3 1338.6 1282.6 1200.3 1182.3 1111.1 1022.3 1060.9 1175.4 1296.4 1260.6 1271.2 1298.4 1384.5 1438.7 1489.6 1611.7 1678.3 1599.7 1512.4 1516.9 1422.2 1424.3 1473.0 1355.5 1260.1 1121.0 1021.4 959.8 900.6 844.8 762.5 850.1 906.6 973.9 1059.7 1115.2 1173.6 1294.6 1422.6 1477.2 1525.0 1508.4 1523.6 1552.1 1593.5 1631.4 1584.6 1659.7 1830.5 1951.4 1886.1 1674.8 1442.3 1355.8 1532.1 1706.2 1777.7 1742.7 1683.5 1545.2 1469.2 1352.3 1172.4 1060.7 1039.3 973.5 963.6 914.5 1021.2 1096.0 1235.1 1268.8 1321.9 1192.2 1082.8 1096.0 1056.7 960.1 893.6 847.1 903.3 991.9 1052.4 1107.5 1110.1 1151.9 1163.9 1161.4 1215.9 1108.2 1075.0 1127.1 1267.5 1346.4 1170.7 1107.9 1197.1 1311.9 1352.4 1240.8 1102.8 958.4 857.7 867.1 872.8 793.3 708.2 662.9 650.6 650.0 631.7 553.1 569.9 615.3 636.7 590.8 543.4 508.6 443.9 426.9 431.0 409.7 385.6 350.6 380.6 361.8 319.0 308.2 264.2 235.7 237.4 252.3 253.2 243.4 222.9 212.8 240.2 256.4 246.3 226.9 203.7 180.5 166.3 155.6 146.9 143.6 144.5 139.9 135.4 129.5 127.1 123.3 119.6 118.3 114.3 110.2 104.5 99.5 96.1 92.8 89.8 87.8 85.0 82.2 80.4 92.1 114.4 142.0 144.7 131.3 139.3 136.4 119.9 118.0 88.7 112.8 98.3 -9999.0 -9999.0 -9999.0 -9999.0 -9999.0 -9999.0 -9999.0 -9999.0 -9999.0 -9999.0 -9999.0 -9999.0 -9999.0 -9999.0 -9999.0 -9999.0 -9999.0
-9999.0 502.6 482.9 479.9 467.8 448.7 437.0 448.8 421.8 397.2 368.9 297.3 279.5 341.0 361.7 345.5 327.3 319.9 265.6 190.5 202.9 167.6 152.3 116.1 111.5 131.6 108.6 103.0 106.5 111.9 106.8 116.0 141.0 166.8 159.1 157.3 168.4 193.2 234.4 272.8 312.1 340.8 360.8 416.9 463.4 524.2 627.1 683.7 756.7 715.9 643.2 664.6 677.8 626.0 564.6 521.9 511.8 529.2 539.4 532.1 563.7 584.8 545.6 479.5 454.6 447.4 396.7 378.1 385.9 339.7 377.4 429.9 445.4 443.8 428.0 420.2 412.4 429.2 411.0 393.8 324.1 299.8 292.6 323.8 331.8 356.7 322.5 287.7 300.2 284.1 295.7 305.4 366.0 397.2 379.8 365.0 330.1 327.7 362.4 436.7 562.2 666.2 627.1 635.3 708.2 694.9 629.1 536.4 480.5 468.8 536.1 538.9 529.3 587.2 519.6 461.8 463.6 467.3 513.0 508.8 619.1 595.5 682.0 758.8 699.5 628.8 596.6 584.6 545.6 523.9 586.6 494.0 528.7 558.2 625.3 791.4 900.2 985.5 1028.4 1067.9 1129.1 1070.7 929.9 802.9 862.3 830.6 745.4 673.5 616.7 651.2 589.7 360.8 390.8 604.3 801.3 938.4 840.1 913.4 871.9 749.6 713.8 808.0 816.6 890.5 1136.3 1402.1 1534.2 1555.6 1468.0 1339.2 1206.2 1101.1 989.4 947.1 971.8 1012.2 1120.4 1141.9 971.7 763.0 911.1 1005.2 1003.4 971.3 1024.1 1056.8 987.1 1035.1 1098.3 1025.9 939.2 935.2 836.6 783.3 830.8 941.5 966.1 906.9 871.7 826.8 830.5 843.3 886.1 902.8 1001.8 1090.6 1144.5 1214.9 1277.3 1263.6 1211.6 1190.8 1172.8 1092.0 1051.2 1187.0 1227.8 1253.1 1306.6 1359.3 1400.7 1502.5 1635.4 1588.4 1459.8 1336.6 1312.9 1263.6 1214.1 1348.5 1295.5 1206.7 1075.3 978.3 942.3 889.8 791.5 785.1 830.4 891.4 958.9 1022.5 1062.2 1113.0 1216.6 1345.8 1465.9 1562.3 1601.0 1606.0 1653.2 1710.7 1764.9 1731.1 1718.9 1768.0 1870.3 2000.5 1854.0 1700.9 1641.0 1752.5 1753.1 1619.2 1521.2 1488.8 1360.7 1281.4 1166.5 1085.3 1185.8 1256.2 1055.7 923.2 965.6 1048.8 1096.1 1152.6 1237.5 1308.3 1180.5 1072.4 983.5 961.7 952.5 903.0 930.6 977.8 1047.5 1121.6 1098.2 1065.2 1131.1 1070.6 1099.4 1144.9 1121.7 1020.1 1094.1 1197.6 1238.9 1070.4 1038.1 1140.9 1238.4 1366.4 1315.0 1150.9 1041.6 1031.5 1061.3 977.3 841.6 742.7 651.2 595.4 583.9 605.0 532.9 519.4 571.5 627.5 661.1 651.1 585.8 538.5 532.9 504.3 438.6 359.0 305.4 317.5 321.7 296.7 300.2 296.8 285.2 248.7 217.1 223.8 252.2 251.1 224.8 204.9 193.4 187.6 179.9 173.7 166.2 156.5 152.9 156.0 156.2 150.1 143.6 138.4 134.3 127.5 123.3 120.0 116.4 111.4 107.4 104.1 100.9 102.7 115.0 114.7 111.6 96.9 113.7 118.5 120.3 145.0 153.5 168.2 185.9 173.1 150.3 126.3 97.5 78.9 71.0 72.6 60.2 -9999.0 -9999.0 -9999.0 -9999.0 -9999.0 -9999.0 -9999.0 -9999.0 -9999.0 -9999.0 -9999.0 -9999.0 -9999.0 -9999.0 -9999.0 -9999.0
-9999.0 511.0 505.6 473.4 457.2 450.6 435.6 402.6 391.4 394.1 384.3 339.7 302.9 334.7 360.4 343.1 339.8 295.8 254.5 217.1 193.7 230.1 250.9 175.1 193.3 126.0 102.9 99.3 122.2 150.2 175.0 218.9 260.3 274.8 205.8 166.4 187.6 219.7 243.2 261.4 279.6 317.4 388.4 474.2 554.6 586.9 637.0 733.3 795.3 820.0 736.5 698.1 724.1 685.0 594.9 526.2 506.9 493.5 494.6 509.3 516.2 546.2 550.9 521.8 474.1 426.9 395.1 408.8 439.6 362.2 378.7 423.8 467.2 449.8 391.9 384.5 387.2 403.0 409.5 425.0 387.7 361.6 325.6 351.3 364.2 321.9 298.5 307.4 325.7 292.0 320.7 364.9 396.9 393.3 373.3 363.0 330.1 331.6 425.0 583.0 673.1 753.9 724.5 724.2 726.3 667.8 612.2 523.3 497.6 490.8 538.9 597.6 595.3 606.4 497.0 510.4 492.8 496.4 565.7 574.7 577.2 644.9 728.9 769.4 692.6 622.6 568.0 535.6 563.9 586.8 544.2 518.3 552.9 570.3 653.2 773.8 877.8 987.8 1067.6 1102.9 1144.9 1077.1 867.6 681.0 600.1 634.9 559.7 516.1 460.1 562.6 467.2 308.1 486.1 694.0 886.7 1033.2 1045.5 1215.2 1307.4 1167.9 1002.6 894.4 849.1 894.2 980.8 1154.2 1300.6 1421.6 1424.2 1331.3 1207.3 1155.1 1035.8 1026.9 1097.7 1103.8 1114.8 1146.6 983.1 779.7 873.4 1020.0 1024.5 988.1 1024.6 1157.7 1145.7 1028.2 1126.8 1184.1 1103.4 1004.4 956.9 923.7 806.3 857.9 949.5 1001.5 937.9 940.7 971.1 924.6 893.5 999.2 995.2 982.4 1013.9 1026.3 1088.0 1174.9 1239.9 1308.7 1332.1 1244.0 1151.3 1088.2 1112.1 1296.6 1346.1 1333.5 1457.5 1624.0 1625.7 1618.1 1501.9 1390.2 1229.1 1098.1 1057.6 1081.1 1165.3 1094.1 994.6 941.5 855.6 855.0 791.3 768.8 783.7 834.9 893.4 991.0 1091.1 1170.9 1291.4 1397.5 1479.6 1555.3 1649.8 1692.8 1731.2 1794.4 1872.3 1892.0 1866.1 1872.7 1908.1 2000.9 2003.3 1934.3 1879.3 1797.6 1705.3 1564.5 1436.0 1314.2 1183.7 1176.3 1228.8 1307.2 1319.4 1194.6 1064.2 1049.9 995.5 1068.6 1170.4 1210.0 1301.4 1330.6 1173.9 1067.7 1122.5 1134.5 1080.7 956.9 993.4 1028.3 1054.1 1112.6 1095.9 1034.4 1071.6 1016.9 1088.6 1023.8 1089.4 1033.2 987.5 1062.2 1060.6 962.2 1008.7 1120.7 1219.9 1354.4 1394.9 1328.0 1224.1 1180.3 1104.7 1000.7 901.0 822.1 734.8 654.4 584.0 522.6 525.4 492.9 568.2 612.8 579.5 612.4 556.6 493.4 449.8 457.2 444.9 378.3 323.2 284.7 276.8 270.1 268.7 273.9 296.5 305.0 253.8 209.0 211.7 213.0 202.9 191.4 179.5 175.6 168.2 165.2 164.3 171.2 187.3 198.0 201.9 185.3 195.3 193.8 195.4 174.4 152.4 136.3 146.4 131.9 140.5 150.8 126.0 139.7 173.4 176.5 148.0 121.0 134.2 136.2 149.4 164.4 183.5 230.4 220.2 163.9 120.6 107.7 123.9 88.8 120.1 125.2 76.6 55.0 -9999.0 -9999.0 -9999.0 -9999.0 -9999.0 -9999.0 -9999.0 -9999.0 -9999.0 -9999.0 -9999.0 -9999.0 -9999.0 -9999.0 -9999.0
-9999.0 520.3 492.0 486.9 485.7 454.0 424.4 433.5 422.9 406.4 394.7 384.3 364.1 378.6 365.1 355.2 355.0 350.0 323.0 265.6 230.7 272.2 238.9 189.2 244.9 236.0 184.3 128.2 96.6 157.5 209.8 251.7 288.1 283.5 217.3 204.3 206.1 222.3 234.5 241.3 274.0 320.4 410.8 505.4 588.6 637.6 686.4 767.8 849.7 848.1 795.2 739.9 710.9 622.2 589.6 580.6 533.6 500.2 472.2 480.1 489.7 502.9 507.6 492.7 479.4 439.2 421.0 466.1 486.3 406.0 374.3 379.0 385.2 380.1 380.5 416.9 414.0 376.9 381.2 410.1 403.2 418.7 408.0 401.6 388.6 368.7 339.1 338.7 372.1 332.1 335.8 404.8 404.1 382.4 371.8 361.8 337.9 334.7 404.1 551.3 667.8 762.9 768.3 772.7 759.8 690.2 579.5 534.6 567.5 534.7 521.8 580.2 656.0 583.0 552.1 548.5 507.8 552.9 652.9 691.5 733.6 754.7 814.5 842.3 795.4 679.6 579.7 598.7 646.9 626.2 627.9 553.2 629.7 582.8 698.6 822.2 923.6 1035.7 1077.0 1130.5 1160.5 1134.1 988.8 790.2 606.6 464.2 431.0 422.1 369.4 377.3 362.3 372.4 572.9 752.3 920.9 1078.0 1171.5 1297.4 1434.8 1491.0 1452.9 1360.2 1177.8 1128.9 1005.9 1040.2 1169.4 1264.1 1321.5 1298.3 1314.7 1213.0 1106.7 1062.3 1107.1 1134.4 1105.9 1074.4 998.5 845.1 818.0 1014.4 1051.2 1031.6 1026.6 1177.9 1220.7 1103.3 1102.8 1273.4 1309.1 1231.3 1096.1 939.4 834.4 932.9 996.3 1030.2 967.8 1018.7 1065.0 979.7 937.8 1058.1 1109.7 1132.2 1143.1 1169.6 1133.4 1068.2 1182.4 1336.1 1479.5 1461.1 1372.0 1243.9 1116.7 1199.6 1252.7 1382.1 1538.8 1607.5 1601.0 1662.2 1631.1 1439.4 1262.0 1155.8 1031.4 977.2 958.3 929.5 890.0 885.5 885.0 861.6 803.0 856.1 872.9 798.5 894.7 976.4 1070.3 1162.9 1262.8 1325.1 1337.2 1470.0 1511.1 1514.1 1628.4 1763.5 1886.5 1996.5 2031.3 2038.5 2060.2 1994.8 1896.1 1832.9 1792.0 1628.2 1563.5 1420.3 1343.9 1254.1 1251.7 1399.4 1499.9 1464.3 1311.9 1273.7 1156.1 1240.0 1112.4 1050.0 1079.4 1192.8 1290.0 1400.4 1305.5 1187.7 1230.6 1126.0 1075.6 1046.1 1040.2 958.2 1011.4 1035.0 1050.6 1089.5 1009.4 980.2 1015.0 964.2 1032.5 1079.1 1003.7 928.4 894.9 874.6 980.8 1074.2 1181.1 1263.2 1375.3 1350.7 1207.0 1075.4 959.6 889.0 902.0 874.8 763.3 643.3 585.6 515.4 468.2 455.5 525.6 498.5 524.4 594.3 571.7 497.2 410.0 371.4 372.0 397.9 349.7 312.9 336.6 303.8 267.1 261.6 294.3 269.6 236.7 215.1 195.1 191.0 184.8 180.2 187.7 177.5 205.6 233.5 234.9 215.0 224.5 240.7 251.5 221.9 195.4 217.2 225.1 190.9 175.0 144.3 160.8 168.3 174.1 168.1 133.5 154.8 158.6 161.5 178.8 149.8 158.5 175.1 165.8 192.0 205.3 196.3 220.9 173.7 138.0 179.1 162.5 128.2 150.6 119.0 113.0 88.0 49.0 -9999.0 -9999.0 -9999.0 -9999.0 -9999.0 -9999.0 -9999.0 -9999.0 -9999.0 -9999.0 -9999.0 -9999.0 -9999.0 -9999.0
-9999.0 508.9 496.9 512.6 494.5 495.2 487.0 471.2 435.0 432.6 422.4 389.8 396.9 384.8 365.2 368.0 360.4 365.3 350.3 277.4 310.7 318.8 292.0 250.0 251.7 241.7 253.1 189.8 97.3 147.8 205.0 246.6 280.2 298.3 281.1 263.8 236.8 265.5 256.0 243.6 263.7 300.8 353.3 414.1 479.2 537.8 599.1 684.0 730.5 840.1 741.9 662.1 622.6 641.0 672.9 612.2 559.4 520.2 475.3 454.6 474.2 480.5 478.1 478.6 486.6 484.8 490.5 513.8 559.0 509.1 504.3 501.5 461.0 457.2 416.0 437.7 412.4 404.6 380.0 388.9 393.9 394.0 403.4 406.2 408.4 413.3 404.4 396.0 419.0 410.1 395.7 416.7 396.2 384.0 370.9 360.7 339.3 333.7 367.4 446.6 594.0 738.3 748.1 751.4 736.5 691.6 597.1 560.4 619.1 542.1 551.8 562.2 653.3 639.2 576.3 565.5 545.8 667.4 804.3 797.5 799.6 818.1 896.8 850.8 804.3 659.0 664.4 739.5 760.0 718.1 679.2 572.0 582.6 636.0 651.6 715.5 832.2 936.0 1064.1 1140.6 1151.7 1211.2 1093.7 920.1 667.2 514.8 510.9 443.9 371.6 327.2 285.3 370.7 473.1 606.9 782.4 948.5 1132.6 1268.3 1378.2 1477.4 1529.0 1554.1 1470.3 1334.6 1189.4 1103.9 1135.2 1177.5 1190.5 1232.4 1307.6 1318.4 1326.3 1179.2 1090.1 1023.6 993.7 942.7 907.2 828.0 796.1 986.7 1052.6 1045.5 1006.4 1074.5 1186.4 1165.0 1130.8 1254.0 1356.0 1241.6 1092.0 903.6 930.4 972.0 1036.9 1082.6 1031.6 1050.1 1042.4 958.0 1032.8 1164.3 1234.1 1219.0 1206.5 1200.6 1163.1 1076.1 1184.1 1358.9 1516.4 1640.6 1582.2 1442.0 1268.7 1149.6 1186.7 1359.1 1531.3 1611.5 1535.6 1617.2 1590.5 1456.3 1297.8 1197.3 1147.2 1111.5 997.7 971.2 1020.7 978.9 946.3 853.4 875.3 980.3 944.7 806.6 851.1 941.3 1033.6 1108.9 1201.2 1231.0 1183.4 1260.0 1349.5 1465.5 1593.6 1705.5 1814.8 1933.4 2036.1 2129.3 2175.0 2019.3 1915.6 1766.9 1612.7 1461.6 1375.9 1398.1 1451.3 1402.8 1470.7 1616.6 1610.8 1621.8 1482.2 1374.0 1275.6 1376.2 1324.4 1183.0 1102.7 1175.4 1335.8 1365.8 1275.9 1194.4 1267.2 1220.8 1112.2 1004.0 1029.9 931.9 938.1 946.8 1012.5 1093.7 1127.9 1014.0 937.1 910.7 966.7 997.2 1044.7 1030.2 953.3 819.9 899.0 987.9 1073.8 1175.9 1318.3 1320.7 1248.8 1126.4 1002.8 872.1 770.7 762.7 724.3 626.3 549.7 520.0 487.0 426.6 445.2 431.7 528.4 540.8 503.1 508.5 457.5 381.6 332.2 359.4 368.1 394.2 401.3 369.9 322.6 266.2 240.9 229.8 217.8 202.7 194.3 202.9 229.5 253.9 250.4 199.0 223.3 238.0 269.1 298.3 319.6 298.8 302.9 239.9 216.3 225.0 201.7 177.5 154.6 160.7 152.3 179.6 199.7 191.1 152.7 160.8 186.2 215.9 253.1 243.9 235.1 240.8 215.3 183.3 164.0 184.4 217.1 224.0 203.4 231.9 241.5 210.2 214.8 194.2 176.2 144.2 81.6 -9999.0 -9999.0 -9999.0 -9999.0 -9999.0 -9999.0 -9999.0 -9999.0 -9999.0 -9999.0 -9999.0 -9999.0 -9999.0 -9999.0
-9999.0 516.7 530.4 526.2 521.2 514.3 501.6 493.0 492.0 458.4 441.7 421.6 423.3 395.5 389.8 373.7 366.4 360.7 337.5 281.0 337.3 347.9 330.5 318.6 303.1 283.6 252.6 191.2 105.0 170.2 228.3 266.0 295.9 290.8 303.1 298.0 291.1 290.1 276.8 253.1 283.7 311.6 337.6 364.9 414.0 478.4 553.0 631.0 717.5 828.2 725.3 672.9 654.3 712.8 719.7 624.6 544.1 486.4 452.6 440.7 459.5 457.8 451.8 462.5 480.5 520.3 541.7 523.6 579.6 573.2 531.4 533.5 516.6 511.6 490.8 446.6 425.7 408.9 400.5 420.3 412.6 401.9 409.4 416.2 428.8 426.0 425.7 423.7 416.0 427.6 430.9 432.3 414.3 385.4 358.8 351.5 335.7 335.4 350.8 426.5 607.2 749.5 754.0 762.2 753.3 694.4 613.0 594.2 613.6 598.0 583.7 657.2 650.3 617.4 534.6 552.1 602.4 727.2 815.5 821.7 816.0 745.3 753.9 734.1 675.7 696.3 861.6 866.1 795.5 708.3 616.7 612.6 625.4 704.6 697.4 841.2 916.2 940.6 1001.5 1065.8 1187.5 1221.6 1034.6 822.9 647.4 635.6 592.0 555.9 491.1 352.4 283.0 348.1 487.9 598.8 727.6 865.0 996.8 1178.4 1328.9 1467.8 1517.3 1530.1 1514.8 1489.9 1374.6 1338.9 1275.0 1192.8 1182.5 1206.1 1248.2 1302.6 1295.3 1153.4 1059.7 1078.1 1150.7 1041.4 951.7 818.7 861.8 1045.4 1095.9 1096.6 1075.6 1078.6 1193.1 1248.4 1234.3 1187.0 1213.4 1059.9 959.4 1023.0 1107.2 1161.3 1133.1 1130.4 1083.9 1046.8 1047.9 1035.9 1102.0 1210.2 1300.8 1344.6 1323.4 1261.5 1161.8 1091.3 1134.3 1242.1 1404.1 1582.0 1668.3 1620.4 1453.1 1252.0 1195.1 1300.8 1464.5 1510.6 1473.4 1532.2 1539.6 1514.6 1459.2 1365.4 1247.9 1139.0 1019.6 1089.3 1003.7 949.5 893.6 888.4 957.8 1045.9 978.2 822.5 828.3 901.3 987.2 1079.4 1151.7 1124.9 1108.8 1229.6 1395.2 1517.8 1626.1 1745.2 1876.7 2006.5 2110.4 2158.6 2168.2 2033.1 1915.2 1740.3 1515.4 1525.3 1597.1 1588.5 1696.7 1608.1 1599.0 1761.3 1768.8 1698.8 1535.9 1442.3 1460.8 1534.6 1456.3 1324.1 1147.6 1205.3 1358.5 1310.2 1140.3 1083.8 1170.0 1111.3 1047.1 960.0 928.5 956.5 874.8 931.1 1001.6 1086.1 1092.1 1082.4 1025.8 943.0 877.7 891.5 958.0 951.6 918.4 864.6 808.9 922.2 1046.6 1191.0 1149.1 1126.9 1183.9 1180.2 1068.9 950.4 823.9 711.4 646.4 612.7 593.2 543.6 491.4 444.6 411.9 400.0 469.0 477.2 425.5 451.6 459.1 404.7 355.0 319.6 388.0 404.2 365.0 325.7 289.2 241.9 222.4 211.3 202.6 211.3 211.7 233.2 244.2 268.8 271.6 230.0 248.7 302.3 351.1 427.0 428.3 388.9 367.3 308.6 270.4 284.0 248.4 210.0 198.2 186.7 162.4 176.4 208.5 223.3 188.8 190.8 230.2 247.8 276.4 264.7 248.4 209.8 208.8 157.4 166.6 197.1 172.0 196.3 232.2 205.6 219.9 242.0 300.9 288.6 252.2 204.9 110.0 58.3 -9999.0 -9999.0 -9999.0 -9999.0 -9999.0 -9999.0 -9999.0 -9999.0 -9999.0 -9999.0 -9999.0 -9999.0 -9999.0
-9999.0 552.9 541.6 535.3 521.3 515.2 511.3 506.8 500.3 486.0 472.6 453.9 434.4 411.2 391.1 375.3 368.5 339.4 306.9 311.1 322.1 337.8 347.3 346.0 334.2 308.4 251.3 199.7 120.8 141.9 208.5 245.9 299.4 303.9 289.5 258.6 251.9 289.5 249.4 281.9 268.2 276.2 310.1 329.8 370.0 459.5 569.5 705.1 752.0 821.2 765.6 772.7 742.1 680.4 655.6 572.5 500.4 467.3 449.9 438.7 435.6 445.5 443.2 457.0 458.8 496.1 516.5 472.3 502.0 519.1 492.3 483.5 480.8 499.2 489.8 467.6 437.5 438.1 433.7 411.2 406.7 428.2 425.4 402.0 403.6 402.8 408.9 413.3 419.3 415.1 437.4 413.4 396.8 376.9 366.6 353.0 341.5 344.6 380.3 511.1 589.0 711.9 777.9 739.9 702.3 722.6 667.8 645.9 667.4 653.3 619.2 646.6 634.5 557.5 507.1 517.1 603.2 753.8 790.6 759.8 757.3 769.4 780.9 784.8 834.2 896.8 950.2 874.7 730.6 644.3 652.2 652.6 662.1 718.1 746.2 840.6 952.2 1045.3 1117.5 1131.1 1223.8 1273.5 1072.2 824.3 781.1 817.3 778.5 736.5 628.0 445.2 353.4 299.4 396.2 568.7 611.0 716.0 870.7 1049.9 1219.6 1314.4 1386.7 1363.3 1384.2 1371.5 1274.9 1288.5 1317.9 1280.8 1246.6 1246.0 1260.7 1264.2 1216.5 1099.9 1021.8 1053.0 1128.2 1093.8 934.2 790.6 968.1 1081.9 1079.2 1133.0 1167.7 1106.5 1208.4 1293.6 1305.9 1268.2 1282.6 1171.3 1026.8 1114.6 1209.2 1244.9 1260.8 1264.7 1204.7 1169.0 1148.0 1202.2 1156.5 1249.7 1337.0 1428.2 1347.5 1234.6 1176.1 1176.0 1175.4 1198.3 1233.0 1380.7 1531.8 1609.3 1539.1 1337.7 1258.6 1294.9 1342.2 1423.1 1520.4 1553.9 1542.7 1498.3 1430.6 1317.3 1217.1 1104.9 1146.7 1107.6 1010.8 1003.4 931.4 928.8 1026.0 1064.4 910.1 808.2 853.1 903.8 987.0 1044.7 1028.8 1031.7 1166.5 1265.0 1336.5 1497.2 1630.6 1745.0 1881.0 2039.0 2196.1 2287.4 2224.0 2106.9 1911.0 1687.1 1609.8 1745.2 1843.3 1773.5 1860.1 1827.5 1806.9 1718.6 1616.3 1565.9 1470.7 1411.3 1379.8 1370.0 1360.4 1307.3 1229.5 1161.1 1302.3 1376.0 1182.9 1032.4 1008.2 967.1 925.0 897.7 859.5 961.8 867.6 884.1 976.6 1072.0 1034.3 974.4 1048.3 1002.8 931.5 874.4 859.5 844.4 848.1 882.6 746.6 849.8 963.5 1034.5 944.0 969.8 1042.5 1074.3 1006.0 895.2 799.3 709.3 632.5 560.3 512.3 536.8 527.4 481.4 410.7 378.4 380.0 399.8 372.1 429.8 471.4 437.2 397.3 336.8 303.7 339.0 312.4 275.7 246.4 221.6 226.0 221.3 260.6 262.3 272.1 307.6 278.6 256.0 275.0 271.9 260.9 265.6 339.7 454.3 415.8 368.2 348.3 331.9 330.9 316.8 329.0 295.1 251.1 235.0 209.4 200.0 249.1 289.5 272.8 285.1 273.2 222.3 248.0 223.3 240.0 201.1 195.2 152.1 163.6 150.0 176.7 203.5 229.0 184.5 172.2 219.0 250.5 231.4 222.0 192.7 144.2 91.9 55.9 -9999.0 -9999.0 -9999.0 -9999.0 -9999.0 -9999.0 -9999.0 -9999.0 -9999.0 -9999.0 -9999.0 -9999.0
-9999.0 561.7 551.2 537.9 535.5 528.3 523.1 512.9 505.1 493.6 464.6 461.0 434.4 427.7 404.5 356.3 344.3 350.5 371.5 349.9 317.4 309.0 329.9 339.5 340.6 323.9 287.8 260.6 211.6 120.2 145.9 211.9 265.2 261.0 246.8 215.4 259.6 238.2 252.0 245.0 229.6 257.4 295.3 320.6 365.2 438.6 516.6 588.8 691.0 827.5 884.1 893.4 804.8 701.6 616.8 544.6 506.7 479.7 459.9 447.9 431.7 424.6 427.3 452.0 435.9 440.0 456.1 453.6 459.0 463.3 465.1 454.9 469.7 481.5 461.9 476.5 463.0 479.5 455.9 441.1 429.3 432.0 438.8 416.4 429.4 416.9 431.1 445.1 434.6 429.3 431.2 405.6 393.2 376.8 358.7 349.8 352.2 355.1 425.9 608.5 664.2 757.9 744.5 743.1 774.0 813.8 736.2 653.6 678.3 701.3 650.1 595.3 549.2 490.6 457.4 505.0 579.9 750.3 805.4 821.0 865.4 898.7 910.9 915.7 899.6 886.5 915.7 815.9 670.0 729.0 750.7 674.9 657.7 679.7 735.1 770.3 838.5 1002.5 1105.1 1203.4 1244.9 1191.2 1014.3 869.9 913.0 969.1 939.9 867.4 754.9 580.2 532.8 340.9 319.9 394.6 478.5 627.0 809.4 990.9 1100.2 1136.3 1191.5 1185.5 1229.4 1244.8 1279.9 1328.5 1313.1 1286.8 1310.3 1308.6 1293.4 1284.6 1273.6 1173.0 1040.7 998.0 991.3 1008.5 836.7 809.8 961.4 1087.3 1172.2 1211.2 1216.7 1161.2 1162.3 1189.8 1260.6 1350.8 1410.7 1357.7 1171.5 1143.0 1254.5 1286.2 1277.7 1277.0 1286.9 1231.0 1183.2 1235.6 1290.7 1253.4 1315.9 1343.5 1288.8 1230.5 1209.0 1196.3 1216.2 1285.9 1277.1 1309.4 1404.5 1447.6 1487.2 1536.0 1467.5 1417.2 1417.2 1479.5 1506.9 1505.4 1481.9 1407.8 1286.4 1177.7 1167.1 1215.1 1167.4 1079.5 1064.3 1024.3 995.2 985.3 1056.3 998.2 883.4 817.0 856.5 895.5 949.2 954.6 973.1 1058.4 1142.0 1282.5 1411.0 1535.0 1584.3 1697.0 1839.6 2003.8 2208.8 2355.1 2259.9 2055.4 1896.9 1789.6 1811.0 1946.0 2050.4 1982.9 2012.1 1960.7 1861.6 1688.4 1525.2 1484.3 1494.2 1525.4 1484.7 1416.4 1324.0 1315.7 1305.3 1258.5 1298.3 1359.4 1206.1 1102.9 1062.8 1015.0 944.4 944.1 851.5 871.9 912.0 813.3 896.8 998.4 949.0 897.6 887.2 943.8 988.3 950.0 896.7 811.1 770.8 769.2 766.1 709.9 750.2 786.4 790.3 847.2 908.0 940.9 896.1 796.2 710.1 618.4 575.0 558.9 494.5 450.0 423.6 394.6 373.1 362.6 348.2 337.2 331.8 367.8 397.8 390.9 375.8 348.7 306.9 274.3 259.9 251.6 237.6 235.5 261.4 288.8 322.0 340.5 356.9 385.4 328.6 309.7 328.6 346.8 358.1 327.8 368.1 468.9 428.8 369.8 316.5 284.5 267.2 263.0 297.2 301.8 269.6 283.3 272.9 274.4 301.0 304.7 283.6 282.9 277.6 227.9 211.0 205.7 214.6 202.7 190.0 184.1 137.7 160.2 176.5 191.2 202.4 178.7 152.5 198.9 181.0 165.7 168.5 158.4 167.0 128.3 92.6 50.5 -9999.0 -9999.0 -9999.0 -9999.0 -9999.0 -9999.0 -9999.0 -9999.0 -9999.0 -9999.0 -9999.0
-9999.0 561.6 558.8 557.1 546.6 534.9 528.9 517.8 505.9 495.1 467.8 445.0 440.7 446.2 416.6 394.2 377.3 397.7 355.2 278.7 276.5 245.2 242.3 275.2 321.1 317.8 292.6 273.5 267.4 205.4 100.8 188.2 216.6 216.2 212.1 202.6 220.3 212.3 234.0 214.5 228.4 275.9 314.1 348.9 393.7 444.4 481.7 523.9 583.2 696.8 866.3 959.0 802.4 685.7 602.4 556.2 555.1 539.9 478.7 445.9 446.8 435.4 424.5 423.6 418.1 427.0 444.8 456.3 461.3 454.3 444.1 429.7 446.3 442.7 463.8 452.9 451.3 453.1 448.4 447.7 453.6 462.6 433.7 425.9 427.2 423.0 421.6 436.8 456.4 439.0 430.3 395.9 373.5 367.6 367.9 360.6 365.7 368.0 380.0 462.2 584.5 632.7 699.9 766.4 831.1 809.6 726.2 721.8 682.8 700.0 637.1 532.3 516.0 452.3 437.4 496.8 579.6 707.8 879.8 926.7 918.7 959.8 934.9 903.1 892.7 859.6 804.7 709.7 782.9 865.8 792.7 739.0 699.7 691.6 668.4 752.5 844.8 990.3 1046.5 1161.8 1187.1 1095.8 913.5 817.1 955.7 1089.3 1083.4 955.1 769.4 621.6 525.0 414.3 286.4 460.0 638.9 746.5 893.7 1085.3 1138.4 1110.5 1173.8 1256.4 1300.0 1388.5 1438.7 1444.1 1417.5 1362.5 1405.6 1387.1 1333.5 1351.7 1299.4 1236.5 1073.2 978.5 958.0 976.0 842.3 832.7 991.4 1075.1 1152.5 1208.5 1189.5 1227.4 1172.7 1148.4 1175.9 1279.1 1352.2 1293.5 1200.1 1218.9 1291.4 1276.8 1228.7 1186.0 1241.1 1201.6 1191.2 1296.7 1351.8 1351.8 1332.9 1289.6 1302.1 1314.7 1301.1 1230.1 1211.3 1251.5 1319.4 1439.2 1559.0 1586.4 1589.3 1647.6 1753.3 1649.6 1546.8 1561.6 1481.6 1460.3 1392.9 1283.5 1192.5 1108.2 1097.0 1143.5 1069.3 1026.1 1026.3 1012.1 970.8 998.8 960.9 944.1 907.3 822.6 885.4 906.6 924.3 941.7 965.1 1012.2 1085.5 1217.1 1327.5 1455.5 1599.0 1676.7 1804.1 1947.2 2080.3 2133.1 2135.5 2129.9 2126.4 2017.4 1997.5 2125.5 2034.9 1898.8 1853.0 1786.6 1680.1 1576.2 1616.2 1742.9 1744.9 1758.3 1719.5 1569.7 1499.4 1513.7 1565.8 1442.7 1385.3 1341.3 1170.1 1101.5 1034.1 993.6 988.0 937.9 818.5 789.5 789.7 775.6 831.7 865.2 832.8 880.7 827.3 871.3 924.9 900.8 958.1 947.2 855.1 889.3 917.6 872.5 736.3 673.2 650.9 699.8 724.8 769.5 757.8 701.0 631.9 556.5 505.8 480.2 435.6 412.2 415.9 449.9 486.8 477.1 434.4 405.9 349.7 314.7 314.5 318.9 314.5 300.0 278.9 258.0 249.0 256.5 269.0 323.8 335.2 332.9 303.7 336.1 379.8 427.4 400.7 381.1 396.8 404.9 354.0 362.3 413.2 454.9 383.0 398.5 351.6 346.9 328.4 268.6 250.6 305.7 275.2 242.6 257.1 313.3 314.8 264.2 265.4 272.5 302.1 266.7 203.3 209.8 206.0 170.0 176.8 212.6 167.8 138.6 146.1 181.6 171.7 147.0 142.4 150.8 141.8 141.1 132.7 125.7 131.9 106.6 95.1 70.4 46.3 -9999.0 -9999.0 -9999.0 -9999.0 -9999.0 -9999.0 -9999.0 -9999.0 -9999.0 -9999.0
-9999.0 582.3 572.1 565.9 554.7 541.9 529.6 517.5 508.1 501.3 483.5 478.5 461.4 449.5 439.6 408.0 396.1 390.2 296.4 311.2 299.9 263.6 228.5 233.4 305.7 315.8 283.7 228.0 209.7 196.5 120.8 109.7 158.4 177.4 182.6 176.2 185.0 193.7 201.6 220.2 245.2 268.6 308.8 328.5 364.6 428.2 449.4 489.7 550.8 630.0 785.0 941.9 834.3 683.7 641.4 578.2 583.1 544.8 473.4 435.2 425.4 421.6 417.7 409.6 426.1 448.3 437.1 446.5 453.9 429.0 423.2 437.8 447.6 457.4 453.1 430.6 432.6 439.9 448.2 429.6 418.3 440.1 450.1 410.4 410.3 437.4 436.0 432.1 444.2 433.0 399.0 391.6 382.7 380.9 368.1 387.1 386.1 387.1 402.4 447.0 536.8 610.1 687.0 793.4 828.7 764.0 779.1 780.0 744.5 672.8 583.7 511.6 519.8 436.8 431.6 506.4 601.1 735.4 788.3 898.7 964.1 942.3 915.4 892.8 873.4 830.4 816.8 800.8 824.8 792.3 835.1 811.9 723.3 609.7 628.3 685.7 786.7 898.7 954.9 1085.2 1109.5 1038.3 926.9 779.8 851.9 1055.8 1219.1 1132.2 976.7 785.7 599.5 454.9 286.4 388.0 499.1 676.1 910.5 1058.3 1142.7 1177.8 1131.9 1225.0 1348.4 1384.5 1387.8 1374.8 1404.8 1441.8 1414.0 1442.7 1356.9 1231.4 1188.4 1152.8 998.8 930.4 908.5 913.8 866.1 896.0 1014.5 1055.1 1088.1 1111.7 1122.8 1124.1 1168.0 1130.6 1107.4 1179.7 1263.3 1223.1 1206.8 1279.6 1275.8 1197.6 1184.3 1118.5 1147.4 1129.3 1227.5 1251.7 1301.5 1323.9 1327.6 1318.0 1291.1 1282.9 1285.8 1212.5 1254.6 1251.2 1278.0 1371.8 1455.8 1540.0 1681.3 1733.4 1829.5 1825.0 1703.6 1566.6 1404.7 1304.9 1214.6 1151.9 1096.8 1065.9 1042.3 1017.4 997.3 984.1 964.4 941.4 921.0 949.4 951.2 888.9 856.5 864.0 852.5 890.0 918.3 927.7 946.7 980.8 1036.2 1098.5 1166.3 1313.3 1442.0 1513.1 1669.3 1799.2 1851.3 1885.0 1940.9 2086.6 2267.1 2204.4 2163.6 2171.4 2047.9 1968.7 1939.5 1830.4 1748.1 1797.3 1855.5 1908.9 1980.8 1941.0 1860.3 1763.6 1714.1 1751.0 1713.5 1599.6 1487.7 1365.7 1236.3 1151.9 1121.8 1093.4 990.9 848.9 844.4 904.8 915.6 842.9 762.1 726.0 781.6 779.0 788.4 798.1 848.4 862.4 938.1 973.3 929.6 953.4 957.0 973.7 934.4 860.6 742.3 684.3 602.6 588.1 585.9 561.6 520.0 474.3 454.8 461.4 457.9 462.8 473.3 434.0 482.6 457.2 404.3 361.9 334.0 316.7 313.0 300.8 282.8 278.8 262.0 274.4 329.1 341.7 327.2 323.6 329.1 273.1 308.9 362.0 425.6 457.0 389.2 332.2 380.9 389.7 353.9 314.1 386.8 424.3 331.2 326.6 289.9 334.2 394.1 349.5 241.7 292.7 338.3 258.2 258.8 321.4 315.0 253.5 264.5 236.6 265.1 249.1 209.6 171.6 178.0 156.3 170.6 193.2 174.1 151.9 121.9 138.9 135.6 140.1 127.9 117.4 118.8 113.2 109.3 101.3 95.4 78.5 71.6 65.1 53.8 46.1 -9999.0 -9999.0 -9999.0 -9999.0 -9999.0 -9999.0 -9999.0 -9999.0 -9999.0
-9999.0 575.7 572.3 564.9 554.1 551.5 544.7 527.8 514.1 496.9 489.6 483.1 459.7 432.9 420.0 420.3 378.3 325.0 313.2 320.8 305.8 308.2 242.6 215.6 249.2 268.7 285.1 274.1 261.7 230.5 182.9 142.6 104.0 110.4 138.5 172.8 207.2 221.0 223.1 225.3 255.4 264.9 295.5 324.9 372.3 408.7 428.3 461.2 545.2 642.6 730.1 807.1 859.8 769.1 701.2 681.7 625.7 534.0 473.1 450.2 450.8 429.9 406.7 423.3 440.4 446.8 428.7 416.9 413.9 426.7 463.7 465.2 474.5 443.4 416.8 434.9 442.7 421.4 412.0 410.3 416.7 430.8 438.2 406.8 424.1 437.6 427.6 412.9 418.6 435.4 431.2 417.2 393.9 378.2 379.5 409.9 411.2 413.4 422.5 453.6 511.1 592.2 658.2 775.9 849.8 842.1 840.6 836.6 842.8 799.7 643.2 576.0 525.9 423.6 414.2 464.0 515.5 575.2 629.0 761.4 910.2 982.6 973.6 920.9 865.8 835.5 829.4 807.8 828.2 787.3 713.3 777.3 734.0 566.6 615.9 701.0 808.9 810.6 850.8 874.2 973.9 952.8 897.1 720.7 771.6 979.0 1054.3 989.7 947.5 749.2 583.6 396.0 293.0 489.2 614.8 651.1 807.1 973.4 1152.6 1212.5 1210.1 1195.2 1314.0 1402.7 1462.9 1487.8 1421.3 1402.2 1337.7 1271.8 1281.1 1227.0 1118.0 1011.1 942.1 912.6 917.2 890.8 784.1 810.2 884.2 957.1 979.9 1015.1 1048.3 1103.6 1098.0 1125.8 1162.4 1221.4 1261.1 1220.4 1251.5 1310.5 1231.5 1121.9 1093.6 1078.4 1081.6 1091.3 1166.7 1274.8 1391.8 1452.6 1398.0 1304.1 1238.3 1209.2 1234.6 1170.7 1210.6 1265.8 1224.6 1317.9 1452.7 1501.2 1596.0 1722.2 1688.2 1787.6 1796.1 1635.7 1452.4 1313.6 1178.0 1104.6 1120.2 1155.5 1120.5 1094.6 1088.6 1060.2 1001.3 952.8 899.0 891.9 883.6 895.3 910.9 938.8 885.8 879.3 928.1 939.6 954.3 979.3 1011.6 1050.2 1110.0 1186.7 1251.5 1383.6 1536.9 1541.5 1571.6 1680.2 1811.4 2026.1 2206.2 2355.5 2347.3 2228.8 2192.8 2179.8 2036.1 1953.3 1950.3 2078.7 2093.6 2008.5 1916.6 1810.8 1764.1 1792.5 1806.4 1759.0 1610.6 1446.2 1328.7 1274.5 1196.1 1179.3 1156.7 1008.4 874.7 891.0 963.5 990.0 1065.0 984.7 885.9 771.5 726.4 704.4 692.6 728.1 788.1 880.1 830.9 834.3 838.3 820.0 857.5 890.8 947.9 944.4 866.0 810.0 760.3 685.6 589.6 538.9 532.3 547.2 534.4 540.5 469.5 429.0 421.8 422.5 395.1 381.9 333.2 303.8 313.7 311.2 303.1 291.0 280.2 279.2 298.4 359.9 399.8 350.2 298.9 279.5 260.8 261.5 327.0 375.5 405.8 385.6 354.6 293.1 307.4 355.7 386.5 310.7 290.0 382.2 351.3 294.8 259.5 338.4 400.4 361.7 273.5 245.4 295.3 255.1 215.7 283.8 275.7 234.6 247.9 237.9 227.7 236.2 207.5 185.3 167.1 151.7 147.8 167.9 156.9 143.9 144.5 135.4 114.1 115.2 119.4 105.9 100.5 89.4 82.6 79.6 74.2 67.7 62.5 56.9 52.9 47.8 -9999.0 -9999.0 -9999.0 -9999.0 -9999.0 -9999.0 -9999.0 -9999.0 -9999.0
-9999.0 576.2 571.0 564.1 554.0 538.3 527.1 521.2 513.5 502.7 483.5 469.6 455.8 443.6 425.7 385.4 371.3 378.7 371.4 372.5 372.9 327.5 260.5 219.5 200.4 198.8 222.6 260.7 231.1 193.5 170.1 159.6 151.1 111.2 87.5 141.8 170.6 187.6 191.6 219.9 222.4 245.6 303.7 377.0 429.3 432.1 451.3 444.5 476.9 562.0 611.8 646.4 730.3 809.7 818.7 749.8 646.4 548.0 491.7 472.2 449.9 432.3 413.8 398.9 418.4 440.0 442.0 399.3 416.9 453.1 454.0 433.4 440.9 418.5 411.5 416.2 421.8 410.2 396.8 397.9 403.0 410.4 409.5 405.0 414.2 428.0 391.3 404.2 416.9 413.0 420.4 407.8 390.9 387.0 384.6 410.5 431.9 442.5 448.1 488.9 543.5 654.7 748.5 830.3 859.1 914.9 920.8 902.5 871.2 849.6 697.6 624.5 541.7 432.8 396.0 447.8 499.6 627.3 746.6 759.1 825.9 932.7 997.8 949.0 891.8 849.3 849.3 815.3 785.8 778.8 738.2 629.2 628.7 551.0 589.6 702.2 818.3 753.8 654.3 650.3 687.3 736.5 728.4 621.7 730.1 857.8 796.3 671.9 607.8 530.0 435.8 315.5 314.2 511.8 656.7 784.6 899.0 975.3 1143.2 1305.4 1339.9 1291.5 1245.4 1285.9 1436.8 1541.8 1553.0 1450.8 1279.4 1172.0 1144.9 1043.7 990.0 963.9 938.0 932.3 955.2 866.6 783.8 825.2 874.1 918.8 927.8 988.6 1057.3 1160.4 1219.1 1193.3 1190.4 1259.2 1292.5 1294.2 1361.4 1357.1 1282.4 1192.1 1085.9 1032.7 1054.8 1108.4 1227.2 1302.9 1404.7 1524.6 1538.5 1438.0 1343.9 1241.0 1192.0 1171.7 1162.6 1181.4 1196.1 1307.2 1364.9 1462.8 1504.9 1612.9 1540.4 1687.1 1806.2 1795.2 1614.9 1444.1 1293.1 1135.0 1107.7 1065.9 1039.9 1064.5 1082.8 1040.0 1015.7 992.1 932.2 900.4 939.0 936.4 977.1 992.8 898.0 861.1 904.5 928.6 949.5 976.5 1008.5 1042.0 1077.5 1121.1 1203.5 1308.1 1293.4 1389.2 1502.8 1626.6 1813.4 1991.2 2094.3 2255.1 2387.7 2295.8 2253.0 2263.4 2174.3 2211.7 2260.0 2203.5 2126.0 2009.3 1874.1 1774.0 1649.6 1598.9 1642.9 1705.3 1595.5 1404.7 1231.2 1132.3 1074.0 1076.2 1023.6 907.3 897.8 989.1 1082.2 1082.4 1136.7 1025.8 970.4 868.6 806.1 776.8 692.2 672.2 729.0 754.3 726.3 786.1 826.6 714.8 762.3 824.7 871.7 929.5 867.0 766.9 713.5 666.8 627.3 617.4 595.9 549.1 518.7 514.9 452.6 414.1 391.1 396.7 394.2 330.5 313.5 357.0 417.3 421.8 428.5 398.8 378.3 375.9 342.3 319.9 361.0 311.0 299.8 309.1 292.9 243.9 316.3 367.1 310.8 289.8 315.6 272.1 347.1 406.0 441.8 391.4 325.6 253.3 254.5 271.2 239.2 298.9 341.6 313.7 300.1 210.0 258.2 289.9 229.7 208.1 258.0 236.2 205.7 208.4 212.2 195.4 181.2 169.3 163.3 160.7 133.1 141.5 135.6 124.0 115.7 116.6 108.0 92.8 91.3 85.0 83.7 77.5 72.2 68.3 67.5 58.7 54.8 50.1 46.7 46.1 45.6 -9999.0 -9999.0 -9999.0 -9999.0 -9999.0 -9999.0 -9999.0 -9999.0
-9999.0 560.7 552.3 550.0 542.5 534.5 526.0 518.5 513.6 502.1 489.8 471.9 458.6 448.6 428.4 406.5 401.0 400.3 332.3 322.5 377.6 345.8 318.7 299.7 274.9 214.7 181.8 203.8 189.9 167.9 160.4 154.1 146.5 132.7 111.1 84.0 139.4 162.4 171.7 206.1 194.1 213.8 269.9 362.2 458.1 497.8 490.5 455.3 462.6 491.7 578.8 685.1 756.4 888.2 869.5 692.0 627.3 587.1 522.5 492.5 467.9 444.2 428.5 406.1 405.4 450.7 446.5 397.1 412.7 430.1 414.2 408.2 405.2 409.0 405.9 400.8 397.9 402.6 389.5 388.2 387.4 391.0 390.4 393.7 400.5 397.9 344.6 361.3 348.2 332.2 349.7 359.0 392.7 386.8 379.7 401.5 429.0 460.9 470.5 499.8 565.6 657.8 730.0 760.1 792.4 832.0 895.6 909.7 878.6 756.7 690.4 588.2 514.1 473.1 404.1 389.8 451.7 518.1 634.5 754.6 847.7 954.2 973.0 950.2 920.2 908.8 869.4 808.9 710.3 702.2 653.3 561.1 535.8 486.1 551.9 667.9 761.4 642.4 556.3 519.2 493.5 505.2 516.8 534.2 655.4 807.2 744.1 539.9 405.3 340.2 280.7 285.7 333.3 467.7 603.1 778.5 954.8 1095.7 1152.3 1254.8 1350.5 1330.7 1392.7 1396.6 1397.1 1498.2 1571.1 1474.7 1293.2 1162.6 1073.5 1034.3 956.5 935.0 913.6 905.3 906.0 839.2 792.1 812.4 850.3 888.2 974.5 1104.2 1158.1 1268.0 1312.5 1233.2 1161.3 1232.8 1304.4 1326.5 1396.5 1394.1 1398.6 1292.5 1126.2 1023.5 1035.7 1108.0 1211.2 1294.9 1368.7 1469.5 1517.6 1494.2 1462.1 1350.2 1216.0 1157.7 1131.5 1143.3 1237.5 1404.5 1425.7 1401.7 1467.7 1490.2 1405.1 1593.2 1759.4 1774.5 1639.4 1467.4 1312.1 1198.7 1173.8 1154.6 1055.6 1002.7 1043.8 1019.9 953.8 934.1 918.1 945.2 998.2 983.1 965.2 949.0 893.4 881.5 908.5 940.1 947.7 970.1 993.4 1015.9 1040.7 1068.6 1101.6 1137.1 1255.2 1404.6 1534.5 1586.2 1601.5 1692.0 1862.9 2053.2 2152.8 2095.2 2087.8 2188.5 2215.9 2248.8 2231.0 2241.7 2184.8 2059.3 1908.3 1776.9 1622.3 1469.0 1415.7 1486.1 1572.4 1500.8 1332.9 1157.1 1057.4 998.8 939.9 933.0 987.2 1056.3 1167.1 1203.9 1218.4 1115.7 945.6 853.0 869.6 894.3 803.5 708.3 648.6 627.3 668.8 688.0 746.1 693.1 675.9 759.8 834.6 850.2 826.0 753.0 675.1 625.0 560.1 527.5 514.7 480.9 468.6 456.6 440.7 436.7 421.5 376.7 330.9 322.3 378.3 455.9 527.0 508.5 475.4 406.9 381.2 335.3 279.6 296.2 312.1 268.4 272.2 316.9 282.6 260.0 245.7 252.3 259.0 249.7 286.5 253.5 332.5 405.2 464.4 411.3 383.1 305.1 239.0 211.4 249.9 219.7 288.5 276.9 284.3 214.6 227.6 274.2 257.3 207.1 190.6 224.8 204.5 180.6 200.6 188.5 186.5 165.9 145.5 134.1 124.5 109.6 109.8 100.5 94.1 87.9 83.4 81.0 75.3 73.1 69.2 65.4 60.8 58.3 55.1 53.8 52.8 52.5 49.1 45.7 45.5 46.7 -9999.0 -9999.0 -9999.0 -9999.0 -9999.0 -9999.0 -9999.0
-9999.0 569.6 563.4 557.2 543.9 546.3 535.2 510.8 498.7 483.6 472.3 441.8 401.2 379.8 357.4 305.5 272.5 282.9 270.5 280.4 371.3 361.9 334.6 311.7 310.4 268.7 237.6 193.7 165.5 159.0 153.3 150.8 146.1 134.3 120.5 96.3 90.6 130.5 150.8 168.5 180.4 202.8 228.5 274.6 350.2 430.8 496.1 487.6 459.0 470.0 568.7 687.4 756.6 795.8 862.2 801.1 720.3 625.6 547.9 516.9 482.8 448.0 417.6 403.5 397.3 425.3 401.0 385.8 398.4 398.1 399.0 407.3 427.8 405.6 399.8 386.8 394.7 389.5 389.3 380.3 380.2 387.7 396.9 403.0 409.6 413.6 390.4 331.5 283.9 275.9 278.8 317.3 374.1 396.4 393.7 390.4 419.1 455.4 484.3 516.0 609.9 759.3 850.4 877.9 851.0 873.8 883.0 950.0 877.5 798.1 792.3 723.0 585.2 478.2 406.8 381.4 392.2 421.6 472.0 575.5 730.1 795.7 781.6 850.3 887.5 851.1 834.0 843.8 760.5 607.1 563.7 505.6 503.0 467.6 573.5 659.5 743.5 720.1 631.4 536.8 454.3 416.7 466.9 579.5 697.8 670.2 522.0 364.8 278.0 319.8 430.6 506.1 495.1 529.7 682.9 845.1 1010.4 1157.6 1273.3 1335.0 1393.3 1431.8 1488.8 1534.8 1466.1 1507.1 1514.0 1400.9 1231.8 1110.5 1074.1 1025.3 967.9 947.3 957.4 931.2 863.2 831.4 844.0 801.1 869.6 937.8 1049.9 1155.8 1262.1 1295.0 1273.3 1202.1 1135.8 1224.4 1295.6 1265.8 1218.4 1258.0 1359.8 1230.9 1082.5 1017.9 1019.9 1087.3 1190.4 1266.1 1321.6 1390.0 1425.2 1427.7 1344.9 1199.3 1155.7 1179.4 1166.5 1194.1 1263.2 1354.2 1333.0 1329.7 1324.3 1316.1 1306.2 1453.7 1600.6 1641.2 1472.6 1353.2 1277.3 1190.7 1115.0 1090.8 1089.1 1048.7 1000.2 959.7 983.7 978.0 970.6 982.2 973.0 935.3 907.6 896.8 918.4 932.0 896.3 932.6 953.7 965.9 975.1 994.3 1019.1 1042.6 1074.4 1113.6 1188.2 1281.7 1398.0 1437.0 1489.4 1595.2 1613.1 1745.6 1778.7 1816.1 1925.8 2012.9 1982.7 1947.5 1998.1 2136.7 2213.8 2075.0 1917.8 1784.3 1652.4 1552.4 1413.1 1301.5 1348.2 1364.0 1280.8 1161.6 1064.9 989.3 971.3 1024.2 1107.6 1213.0 1226.4 1223.7 1141.6 1072.4 953.6 924.2 954.3 931.2 872.3 779.9 726.7 702.2 628.1 600.5 601.2 640.1 718.4 767.3 778.7 783.6 744.6 700.2 613.2 571.5 566.8 622.4 594.0 564.8 495.6 439.7 414.2 410.8 394.8 357.8 330.9 372.8 423.8 505.7 558.8 472.6 381.3 317.7 284.1 275.5 261.9 257.8 248.3 237.6 244.6 251.5 250.4 290.2 294.5 271.3 235.6 213.5 226.5 231.6 287.1 354.9 395.5 329.3 293.9 265.7 256.9 215.0 215.0 214.4 245.9 234.2 257.2 201.2 226.2 253.6 228.2 212.0 184.1 175.8 175.0 162.5 174.5 153.4 140.8 133.5 117.9 106.0 97.6 94.7 91.9 87.4 83.0 77.9 74.7 70.7 67.1 65.9 62.8 60.1 58.5 58.1 57.0 55.7 55.3 54.2 51.9 50.2 54.3 56.2 46.2 -9999.0 -9999.0 -9999.0 -9999.0 -9999.0 -9999.0
-9999.0 577.4 558.1 548.5 533.1 515.1 507.2 467.4 421.4 375.4 364.7 329.1 314.2 289.4 286.2 271.0 291.7 256.4 248.9 236.0 276.1 334.8 308.0 292.9 289.4 277.2 253.0 205.4 177.5 159.9 151.2 144.2 137.3 131.9 126.2 111.8 86.1 106.1 149.8 166.2 187.5 201.3 213.7 251.0 338.7 426.9 489.6 526.5 488.4 468.1 506.4 610.5 685.9 709.7 783.8 857.8 724.9 634.6 626.8 571.9 559.7 490.9 440.6 422.1 400.1 390.9 379.7 386.4 393.0 407.1 408.8 425.0 409.2 390.3 394.8 381.9 399.9 383.1 379.9 382.7 394.5 398.2 402.0 395.2 393.7 390.5 391.5 373.9 327.4 275.5 256.3 274.6 292.4 338.2 393.4 408.2 401.6 425.5 463.7 509.1 595.6 738.8 865.9 946.1 956.6 996.1 986.9 1031.2 965.7 941.4 822.1 710.4 554.5 489.7 439.9 421.3 398.3 378.5 379.8 457.6 595.6 598.6 618.7 777.8 875.0 848.7 806.6 749.8 721.3 682.6 561.3 464.4 454.6 462.9 526.2 563.1 654.7 754.6 773.0 639.6 504.2 421.2 431.3 639.5 694.1 461.8 290.8 346.1 529.8 548.3 610.2 771.9 760.2 736.9 777.2 934.4 1118.9 1221.4 1222.9 1241.7 1343.7 1401.4 1442.0 1502.5 1571.6 1631.2 1571.7 1441.4 1264.9 1202.2 1154.3 1073.7 1002.9 943.6 911.5 901.8 840.9 890.0 963.9 830.9 859.5 941.8 1082.4 1188.0 1257.1 1236.2 1240.6 1138.2 1100.7 1203.9 1286.2 1225.3 1150.6 1227.1 1322.2 1204.7 1048.5 1005.2 1009.7 1045.1 1154.3 1257.1 1267.7 1258.1 1273.4 1205.3 1139.6 1197.8 1339.9 1339.5 1283.8 1365.6 1421.8 1417.8 1401.5 1326.4 1255.6 1207.4 1218.5 1336.3 1530.4 1578.5 1439.7 1309.7 1318.8 1279.9 1178.7 1107.3 1065.6 1103.1 1023.3 997.0 1022.5 1029.8 1041.5 1018.3 975.9 924.8 912.5 915.2 945.6 973.3 930.2 898.8 921.4 935.2 961.6 990.6 1011.0 1038.5 1069.9 1105.3 1144.7 1191.6 1223.6 1329.5 1375.7 1416.1 1423.3 1497.3 1518.0 1586.4 1659.1 1741.3 1791.5 1890.3 2056.8 2223.5 2211.8 2120.3 2014.5 1917.5 1805.1 1666.4 1499.4 1349.6 1192.7 1154.6 1105.8 1057.0 992.5 1016.2 1078.1 1146.5 1222.9 1226.3 1152.8 1050.4 1019.8 1019.0 1011.6 997.6 1013.9 990.1 976.8 941.5 883.4 833.9 736.7 660.5 658.3 587.8 632.2 653.7 710.3 673.7 630.6 627.6 562.7 510.8 513.6 563.6 566.6 550.8 467.5 442.5 408.5 381.4 354.6 337.5 385.4 399.7 469.8 551.3 573.3 477.1 377.8 336.6 339.1 361.5 357.6 336.0 320.6 304.5 270.0 220.6 241.2 284.9 308.5 348.4 313.9 269.9 222.6 212.0 220.4 265.5 288.5 250.8 235.6 207.6 216.1 213.5 186.8 211.6 187.9 197.9 213.2 189.8 179.9 196.6 194.9 165.8 154.7 152.8 145.9 133.9 126.8 123.3 112.4 104.9 97.3 91.3 88.9 86.9 85.7 82.2 77.8 76.0 73.9 70.3 68.3 65.5 64.0 64.1 62.6 60.2 59.0 57.0 55.2 55.1 55.8 56.0 69.7 81.9 64.3 -9999.0 -9999.0 -9999.0 -9999.0 -9999.0 -9999.0
-9999.0 599.0 579.6 561.6 547.7 523.2 490.1 455.4 396.7 372.0 360.7 329.2 302.4 300.7 283.1 306.0 320.9 303.8 300.5 288.6 234.3 219.4 221.8 299.4 289.6 241.1 249.7 205.8 185.0 167.7 152.6 144.7 137.1 127.0 124.4 93.4 80.8 108.1 142.8 154.9 170.8 199.1 223.9 248.0 317.4 388.7 438.6 481.8 542.1 472.6 468.2 533.5 623.1 686.2 692.7 750.9 740.0 748.4 718.7 622.8 563.3 510.3 476.1 445.9 421.7 428.3 399.2 379.5 372.3 376.4 404.4 404.8 404.7 399.1 381.6 377.3 381.3 378.1 388.6 396.2 391.7 395.8 406.5 415.9 419.6 394.7 346.2 306.6 281.0 257.0 243.9 289.6 327.8 352.0 387.3 412.0 406.9 380.5 400.4 463.3 546.5 666.1 727.4 863.5 931.1 995.6 1054.7 1103.2 1062.6 944.3 824.8 748.1 631.3 572.3 550.3 524.2 493.9 484.8 447.7 395.2 396.5 445.3 584.3 665.2 815.4 903.4 846.7 809.9 755.0 622.8 575.5 544.8 449.6 438.6 467.3 487.8 585.8 710.0 757.9 626.7 467.8 401.2 354.4 480.0 567.7 353.2 310.2 546.9 812.4 790.9 729.0 711.5 743.9 896.6 1006.9 1055.0 1163.5 1137.5 1017.7 1041.9 1154.9 1236.3 1347.4 1461.1 1499.7 1461.3 1456.7 1359.6 1214.6 1161.0 1112.4 1110.0 1033.1 947.3 910.0 846.0 873.5 951.5 1066.4 937.9 860.4 908.6 943.0 985.4 1035.9 1079.7 1146.4 1049.3 1127.9 1275.1 1291.2 1188.6 1110.9 1123.1 1134.6 1103.3 1010.3 994.9 1003.4 1037.2 1177.1 1298.1 1226.3 1112.4 1074.4 1103.5 1167.4 1355.4 1519.2 1450.9 1489.4 1585.7 1616.5 1604.0 1471.7 1348.3 1290.6 1149.0 1164.8 1282.0 1438.1 1461.6 1477.1 1397.4 1372.7 1274.8 1204.4 1150.4 1076.2 1031.7 997.6 1020.6 1046.6 1055.0 1043.8 1013.2 958.8 925.5 961.6 945.4 935.9 975.3 999.4 933.3 957.9 948.9 953.3 988.4 1023.0 1051.9 1075.4 1096.8 1127.1 1141.8 1186.8 1171.6 1220.6 1302.0 1442.7 1544.8 1581.0 1614.5 1718.5 1871.7 1868.1 2009.7 2152.5 2194.4 2089.7 2013.7 1944.4 1856.4 1753.6 1615.7 1440.9 1344.4 1275.9 1199.8 1098.1 1054.1 1061.4 1143.1 1198.9 1271.5 1224.0 1087.1 1041.9 1000.3 953.4 959.2 924.4 970.5 1008.9 969.3 910.6 876.2 904.3 907.2 862.9 833.8 774.7 696.1 634.7 565.9 552.5 528.4 512.7 510.5 467.8 441.1 440.9 441.8 437.2 421.2 402.6 381.0 375.9 373.4 383.1 437.1 498.1 503.4 525.3 574.7 586.0 527.1 461.6 430.9 397.0 334.2 315.7 289.6 272.6 307.9 288.7 252.4 217.3 245.1 268.8 293.1 292.3 248.0 263.6 220.5 199.1 200.2 222.4 207.8 191.0 177.3 168.2 158.9 158.6 162.0 157.4 157.2 150.0 144.6 146.2 142.8 134.5 126.9 124.2 115.6 110.6 107.6 106.6 103.7 100.1 97.1 93.8 89.1 87.8 84.2 83.1 79.5 76.5 74.8 73.6 71.5 70.3 70.3 69.7 69.0 67.2 64.5 62.4 64.1 72.8 80.3 81.2 94.4 127.3 130.7 113.4 53.9 -9999.0 -9999.0 -9999.0 -9999.0 -9999.0
-9999.0 599.6 563.9 534.2 488.7 431.7 424.8 432.6 400.7 340.4 302.0 298.7 296.6 268.2 248.8 293.7 342.6 292.0 252.5 234.4 278.5 240.0 196.2 248.0 299.6 280.9 235.8 199.9 187.5 175.5 157.4 144.6 135.3 128.8 101.3 85.4 106.3 124.0 142.6 153.1 180.6 195.4 217.1 222.6 291.9 382.7 426.1 451.2 525.4 466.7 488.2 492.7 555.3 579.9 620.6 718.8 744.6 698.0 686.6 649.2 598.0 561.8 522.3 530.1 498.4 508.3 498.1 420.0 381.9 370.0 369.0 369.7 372.2 380.5 370.8 374.6 386.2 388.8 387.5 400.8 405.3 422.4 412.9 409.7 407.4 413.2 333.6 287.0 292.7 274.7 238.9 282.8 330.3 344.7 361.9 373.0 352.1 320.1 338.2 406.0 472.0 576.8 675.2 744.0 838.6 940.1 977.3 989.3 1003.6 914.8 817.6 904.3 753.3 709.7 688.8 628.7 628.2 605.3 544.2 552.9 447.8 368.2 414.4 533.9 756.4 838.4 754.8 796.5 810.4 685.8 531.4 588.6 520.1 408.8 477.1 535.0 543.1 603.8 610.3 578.5 435.9 357.6 330.8 315.9 378.4 301.3 405.3 633.3 745.0 626.4 512.2 518.9 592.4 698.8 847.5 958.5 1107.0 1074.6 895.2 927.8 1010.0 1135.0 1254.6 1322.3 1275.0 1282.9 1219.3 1132.5 1063.4 1038.7 1006.1 1031.5 962.7 901.7 877.8 840.3 918.8 985.4 1089.5 1039.2 883.0 943.3 1016.7 1001.7 1001.2 1006.5 1004.2 1050.4 1138.1 1263.5 1316.7 1251.6 1176.9 1063.2 1016.3 1002.9 989.8 989.6 997.9 1033.2 1141.6 1143.4 1066.9 1044.8 1091.4 1225.5 1258.3 1397.2 1560.3 1600.8 1696.9 1754.3 1678.7 1571.6 1417.8 1306.9 1199.4 1075.4 1097.2 1193.9 1285.8 1355.6 1446.3 1400.9 1371.6 1307.4 1203.8 1160.5 1143.9 1079.9 1022.0 1039.4 1028.9 1024.3 1028.5 998.6 933.8 960.2 965.0 978.8 954.2 975.8 1003.9 968.5 949.4 984.2 999.6 986.8 982.3 1007.9 1045.5 1077.5 1078.6 1087.2 1128.8 1178.5 1251.5 1357.2 1444.5 1648.0 1820.0 1862.6 1842.4 2006.6 2145.0 2166.1 2202.6 2121.3 2022.0 1915.6 1843.0 1812.3 1746.2 1654.1 1615.5 1579.5 1457.6 1315.5 1195.8 1120.0 1133.1 1248.5 1337.6 1371.1 1242.0 1094.1 1046.7 1020.6 968.8 938.8 906.9 869.2 899.0 888.9 877.9 801.1 862.9 849.0 831.8 839.0 809.2 764.2 715.1 692.1 672.8 651.2 610.8 524.6 446.1 452.2 454.0 448.9 447.3 448.7 461.9 429.1 436.5 439.7 470.1 493.5 531.9 581.4 600.1 590.8 499.8 468.1 482.9 418.8 352.6 303.8 280.1 249.0 230.1 256.8 278.5 276.1 250.4 216.6 229.1 273.2 273.8 222.7 210.9 202.4 179.8 171.0 165.3 154.7 151.7 148.3 146.1 143.1 141.6 141.4 138.0 136.0 133.3 130.1 132.5 131.4 126.2 119.6 116.6 112.7 108.3 106.0 102.7 98.3 95.6 93.6 92.8 90.0 87.1 86.0 86.7 89.7 90.4 93.8 110.6 101.3 104.3 96.7 98.3 120.1 125.0 123.6 120.6 127.0 134.8 143.7 143.3 135.1 178.2 194.4 163.9 94.3 -9999.0 -9999.0 -9999.0 -9999.0 -9999.0
-9999.0 581.4 570.8 543.6 481.3 424.4 382.2 360.0 356.9 357.7 332.5 296.2 273.9 251.2 237.3 241.8 271.4 321.8 248.7 209.2 194.0 192.4 182.0 227.3 246.7 246.0 227.0 187.1 177.2 178.0 168.1 142.5 135.8 125.9 87.8 102.0 102.1 112.0 129.3 144.8 189.8 202.7 188.1 207.0 263.3 322.0 378.8 407.8 442.4 524.2 596.4 583.3 571.3 609.0 635.2 778.0 810.1 708.7 620.4 590.8 578.3 591.1 619.6 618.6 587.7 578.1 528.9 489.6 412.8 389.6 378.5 365.4 364.4 365.2 368.8 380.5 384.0 387.5 391.0 379.4 392.2 417.3 390.4 401.8 388.4 379.0 331.2 273.0 236.2 232.2 267.0 305.5 278.8 316.7 306.1 310.7 334.3 313.2 302.1 351.0 397.7 470.1 582.4 724.2 781.8 891.3 856.7 845.7 930.1 847.1 772.7 905.6 839.6 942.6 931.5 860.0 896.2 850.9 799.8 817.2 678.3 486.3 347.3 455.8 689.6 760.5 693.9 685.4 693.1 698.4 554.6 526.5 515.9 413.6 503.3 496.5 479.3 541.9 670.0 608.8 435.4 348.0 286.1 255.4 251.2 273.3 397.0 484.7 475.6 474.6 585.5 637.6 705.8 753.0 686.9 704.6 816.1 842.8 821.9 994.9 1135.1 1200.7 1182.8 1173.2 1257.6 1356.0 1324.6 1144.7 1032.1 989.4 967.6 925.0 883.9 859.0 850.7 859.0 907.3 975.1 1035.1 1018.6 891.8 898.5 975.1 1021.4 1153.9 1167.0 1100.9 1186.5 1266.0 1237.0 1176.0 1124.2 1106.1 1058.6 1001.3 991.1 984.8 991.0 1002.0 1019.2 1031.0 1026.1 1030.4 1068.1 1243.7 1392.4 1363.6 1548.3 1683.2 1743.9 1704.2 1624.2 1551.1 1432.0 1329.2 1246.8 1091.4 1011.8 1033.2 1068.6 1224.7 1412.7 1427.2 1299.9 1281.3 1369.1 1306.8 1212.9 1138.5 1067.5 1038.3 1026.1 1020.4 1016.8 1023.2 994.6 941.5 1010.9 996.8 1000.0 997.7 1027.8 1027.3 992.7 953.3 1000.1 1051.8 1039.2 1047.6 1050.5 1023.4 1039.0 1070.2 1087.7 1149.9 1202.7 1270.1 1413.5 1530.8 1700.6 1887.6 2024.1 2100.9 2171.7 2290.9 2364.1 2325.9 2262.5 2164.3 2094.3 2043.1 1963.9 1844.6 1735.2 1615.1 1468.6 1372.8 1279.9 1196.0 1163.4 1225.0 1342.1 1410.1 1381.9 1304.0 1182.9 1118.4 1044.3 1042.9 1091.1 1014.6 900.6 836.1 821.8 789.1 765.7 750.7 733.6 714.5 699.4 669.0 639.8 628.2 600.4 576.8 550.9 544.3 508.5 501.3 524.6 565.4 612.2 581.1 526.1 481.9 443.8 419.9 411.1 451.5 454.2 447.3 528.6 517.9 475.1 430.3 348.3 372.8 399.9 386.0 333.3 247.5 210.7 202.0 207.8 205.4 224.8 257.5 243.1 214.1 207.3 201.6 187.0 177.9 170.2 164.1 162.9 176.2 168.4 159.8 160.3 167.7 151.8 149.7 138.9 137.7 137.8 134.7 127.4 124.1 120.3 117.8 114.2 112.8 107.8 105.7 107.4 106.1 109.2 107.4 106.4 109.5 107.5 118.5 130.6 147.3 151.8 141.8 159.2 151.7 160.3 161.8 178.2 169.9 163.3 158.9 123.3 105.8 99.4 94.9 99.0 116.4 115.2 127.3 119.2 124.6 132.1 78.9 -9999.0 -9999.0 -9999.0 -9999.0
-9999.0 596.4 596.7 589.5 569.6 535.8 460.6 455.1 485.7 496.1 472.3 436.7 374.6 289.3 256.0 258.7 222.6 222.8 198.4 220.8 256.7 227.4 190.9 179.5 172.7 179.4 215.8 173.9 151.7 146.6 141.4 135.0 129.6 114.7 82.5 91.6 97.5 100.7 121.1 133.4 177.6 165.6 187.6 226.1 244.1 320.7 383.9 428.4 505.8 618.7 572.1 591.6 641.0 637.4 653.7 731.6 767.7 660.2 584.2 534.0 511.4 562.9 655.6 634.6 608.3 596.2 578.8 532.4 517.1 496.4 442.8 387.7 368.9 375.6 368.7 367.3 366.0 366.4 377.4 381.9 398.6 403.7 376.8 379.7 364.0 300.9 292.6 282.4 233.9 242.4 297.6 288.7 253.2 290.8 277.3 347.2 363.2 297.6 276.9 321.5 376.2 409.8 467.2 596.9 708.2 730.7 700.6 834.9 818.1 687.5 691.2 802.4 799.6 908.3 895.1 875.0 951.3 1024.4 978.8 832.8 684.5 581.0 430.2 357.1 615.5 695.4 657.8 654.1 635.5 625.2 529.5 526.3 540.9 402.1 452.4 427.8 432.3 502.1 599.7 600.6 476.0 327.6 254.2 243.4 291.4 383.2 487.4 390.1 476.1 668.0 823.6 875.9 941.2 1018.5 964.5 931.1 921.0 913.3 851.1 1015.2 1072.0 1067.1 1063.5 1101.2 1204.3 1333.6 1358.2 1299.3 1168.5 1056.2 1064.3 1010.6 897.7 856.6 867.4 880.4 911.7 1016.9 1093.0 1038.5 912.0 865.1 941.7 1003.5 1144.9 1259.4 1207.8 1233.6 1326.2 1268.3 1167.5 1088.4 1039.6 1018.4 997.3 983.9 987.5 993.9 997.2 1005.8 1013.5 1021.7 1031.8 1100.1 1296.5 1464.1 1445.3 1491.1 1640.7 1767.7 1693.2 1627.2 1507.9 1364.6 1297.2 1212.2 1085.4 986.0 961.3 1018.4 1137.3 1223.6 1209.2 1188.2 1195.2 1368.1 1339.2 1228.6 1137.6 1063.3 1050.0 1064.7 1034.2 1017.7 1014.7 1022.3 943.9 965.9 1042.9 1068.8 1044.8 1059.1 1020.3 986.0 975.4 1027.5 1100.6 1114.5 1122.8 1135.5 1118.7 1098.8 1146.0 1174.5 1141.2 1163.9 1232.8 1319.9 1480.5 1599.3 1701.0 1875.4 1988.4 2066.4 2192.9 2330.2 2280.5 2258.9 2196.5 2093.6 2020.7 1940.5 1841.6 1715.2 1602.3 1474.3 1390.0 1334.8 1269.1 1284.1 1295.7 1331.8 1257.4 1229.3 1255.7 1229.6 1162.4 1161.8 1150.1 1082.8 1006.4 946.7 916.1 829.6 837.9 912.3 795.6 766.9 787.6 757.3 703.2 713.3 717.4 698.1 741.9 717.4 697.5 649.9 605.5 634.5 640.5 578.4 534.4 517.1 445.8 401.8 383.0 382.0 421.2 443.3 379.4 443.3 498.2 420.1 340.0 298.7 275.5 290.3 283.4 218.5 209.5 204.7 194.9 192.7 188.6 184.9 192.1 196.9 198.3 186.3 176.7 171.7 170.1 188.0 215.4 225.5 246.2 251.6 233.5 275.0 251.6 189.9 225.8 192.6 192.7 228.6 226.8 155.6 150.0 135.8 134.7 124.9 126.9 128.9 130.4 132.1 122.7 137.2 143.3 140.4 151.7 138.3 120.0 144.6 163.2 172.2 184.0 199.5 227.8 205.8 162.2 162.2 131.7 116.3 114.7 128.9 148.9 149.1 118.6 84.1 82.6 77.7 79.2 85.7 83.6 94.1 82.9 55.4 -9999.0 -9999.0 -9999.0
-9999.0 589.7 579.5 573.4 565.2 555.1 545.7 531.6 506.5 500.3 488.0 477.3 455.0 378.5 348.9 389.1 313.5 253.3 252.7 255.0 281.8 240.8 250.1 203.5 222.2 197.1 181.7 212.0 216.3 182.5 157.6 134.0 128.8 114.2 87.4 77.7 98.1 102.1 120.7 129.2 141.0 179.3 199.9 216.7 249.0 337.9 404.2 462.8 556.5 599.2 544.4 524.5 562.5 600.6 657.1 680.9 688.8 668.2 581.6 507.1 481.4 518.5 545.3 566.4 587.2 585.9 610.2 611.9 581.0 576.6 548.2 448.4 382.7 373.5 354.7 376.0 379.9 391.2 393.5 413.2 394.8 398.2 372.0 369.9 327.8 255.4 227.2 222.3 216.8 254.8 286.5 240.5 229.1 252.8 296.2 330.4 308.7 283.3 249.5 274.3 309.7 342.1 379.4 426.1 523.6 540.2 596.3 685.4 714.0 549.3 666.0 679.4 710.1 771.6 750.0 753.3 910.7 970.8 959.6 917.2 842.3 724.3 521.2 336.2 563.2 664.2 611.4 732.6 725.6 638.8 529.3 429.0 439.8 379.9 392.0 408.3 438.5 474.4 535.1 510.5 402.2 292.7 238.0 263.1 354.0 526.3 580.8 472.4 616.8 745.4 867.0 987.3 1086.4 1099.7 1112.6 1112.4 1095.6 1048.8 941.1 989.6 1026.9 1051.8 1100.3 1082.3 1067.8 1112.0 1154.7 1171.2 1140.5 1103.9 1081.6 984.7 882.1 862.8 896.4 912.1 937.8 1051.8 1049.6 956.5 873.1 889.6 923.5 984.1 1135.6 1317.4 1351.8 1312.6 1444.5 1444.6 1331.8 1228.1 1126.6 1049.2 1013.4 996.7 984.7 986.6 999.3 1016.1 1046.3 1064.5 1049.3 1089.8 1269.0 1448.5 1568.4 1554.6 1537.0 1672.4 1641.3 1547.8 1475.1 1481.3 1445.0 1341.4 1177.0 1050.8 939.4 957.6 1032.2 1083.3 1031.2 1091.8 1215.9 1319.3 1281.1 1212.5 1116.3 1065.5 1096.3 1095.9 1034.5 1016.0 1019.1 1045.9 984.3 978.3 1065.6 1093.2 1101.5 1086.7 1081.5 1029.8 999.2 1016.8 1060.8 1124.0 1175.8 1216.9 1185.2 1163.9 1199.7 1218.8 1218.1 1197.6 1200.5 1273.1 1393.4 1508.4 1632.6 1830.3 2003.1 2170.7 2324.9 2267.8 2185.1 2121.9 2152.0 2081.0 1952.7 1835.5 1771.6 1694.2 1622.9 1559.0 1555.2 1498.8 1419.0 1391.3 1362.4 1298.8 1249.9 1179.9 1185.0 1245.2 1240.1 1136.7 1082.0 998.9 935.1 919.6 873.8 897.8 936.5 952.0 893.0 830.5 901.1 879.5 816.1 866.7 866.5 849.9 798.2 744.3 701.3 666.4 608.6 622.1 584.9 492.1 463.1 455.3 442.7 431.8 404.4 353.3 383.2 438.9 347.1 397.4 427.3 418.1 426.7 373.7 310.8 238.2 211.3 213.8 226.5 227.6 217.6 210.0 204.1 194.6 188.5 189.6 181.8 179.3 189.4 196.3 218.9 291.5 335.7 312.4 323.2 321.4 279.9 254.0 228.1 212.8 261.0 286.8 258.1 294.9 229.9 222.9 195.3 165.3 150.3 161.7 168.0 154.0 174.3 180.4 139.2 151.8 177.1 191.2 195.3 179.4 163.1 140.3 170.5 166.9 202.3 225.6 240.7 207.6 142.0 133.0 169.7 166.4 150.4 144.7 115.5 103.3 104.2 144.2 134.8 106.8 101.4 71.3 67.3 62.4 57.6 53.5 48.8 -9999.0 -9999.0
-9999.0 581.7 572.3 565.5 558.6 552.7 552.5 542.7 517.2 476.2 455.1 429.8 432.5 434.3 409.0 389.5 381.0 330.4 334.0 311.1 320.2 256.6 228.4 276.1 309.6 282.6 258.1 235.7 198.5 182.1 164.0 139.1 130.3 116.3 107.3 66.7 84.9 97.2 105.3 129.0 139.6 173.9 229.8 212.2 219.4 309.7 396.3 502.1 583.7 568.8 526.1 500.1 606.0 651.7 659.6 618.4 614.6 588.2 533.6 499.8 472.9 464.4 517.8 537.3 516.7 531.1 564.1 599.9 614.3 572.1 553.1 519.9 441.2 364.6 353.6 378.3 392.8 394.2 373.0 384.9 381.7 373.5 375.8 377.3 327.1 277.8 252.3 220.1 220.1 263.0 250.9 212.2 231.7 268.6 274.4 269.8 297.5 291.8 268.7 232.8 270.4 281.4 305.6 325.2 350.7 382.0 365.8 385.5 432.4 420.2 490.1 498.5 621.8 587.9 602.6 714.0 798.8 790.0 813.1 835.8 842.0 761.5 526.0 323.2 459.1 476.4 585.4 691.7 689.6 599.5 494.4 376.4 401.1 438.2 475.6 476.8 447.2 470.4 468.6 450.6 366.6 244.9 262.4 331.5 502.1 658.2 743.8 587.6 678.0 821.4 957.0 1097.6 1181.5 1204.9 1195.2 1168.2 1109.9 1051.2 1017.9 1013.9 1073.4 1147.7 1196.6 1171.7 1128.8 1124.1 1102.1 1002.9 974.9 996.9 1040.8 938.3 873.0 885.9 923.3 931.9 941.2 1024.8 962.0 884.8 876.1 924.0 933.7 990.7 1112.1 1252.3 1311.9 1366.5 1466.0 1531.1 1443.9 1365.9 1269.2 1165.4 1098.7 1011.1 978.3 992.5 1003.3 1061.7 1181.4 1178.8 1101.1 1094.5 1225.2 1368.6 1538.4 1656.0 1670.1 1650.0 1650.2 1601.0 1578.0 1485.1 1364.7 1193.9 1072.8 1001.5 920.9 908.7 928.1 982.5 1011.0 1055.1 1102.9 1155.8 1129.8 1066.3 1059.3 1122.1 1152.5 1096.5 1035.1 1015.3 1012.7 1018.1 1022.1 953.0 1000.5 1054.3 1067.5 1126.6 1125.1 1087.0 1064.4 1035.8 1070.4 1102.2 1144.2 1209.2 1282.0 1276.0 1251.3 1284.7 1304.1 1312.1 1261.5 1291.8 1390.6 1495.5 1540.9 1699.3 1920.1 2176.7 2305.3 2190.9 2086.0 2007.6 1964.2 1983.7 1888.2 1781.3 1673.3 1548.4 1454.0 1423.5 1514.5 1505.8 1425.4 1412.3 1362.5 1299.2 1265.4 1180.4 1148.3 1221.9 1259.0 1117.9 1064.3 1026.2 1059.2 1052.3 936.2 987.7 1051.8 1060.9 954.5 923.9 976.1 974.0 949.9 932.9 867.7 811.4 765.8 702.8 651.1 597.7 544.0 516.4 561.3 454.6 455.1 434.3 418.4 432.0 429.0 376.9 338.0 367.4 377.4 312.5 305.0 361.1 423.6 390.0 295.2 221.6 217.6 214.2 263.2 297.7 294.0 268.8 242.5 229.2 208.6 239.4 244.8 260.0 292.3 255.1 234.1 292.5 375.5 404.4 390.9 359.1 268.7 313.8 343.2 281.2 253.3 330.0 321.2 268.5 231.1 250.8 190.6 173.8 171.4 172.7 201.9 194.2 191.8 189.0 152.6 159.2 167.0 169.9 187.8 212.8 227.8 187.9 197.2 225.2 213.0 187.7 170.4 139.6 140.9 182.8 206.9 151.7 157.3 147.6 133.6 168.9 167.8 178.1 140.4 104.8 82.9 82.7 107.6 123.9 117.6 99.2 91.9 -9999.0 -9999.0
-9999.0 570.4 557.7 550.6 546.7 545.6 541.6 535.1 526.8 524.1 516.7 471.4 406.3 369.9 366.7 347.3 356.1 339.0 327.5 363.3 348.0 307.1 302.3 318.8 299.8 300.4 293.2 266.3 196.7 159.0 152.0 150.3 136.8 116.7 111.0 97.0 63.6 92.4 101.2 125.6 134.2 179.8 249.2 198.2 193.9 271.1 361.9 468.7 542.3 507.4 462.9 481.7 623.8 728.5 721.8 650.8 591.5 549.8 525.7 516.1 492.3 453.3 473.7 518.7 508.4 486.7 496.7 523.3 566.6 586.0 550.0 478.0 434.1 365.1 359.2 377.6 370.6 376.1 367.4 385.1 381.2 365.0 373.8 368.6 326.6 282.7 240.1 217.8 201.2 204.8 201.8 201.2 229.0 264.6 231.4 226.3 233.3 246.3 244.0 219.3 239.5 243.5 250.2 268.9 286.3 284.2 266.0 279.0 315.5 323.6 330.7 351.6 400.7 411.7 433.0 462.4 484.8 503.6 556.5 634.9 685.5 607.0 494.2 317.9 351.1 518.2 608.7 570.9 495.8 361.3 363.0 360.5 389.4 449.2 490.4 409.3 372.8 388.9 456.0 386.2 301.1 255.4 324.7 450.7 612.6 766.8 863.2 715.4 807.0 920.7 1039.2 1142.4 1203.0 1245.2 1185.5 1106.8 1109.6 1078.4 1075.6 1115.5 1168.1 1216.3 1249.6 1218.6 1190.9 1233.8 1210.4 1027.0 971.5 940.0 932.0 884.7 885.0 903.4 933.8 941.6 941.4 949.2 934.8 911.0 890.5 922.4 951.7 1037.0 1148.5 1214.4 1219.5 1271.3 1428.9 1535.4 1422.4 1314.6 1240.5 1153.6 1065.3 972.7 980.6 994.7 1009.5 1051.9 1173.7 1260.8 1221.3 1186.8 1186.1 1281.6 1436.6 1601.8 1723.1 1684.3 1560.7 1454.5 1415.0 1399.4 1311.4 1135.6 999.4 915.5 884.7 880.5 897.5 966.9 987.4 954.0 971.8 1007.9 1025.0 1075.5 1121.3 1170.8 1164.1 1093.1 1039.3 1043.1 1025.9 1022.7 1064.9 965.1 1036.7 1058.8 1131.8 1189.4 1165.9 1123.9 1108.4 1094.6 1136.1 1173.8 1214.7 1236.8 1290.6 1347.0 1333.2 1359.7 1399.6 1402.5 1372.5 1301.7 1336.9 1454.3 1595.2 1748.1 1970.2 2138.9 2259.1 2143.3 2024.7 1918.1 1827.8 1787.6 1821.9 1734.7 1597.3 1481.5 1364.6 1289.5 1341.1 1334.0 1326.7 1383.8 1293.4 1194.4 1160.5 1110.4 1112.1 1179.3 1255.3 1222.5 1196.9 1133.0 1146.4 1108.3 1031.7 1026.6 1067.9 1049.0 1006.0 953.1 928.4 904.1 900.5 930.1 893.4 823.4 731.8 663.4 593.0 527.5 492.7 501.9 517.6 426.4 409.7 434.3 399.2 385.3 390.4 375.6 346.0 312.2 329.2 366.8 311.6 278.1 291.3 274.0 243.2 224.4 233.0 225.9 227.8 299.2 340.1 358.6 324.2 282.6 225.5 268.0 324.9 361.1 364.5 294.7 287.4 354.8 420.8 479.4 449.9 373.8 343.8 422.6 434.3 349.1 318.6 383.4 312.4 264.7 273.0 211.9 208.0 188.1 217.2 202.7 184.1 216.6 225.6 174.2 178.5 167.2 204.4 229.5 236.5 229.1 241.7 261.7 216.3 214.2 178.8 157.2 170.1 174.8 223.9 227.0 181.6 164.9 207.1 201.0 156.3 207.4 208.2 183.2 143.3 102.5 108.0 113.0 152.1 214.3 212.3 166.1 130.9 -9999.0 -9999.0
-9999.0 562.5 556.4 549.9 547.5 550.4 546.7 538.2 524.4 522.0 517.8 509.3 474.1 449.4 461.3 451.5 430.1 362.1 328.6 323.6 329.6 326.6 305.1 275.0 274.9 264.5 269.8 279.0 251.4 227.9 208.8 180.8 163.8 128.8 110.7 106.1 75.5 78.0 104.1 123.8 129.6 149.6 202.4 167.5 209.8 254.4 320.6 415.5 461.2 456.1 462.7 468.0 586.9 708.6 732.2 710.9 675.8 604.5 558.1 498.1 460.7 445.4 442.9 468.7 494.1 480.8 465.1 501.5 560.3 602.5 581.2 474.4 429.8 368.6 348.5 377.2 373.2 359.4 384.7 389.3 361.3 355.4 344.6 342.0 291.8 249.0 225.2 226.4 239.9 233.9 209.9 191.5 209.0 241.7 240.8 231.5 212.4 203.2 202.3 198.5 205.6 212.9 213.3 226.8 233.8 230.7 227.5 247.3 265.8 269.4 273.1 282.1 306.6 317.2 307.6 322.5 349.9 377.8 399.0 418.1 441.1 389.4 279.8 335.7 462.1 464.8 486.7 440.7 354.9 361.1 445.3 456.9 459.8 468.8 480.8 436.9 356.7 309.5 348.1 325.8 255.0 269.3 343.8 491.5 639.0 742.5 850.2 821.2 759.3 818.0 944.4 1058.8 1116.7 1109.1 980.6 939.8 1046.0 1116.7 1179.8 1231.2 1251.0 1282.9 1318.0 1312.9 1243.7 1177.2 1156.0 1018.0 949.1 927.8 907.3 892.3 898.0 919.4 929.9 940.4 948.3 949.0 947.4 943.1 924.0 917.7 960.6 1023.1 1091.7 1217.7 1231.0 1165.0 1326.7 1379.5 1266.5 1168.2 1098.4 1059.5 982.2 964.9 981.3 998.4 1019.7 1065.6 1113.0 1171.2 1260.3 1338.8 1363.5 1296.9 1422.9 1627.1 1749.2 1634.3 1479.4 1409.6 1347.6 1293.4 1175.4 1040.2 935.2 879.3 865.4 860.7 869.4 884.0 914.9 944.4 985.7 1035.5 1078.6 1136.7 1177.1 1222.0 1136.8 1089.9 1070.1 1051.4 1009.8 1047.4 1058.6 973.1 1050.3 1103.9 1199.3 1230.4 1250.2 1185.0 1189.2 1154.1 1216.4 1209.7 1281.7 1354.5 1334.4 1325.5 1376.2 1394.0 1413.7 1380.3 1377.5 1389.3 1375.4 1409.0 1552.5 1731.8 1921.6 2065.3 2216.3 2157.4 2056.2 1940.2 1810.6 1668.7 1573.4 1556.1 1520.4 1423.8 1332.1 1230.4 1144.8 1182.0 1280.9 1303.8 1255.7 1139.0 1065.6 1057.5 1159.4 1222.8 1271.5 1206.3 1105.8 1026.4 1031.2 1063.5 1104.9 1093.9 979.6 913.9 929.1 883.5 808.2 804.8 796.8 844.3 831.1 827.4 738.8 689.4 575.3 447.8 423.0 485.0 485.5 415.9 377.4 426.4 398.7 350.4 359.0 373.4 355.3 344.6 290.1 281.7 250.1 242.6 240.5 238.9 243.9 272.7 288.7 251.9 226.3 252.0 304.0 370.5 382.4 317.1 240.0 268.4 284.2 353.6 422.6 377.2 358.5 421.8 482.1 539.8 521.1 462.6 466.2 520.4 510.8 449.6 424.9 365.6 338.8 351.7 261.5 260.5 291.7 223.4 218.0 253.2 217.7 219.7 234.1 201.2 230.5 175.7 218.1 238.3 228.3 228.9 243.7 280.6 279.9 233.7 173.4 227.9 232.6 213.3 227.1 192.6 189.6 204.3 216.2 216.4 229.3 237.6 233.1 181.7 145.1 171.2 183.5 175.6 240.2 250.7 174.4 106.5 80.5 -9999.0 -9999.0
-9999.0 556.8 547.7 539.9 528.7 524.8 520.9 518.0 511.0 505.2 486.7 442.6 450.5 425.0 413.2 428.7 408.7 408.7 402.9 386.0 361.4 304.7 304.9 310.4 294.8 274.7 260.4 257.9 230.1 227.7 224.0 195.4 151.7 120.1 113.4 106.2 90.0 73.8 105.3 118.5 125.0 135.4 149.9 169.2 188.5 224.4 289.0 336.8 360.1 413.1 442.6 428.3 512.6 635.4 673.8 714.1 716.1 656.7 598.0 523.3 476.9 451.0 434.8 449.1 451.6 448.1 425.9 442.1 472.9 489.9 509.7 489.3 442.5 376.5 343.5 379.8 365.8 358.7 373.8 372.6 348.8 305.0 274.6 293.5 287.6 295.6 285.3 286.6 271.6 250.4 224.5 187.1 185.4 196.5 231.7 226.0 211.0 209.5 214.3 198.5 187.0 183.9 185.5 189.7 191.6 192.2 198.8 212.8 224.3 228.9 231.4 243.3 255.0 256.7 251.0 268.1 288.8 305.6 316.9 313.8 311.2 256.4 245.2 352.9 385.7 352.4 342.6 326.0 304.8 354.7 378.3 438.8 491.6 464.3 393.3 367.0 322.9 329.1 261.2 246.2 254.2 385.3 346.0 434.5 564.5 672.0 708.4 726.5 620.0 699.5 858.7 976.0 1023.6 850.8 733.6 876.2 1078.1 1177.1 1239.9 1258.7 1257.0 1267.0 1316.3 1361.8 1341.6 1298.1 1221.3 1093.1 998.7 947.9 931.9 923.1 912.9 935.8 942.4 949.4 956.0 958.9 958.1 958.0 936.6 905.7 909.6 926.6 1011.9 1144.6 1107.5 1095.5 1220.1 1242.8 1101.0 1002.9 970.6 962.8 969.2 975.4 1010.7 1069.2 1130.6 1187.0 1246.2 1273.7 1291.1 1389.3 1509.0 1471.5 1496.7 1685.8 1799.8 1694.1 1593.4 1561.1 1522.7 1407.0 1235.7 1050.5 919.1 858.2 844.6 847.1 870.0 921.0 973.9 988.9 1004.1 1044.8 1081.0 1137.1 1174.8 1174.5 1111.0 1152.7 1119.8 1060.7 1017.9 1036.6 993.4 1005.3 1023.0 1075.3 1147.9 1232.5 1312.2 1289.3 1257.0 1232.2 1278.6 1280.6 1356.5 1390.6 1341.2 1320.3 1333.2 1341.7 1353.0 1383.1 1427.8 1483.0 1481.8 1466.2 1479.4 1629.3 1811.0 1986.0 2150.1 2175.7 2082.5 1941.1 1818.1 1700.4 1559.9 1428.8 1339.3 1314.6 1293.9 1197.6 1098.3 1072.0 1095.2 1075.7 1143.7 1068.6 973.9 1076.1 1151.0 1146.8 1082.8 1121.7 1058.1 994.7 947.3 1008.7 1013.6 1081.3 1029.2 882.9 834.1 893.1 815.2 680.1 732.9 743.1 777.6 778.2 746.0 728.9 606.0 464.4 387.8 460.5 429.2 380.2 358.3 401.7 409.7 344.6 319.3 315.5 306.2 283.3 262.9 248.3 250.5 261.8 265.7 273.5 297.5 352.7 347.1 277.6 237.4 247.6 300.2 370.0 398.8 316.0 252.4 313.0 352.9 369.2 437.8 465.9 461.7 513.0 536.1 525.9 501.6 441.4 434.6 479.6 511.8 478.5 474.7 452.0 454.8 382.5 323.7 362.4 384.3 305.1 240.6 300.6 305.1 315.6 293.1 254.1 260.1 187.0 213.5 222.6 216.2 245.9 272.5 277.3 294.1 278.9 206.9 241.0 284.2 258.9 245.2 277.1 311.7 311.0 289.9 271.0 258.9 227.6 206.5 199.9 245.3 298.1 311.1 299.3 273.1 253.5 182.7 145.4 121.4 -9999.0 -9999.0
-9999.0 548.1 537.2 530.1 521.7 513.9 509.0 502.1 494.8 469.0 433.3 432.6 402.9 367.7 381.7 356.5 333.2 336.5 372.1 385.5 346.3 318.7 364.0 347.6 310.9 274.9 247.9 236.7 211.0 200.1 189.9 175.5 146.5 127.4 112.1 106.0 93.3 69.3 106.0 117.1 127.8 154.4 208.5 192.5 238.8 231.4 251.7 274.3 302.6 307.5 352.3 378.6 432.1 535.7 562.6 634.0 692.9 677.7 624.7 553.8 494.0 459.8 434.7 431.2 426.5 426.7 399.0 413.0 424.1 421.8 436.9 438.7 441.1 422.8 379.2 380.4 391.3 365.0 389.3 371.4 344.7 284.9 230.9 242.0 218.7 229.6 247.8 270.1 267.5 224.0 209.7 196.0 176.4 182.3 208.7 223.8 221.0 207.6 214.7 195.2 187.1 172.8 167.5 165.5 166.8 170.0 175.6 183.7 193.3 198.9 200.6 205.6 208.4 208.6 223.3 248.7 271.2 286.5 287.4 252.6 235.1 218.6 211.4 251.8 274.7 264.6 250.8 283.0 351.6 440.0 430.5 438.1 457.1 403.1 307.0 311.7 264.5 268.9 237.4 232.0 278.9 300.1 288.6 344.8 406.0 431.5 447.6 474.1 470.1 594.2 742.3 871.4 798.2 638.3 724.5 869.8 1028.1 1151.1 1181.9 1208.8 1244.1 1260.8 1319.6 1430.9 1506.6 1465.7 1327.3 1228.9 1118.5 1050.4 976.8 948.8 929.8 951.6 951.7 950.5 960.9 967.8 969.8 967.7 929.1 942.0 944.5 912.5 1017.0 1062.4 1026.1 1041.4 1169.6 1151.6 1016.2 942.6 954.2 970.4 993.7 998.4 1037.0 1117.1 1187.2 1219.3 1208.3 1311.7 1386.5 1455.4 1550.0 1553.0 1564.4 1671.8 1715.0 1659.8 1484.4 1314.1 1337.1 1310.6 1131.0 1000.1 883.4 834.6 832.2 859.5 903.4 910.4 911.0 972.8 999.3 1035.1 1090.0 1186.0 1150.7 1122.7 1167.1 1222.4 1153.1 1085.0 1022.6 988.4 1012.9 1059.8 1087.3 1131.8 1182.1 1269.2 1335.0 1378.1 1330.2 1314.9 1299.9 1362.1 1402.4 1343.5 1325.1 1372.2 1392.1 1391.9 1410.2 1462.4 1510.6 1581.5 1567.7 1529.8 1513.8 1577.4 1715.1 1866.5 2019.5 2014.1 1965.4 1879.1 1781.3 1671.5 1555.9 1455.6 1325.9 1239.3 1184.5 1130.9 1081.3 1048.2 994.0 959.5 946.2 938.6 953.2 1048.8 1138.3 1099.5 974.6 1068.5 1049.7 1006.9 958.5 909.4 961.0 1030.0 1006.2 869.2 742.3 725.1 756.7 663.5 624.9 656.9 705.2 626.2 592.0 530.7 535.5 444.9 360.8 385.3 347.2 326.8 318.5 320.3 305.2 290.3 286.1 277.8 270.2 265.6 263.4 283.9 285.0 294.2 312.4 317.5 371.9 432.2 391.8 321.8 258.0 245.0 305.2 381.8 425.0 349.1 266.3 288.8 337.7 412.2 483.4 551.4 529.1 497.4 478.8 455.2 438.1 418.0 376.0 386.6 410.3 416.6 443.6 436.8 429.2 445.6 399.7 389.4 373.3 332.6 312.5 330.8 361.2 402.1 387.0 324.9 251.3 252.1 209.4 223.7 234.0 253.9 281.3 233.3 270.8 329.8 301.0 289.4 345.0 354.0 366.7 434.3 439.4 397.1 345.4 318.3 316.3 289.3 262.4 239.1 204.2 198.9 234.4 211.7 179.2 228.5 266.0 260.5 230.6 -9999.0 -9999.0
-9999.0 555.7 538.2 524.8 518.4 507.1 499.8 498.2 489.3 480.3 467.3 449.2 419.8 401.0 388.0 366.8 369.1 366.0 354.7 325.4 310.2 325.8 336.0 308.9 294.0 269.0 249.1 235.6 224.2 209.9 196.3 188.6 152.2 126.5 111.9 104.9 100.3 73.4 69.5 112.1 138.4 197.7 270.5 224.1 205.0 210.0 235.7 206.5 224.2 266.4 287.7 329.3 391.4 426.2 468.0 563.1 633.5 605.7 599.1 576.1 559.7 504.3 459.9 427.6 416.0 390.2 376.8 417.8 385.9 381.5 385.5 412.5 393.1 396.7 378.9 398.0 451.5 396.1 383.9 421.0 399.9 338.8 273.6 251.3 225.9 196.3 195.1 208.0 233.0 244.7 220.2 191.7 179.3 172.1 177.1 184.1 204.3 179.5 173.6 166.2 158.3 156.2 157.6 156.2 155.3 155.8 169.1 188.6 199.6 194.2 187.6 175.0 180.9 196.7 220.8 230.2 242.5 257.7 257.1 218.2 202.9 194.0 195.4 208.9 217.4 236.6 270.3 334.8 393.7 419.3 398.0 354.8 360.2 346.4 268.8 227.2 225.2 232.0 246.5 272.5 370.4 355.1 358.0 324.2 379.4 384.6 397.9 492.4 498.2 480.7 549.3 626.7 576.1 657.2 767.9 929.4 1081.4 1122.0 1209.2 1284.9 1309.9 1302.2 1345.1 1450.6 1516.5 1614.6 1525.8 1402.4 1292.7 1163.0 1053.1 1053.1 982.7 976.6 969.0 966.1 962.2 975.7 979.4 975.8 929.7 964.1 963.5 932.7 974.5 975.9 940.6 955.4 1032.1 1011.8 941.9 947.6 985.8 981.4 986.3 998.3 1021.6 1058.8 1071.9 1105.0 1186.3 1303.0 1454.6 1547.6 1552.9 1536.8 1493.9 1524.6 1475.6 1420.4 1326.5 1175.4 1068.7 1123.5 1028.6 929.5 855.9 824.8 841.7 916.0 985.3 1013.5 976.9 945.1 1016.4 1057.7 1102.7 1172.9 1141.8 1175.8 1242.9 1236.7 1191.4 1136.9 1073.1 1013.8 995.4 1055.0 1122.7 1129.7 1139.2 1207.3 1321.4 1433.1 1409.5 1354.7 1353.8 1414.9 1408.0 1336.8 1353.2 1407.4 1472.9 1502.1 1490.1 1553.5 1592.5 1580.6 1541.4 1517.5 1484.0 1511.1 1580.6 1735.8 1861.2 1962.6 2043.6 1973.7 1877.1 1768.6 1642.8 1542.2 1464.6 1385.9 1274.7 1240.3 1218.8 1161.0 1092.8 1062.9 973.9 899.5 1016.0 1136.5 1119.8 990.8 910.2 991.1 1027.8 990.3 911.4 805.4 891.7 925.7 997.1 946.7 863.4 714.5 624.1 604.0 556.3 525.8 494.8 429.1 393.2 374.8 395.2 400.4 352.0 336.4 314.7 321.4 313.9 307.6 311.1 307.0 306.7 294.5 292.8 344.1 315.0 339.0 344.5 343.7 366.0 383.8 458.0 474.5 380.4 299.6 251.1 264.8 323.1 390.4 410.0 330.8 276.3 323.0 345.7 375.3 452.1 538.1 559.0 590.3 555.5 529.5 535.1 485.8 450.9 424.4 376.9 346.7 339.6 352.7 328.7 357.5 334.5 307.5 325.4 265.1 256.3 248.5 281.8 280.6 338.0 320.4 304.9 279.6 281.1 264.1 269.4 289.2 286.4 212.6 249.8 281.4 293.7 299.8 385.3 434.3 432.4 440.5 436.2 426.7 364.7 299.7 260.4 225.7 201.2 185.8 176.4 157.6 154.4 139.0 128.7 135.9 166.9 184.6 168.9 -9999.0 -9999.0
