ncols   377
nrows   35
xllcorner    16.6225
yllcorner    40.34098
cellsize    0.005009
NODATA_value -9999
72.4 107.6 95.2 85.8 76.6 70.8 97.8 107.2 130.5 162.0 193.5 196.6 210.1 153.5 184.3 157.7 171.2 188.8 178.7 151.5 142.1 122.5 91.6 92.7 87.2 107.5 140.6 146.1 165.9 158.1 150.5 129.3 115.3 139.5 138.7 145.7 145.5 131.8 147.0 149.2 146.6 137.3 123.3 124.4 132.1 124.0 111.2 119.1 122.1 121.6 118.6 113.5 111.8 113.5 110.2 108.5 108.5 107.4 105.3 101.1 91.3 56.5 40.4 67.7 80.4 78.6 79.8 80.4 77.5 74.9 73.0 72.8 72.2 68.2 65.3 62.7 57.5 51.7 27.7 55.1 62.4 66.5 -9999.0 -9999.0 -9999.0 -9999.0 -9999.0 -9999.0 -9999.0 -9999.0 -9999.0 -9999.0 -9999.0 -9999.0 -9999.0 -9999.0 -9999.0 -9999.0 -9999.0 -9999.0 -9999.0 -9999.0 -9999.0 -9999.0 36.7 49.2 53.7 55.1 56.3 58.6 61.6 67.9 73.3 78.5 78.2 79.7 82.0 83.0 83.2 85.4 85.6 70.4 76.3 75.4 69.3 79.0 82.3 84.8 87.0 87.2 87.4 91.8 94.5 93.8 91.6 95.2 96.0 97.2 96.0 98.2 100.9 110.0 113.1 106.4 106.9 90.0 102.9 112.7 114.5 114.8 115.3 115.7 117.5 118.0 119.3 119.5 121.2 123.2 125.3 129.8 137.4 139.0 146.8 169.5 188.3 197.6 203.1 208.7 210.4 212.5 214.8 214.9 215.4 213.6 214.1 216.0 213.9 214.5 218.2 218.8 220.3 221.8 220.1 216.9 212.8 208.4 204.4 202.0 201.8 200.7 200.3 198.4 197.5 197.1 196.0 193.8 193.1 190.3 189.1 187.6 186.6 186.4 184.4 182.8 180.1 178.4 177.8 176.0 175.7 175.3 174.7 174.0 172.6 171.8 170.5 168.1 166.9 166.8 165.5 164.7 164.5 163.8 162.4 160.5 158.6 157.5 156.8 155.6 152.7 151.7 150.8 148.9 147.2 147.0 145.5 143.2 142.4 141.2 140.5 139.9 140.5 139.0 138.2 137.7 135.2 135.0 134.4 135.4 133.1 123.5 119.9 122.9 126.3 125.0 122.3 109.7 120.2 119.7 106.9 118.2 117.8 110.8 105.4 112.4 101.6 106.9 111.9 110.3 108.2 107.2 105.1 101.8 100.3 97.7 96.4 94.8 94.6 93.6 90.4 87.5 85.8 84.2 82.0 80.3 79.6 78.8 73.0 66.8 51.6 54.8 60.8 62.4 -9999.0 -9999.0 -9999.0 -9999.0 -9999.0 -9999.0 -9999.0 -9999.0 -9999.0 -9999.0 -9999.0 -9999.0 -9999.0 -9999.0 -9999.0 -9999.0 -9999.0 -9999.0 -9999.0 -9999.0 -9999.0 -9999.0 -9999.0 -9999.0 -9999.0 -9999.0 -9999.0 -9999.0 -9999.0 -9999.0 -9999.0 -9999.0 -9999.0 -9999.0 -9999.0 -9999.0 -9999.0 -9999.0 -9999.0 -9999.0 -9999.0 -9999.0 -9999.0 -9999.0 -9999.0 -9999.0 -9999.0 -9999.0 -9999.0 -9999.0 -9999.0 -9999.0 -9999.0 -9999.0 -9999.0 -9999.0 -9999.0 -9999.0 -9999.0 -9999.0 -9999.0 -9999.0 -9999.0 -9999.0 -9999.0 -9999.0 -9999.0 -9999.0 -9999.0 -9999.0 -9999.0 -9999.0 -9999.0 -9999.0 -9999.0 -9999.0 -9999.0 -9999.0 -9999.0 -9999.0 -9999.0 -9999.0 -9999.0 -9999.0 -9999.0
81.2 118.7 115.5 101.9 86.0 83.3 78.0 93.9 100.8 125.1 200.0 158.4 207.4 177.8 116.3 133.2 120.8 143.1 183.7 151.7 148.8 131.4 95.2 75.6 93.6 121.0 117.8 155.4 159.6 153.7 145.5 140.9 110.5 130.4 133.8 133.5 124.7 140.3 146.2 139.1 124.0 116.7 110.4 119.1 110.0 115.0 119.2 118.4 118.7 117.5 112.8 109.2 105.4 105.5 106.1 107.1 106.2 103.6 101.0 96.4 92.3 68.4 49.9 33.7 41.2 57.1 59.4 60.4 57.6 64.4 66.5 64.0 62.4 61.4 61.7 60.4 58.2 51.2 36.0 -9999.0 -9999.0 -9999.0 -9999.0 -9999.0 -9999.0 -9999.0 -9999.0 -9999.0 -9999.0 -9999.0 -9999.0 -9999.0 -9999.0 -9999.0 -9999.0 -9999.0 -9999.0 -9999.0 -9999.0 -9999.0 -9999.0 -9999.0 -9999.0 -9999.0 -9999.0 -9999.0 -9999.0 58.8 60.1 61.3 66.8 68.4 66.5 71.9 80.8 81.9 81.7 82.0 84.4 82.5 78.1 73.8 54.6 47.1 65.2 70.6 72.6 72.5 79.1 73.7 74.6 79.6 81.1 73.9 78.5 81.5 81.9 86.0 88.0 90.3 92.7 99.9 117.9 109.0 102.9 88.2 104.9 112.6 112.4 112.4 109.1 109.6 114.8 116.4 117.8 118.9 121.5 123.3 126.3 129.3 133.0 142.2 143.1 150.7 165.7 185.4 194.0 198.6 203.0 204.8 213.5 216.8 216.3 215.0 215.6 217.3 216.1 216.8 219.7 219.8 222.4 223.1 222.0 221.7 216.5 213.0 209.0 204.5 199.4 194.1 195.9 195.8 195.7 194.6 192.9 190.5 189.3 188.4 187.9 187.4 185.9 185.0 184.4 181.9 180.3 180.6 178.1 177.6 177.4 176.9 174.7 172.7 171.8 171.1 171.5 168.3 165.9 166.5 166.3 164.9 164.9 164.7 163.1 160.7 158.6 155.3 156.0 156.2 153.8 152.9 152.1 150.8 148.8 148.7 146.5 144.4 142.9 142.2 141.8 140.9 139.5 139.3 139.9 138.9 137.5 135.8 136.5 135.8 134.2 131.3 129.9 128.7 127.1 125.9 124.2 118.5 116.2 114.4 116.9 114.5 106.1 110.0 115.0 110.2 110.6 116.9 115.1 114.0 111.1 109.2 104.9 101.9 100.3 97.6 95.6 94.3 93.5 92.6 82.7 77.4 77.2 72.8 70.0 69.9 67.0 66.0 60.6 57.9 65.0 66.5 63.0 62.9 63.0 62.7 -9999.0 -9999.0 -9999.0 -9999.0 -9999.0 -9999.0 -9999.0 -9999.0 -9999.0 -9999.0 -9999.0 -9999.0 -9999.0 -9999.0 -9999.0 -9999.0 -9999.0 -9999.0 -9999.0 -9999.0 -9999.0 -9999.0 -9999.0 -9999.0 -9999.0 -9999.0 -9999.0 -9999.0 -9999.0 -9999.0 -9999.0 -9999.0 -9999.0 -9999.0 -9999.0 -9999.0 -9999.0 -9999.0 -9999.0 -9999.0 -9999.0 -9999.0 -9999.0 -9999.0 -9999.0 -9999.0 -9999.0 -9999.0 -9999.0 -9999.0 -9999.0 -9999.0 -9999.0 -9999.0 -9999.0 -9999.0 -9999.0 -9999.0 -9999.0 -9999.0 -9999.0 -9999.0 -9999.0 -9999.0 -9999.0 -9999.0 -9999.0 -9999.0 -9999.0 -9999.0 -9999.0 -9999.0 -9999.0 -9999.0 -9999.0 -9999.0 -9999.0 -9999.0 -9999.0 -9999.0 -9999.0 -9999.0 -9999.0
95.6 122.1 104.7 103.2 107.1 99.8 87.6 70.6 70.8 98.3 155.6 139.3 117.8 140.5 111.9 93.1 123.1 110.0 162.7 163.0 126.3 99.4 85.2 71.4 76.6 107.3 145.3 156.7 156.0 147.4 139.2 133.5 120.4 112.5 113.4 121.7 137.5 145.3 136.8 128.3 131.5 126.1 119.4 102.6 111.6 113.4 110.5 110.0 112.9 111.4 106.4 104.0 103.9 106.7 106.9 104.6 102.1 99.1 96.5 93.5 87.2 81.0 68.0 55.5 38.3 29.7 30.3 30.2 43.8 55.4 57.9 59.4 60.6 61.4 61.4 59.9 -9999.0 -9999.0 -9999.0 -9999.0 -9999.0 -9999.0 -9999.0 -9999.0 -9999.0 -9999.0 -9999.0 -9999.0 -9999.0 -9999.0 -9999.0 -9999.0 -9999.0 -9999.0 -9999.0 -9999.0 -9999.0 -9999.0 -9999.0 -9999.0 -9999.0 -9999.0 -9999.0 -9999.0 -9999.0 -9999.0 -9999.0 61.5 62.4 63.6 65.7 67.6 68.0 66.0 77.3 80.7 82.0 82.0 80.4 76.8 74.0 75.6 69.5 47.3 39.8 58.8 60.9 64.4 65.6 66.8 79.2 78.8 76.4 65.8 63.5 69.1 65.1 64.4 77.0 81.8 88.1 96.2 114.3 114.4 98.8 77.5 100.5 101.2 93.5 95.8 103.1 111.5 114.6 117.8 119.7 121.5 122.6 124.2 124.7 126.8 129.2 140.3 149.9 145.7 149.7 166.1 177.9 186.9 196.2 193.3 204.1 216.0 215.4 215.3 215.7 217.0 220.1 221.2 221.3 221.1 222.2 222.5 222.5 220.1 215.3 213.0 208.2 200.9 195.1 188.8 185.5 187.4 188.2 187.8 187.4 186.4 184.1 182.8 183.3 184.7 186.3 186.2 186.6 184.2 182.7 179.7 177.7 176.2 175.4 174.1 172.6 171.3 169.7 170.8 169.5 165.7 164.9 162.2 162.3 163.2 163.2 162.5 161.4 159.9 158.4 154.7 148.8 151.9 152.2 151.2 151.0 150.4 148.4 147.6 144.6 143.4 142.3 141.2 140.7 141.8 138.9 138.2 139.8 138.9 138.4 137.0 137.1 136.5 135.3 133.3 130.8 128.6 126.7 126.3 124.8 124.2 123.3 118.5 109.1 110.9 121.1 119.8 117.4 103.7 109.1 115.1 113.2 112.5 112.6 109.1 95.6 93.0 91.7 85.0 89.2 88.5 82.3 78.9 84.6 89.5 87.9 84.8 83.8 82.1 79.1 77.7 76.0 72.5 71.3 69.9 67.0 66.0 63.2 63.6 62.4 62.2 -9999.0 -9999.0 -9999.0 -9999.0 -9999.0 -9999.0 -9999.0 -9999.0 -9999.0 -9999.0 -9999.0 -9999.0 -9999.0 -9999.0 -9999.0 -9999.0 -9999.0 -9999.0 -9999.0 -9999.0 -9999.0 -9999.0 -9999.0 -9999.0 -9999.0 -9999.0 -9999.0 -9999.0 -9999.0 -9999.0 -9999.0 -9999.0 -9999.0 -9999.0 -9999.0 -9999.0 -9999.0 -9999.0 -9999.0 -9999.0 -9999.0 -9999.0 -9999.0 -9999.0 -9999.0 -9999.0 -9999.0 -9999.0 -9999.0 -9999.0 -9999.0 -9999.0 -9999.0 -9999.0 -9999.0 -9999.0 -9999.0 -9999.0 -9999.0 -9999.0 -9999.0 -9999.0 -9999.0 -9999.0 -9999.0 -9999.0 -9999.0 -9999.0 -9999.0 -9999.0 -9999.0 -9999.0 -9999.0 -9999.0 -9999.0 -9999.0 -9999.0 -9999.0 -9999.0 -9999.0 -9999.0
87.6 139.7 147.9 139.6 128.6 123.2 117.6 93.3 84.5 78.4 77.3 86.7 76.2 75.9 70.4 61.5 74.0 81.5 98.1 118.0 130.7 117.5 87.0 69.8 84.2 130.5 153.3 154.7 147.2 145.3 141.6 141.9 123.3 93.4 118.2 145.7 142.5 139.2 133.0 114.2 121.4 118.4 115.4 102.3 108.2 109.9 107.7 109.4 110.1 104.0 103.4 105.0 106.9 105.2 102.1 100.3 97.9 94.2 88.7 84.5 80.2 73.7 68.9 64.9 56.0 51.8 44.0 37.0 34.5 30.2 48.9 54.1 53.7 -9999.0 -9999.0 -9999.0 -9999.0 -9999.0 -9999.0 -9999.0 -9999.0 -9999.0 -9999.0 -9999.0 -9999.0 -9999.0 -9999.0 -9999.0 -9999.0 -9999.0 -9999.0 -9999.0 -9999.0 -9999.0 -9999.0 -9999.0 -9999.0 -9999.0 -9999.0 -9999.0 -9999.0 -9999.0 -9999.0 -9999.0 -9999.0 -9999.0 -9999.0 -9999.0 -9999.0 -9999.0 64.5 63.4 63.3 64.1 75.6 79.4 80.4 77.3 77.4 75.5 75.0 71.5 71.4 64.1 43.0 47.2 50.4 55.9 61.9 72.1 75.6 73.7 66.8 52.5 42.1 49.4 49.5 51.0 56.5 66.8 78.5 87.9 95.7 101.3 72.6 81.1 80.2 94.1 106.4 109.2 112.8 116.7 117.8 120.0 120.0 120.6 121.9 123.4 124.6 126.9 129.0 135.9 149.9 142.1 141.1 150.3 165.3 174.7 181.2 182.6 190.8 206.5 209.0 211.1 212.6 219.5 230.1 226.2 222.1 220.2 219.4 218.5 216.1 211.9 208.1 205.5 200.6 195.5 191.3 188.5 183.1 183.3 184.1 184.8 184.6 184.2 183.2 180.2 181.3 182.2 190.5 194.6 194.4 198.1 190.5 185.7 178.9 175.2 171.7 169.2 167.2 168.2 167.4 164.8 164.8 161.1 159.2 157.4 152.7 152.6 150.4 148.6 148.9 148.1 148.9 149.7 143.2 145.9 148.4 149.9 150.7 150.1 149.7 148.3 144.3 140.7 139.3 138.3 138.5 138.8 138.3 138.2 137.8 137.5 137.0 136.9 136.1 135.3 134.9 133.3 132.1 130.2 129.0 128.0 126.4 124.9 124.9 123.8 122.6 121.8 122.0 122.0 119.6 116.1 114.3 113.2 112.1 108.5 100.1 96.7 98.4 103.0 100.1 99.4 97.0 95.4 93.6 79.7 91.6 90.8 90.2 87.8 87.6 86.7 83.7 81.2 77.6 75.5 72.5 73.0 73.3 68.6 65.2 63.9 62.6 62.4 62.5 -9999.0 -9999.0 -9999.0 -9999.0 -9999.0 -9999.0 -9999.0 -9999.0 -9999.0 -9999.0 -9999.0 -9999.0 -9999.0 -9999.0 -9999.0 -9999.0 -9999.0 -9999.0 -9999.0 -9999.0 -9999.0 -9999.0 -9999.0 -9999.0 -9999.0 -9999.0 -9999.0 -9999.0 -9999.0 -9999.0 -9999.0 -9999.0 -9999.0 -9999.0 -9999.0 -9999.0 -9999.0 -9999.0 -9999.0 -9999.0 -9999.0 -9999.0 -9999.0 -9999.0 -9999.0 -9999.0 -9999.0 -9999.0 -9999.0 -9999.0 -9999.0 -9999.0 -9999.0 -9999.0 -9999.0 -9999.0 -9999.0 -9999.0 -9999.0 -9999.0 -9999.0 -9999.0 -9999.0 -9999.0 -9999.0 -9999.0 -9999.0 -9999.0 -9999.0 -9999.0 -9999.0 -9999.0 -9999.0 -9999.0 -9999.0 -9999.0 -9999.0 -9999.0 -9999.0 -9999.0
142.8 225.1 211.3 189.4 194.3 178.6 137.9 103.1 96.2 92.8 89.7 81.8 84.9 85.5 86.4 78.6 81.0 72.6 78.8 66.1 70.6 92.0 86.8 68.2 84.9 132.1 150.6 137.5 145.1 134.9 130.7 109.3 89.8 102.2 140.5 140.2 136.0 132.7 126.9 118.1 103.2 108.0 107.5 92.9 107.8 107.7 106.2 106.9 105.2 102.3 104.8 104.4 101.4 98.8 96.1 92.6 88.1 84.5 75.9 61.8 68.5 73.2 69.7 63.9 53.0 43.0 51.8 61.6 63.1 55.7 51.2 43.6 -9999.0 -9999.0 -9999.0 -9999.0 -9999.0 -9999.0 -9999.0 -9999.0 -9999.0 -9999.0 -9999.0 -9999.0 -9999.0 -9999.0 -9999.0 -9999.0 -9999.0 -9999.0 -9999.0 -9999.0 -9999.0 -9999.0 -9999.0 -9999.0 -9999.0 -9999.0 -9999.0 -9999.0 -9999.0 -9999.0 -9999.0 -9999.0 -9999.0 -9999.0 -9999.0 -9999.0 -9999.0 -9999.0 -9999.0 -9999.0 62.6 72.5 80.0 76.4 74.6 74.4 75.4 75.2 74.0 69.7 57.6 46.6 44.4 46.2 48.0 50.3 61.2 70.4 64.1 53.7 48.6 48.0 41.5 47.9 48.0 48.0 48.3 52.9 62.4 75.6 85.2 88.3 70.6 83.3 99.2 103.8 106.6 110.1 114.6 116.7 117.3 119.7 122.6 122.5 123.8 125.4 125.8 126.7 128.6 131.6 139.9 137.2 137.8 141.1 149.1 165.0 170.5 171.9 176.2 190.4 200.2 205.9 210.9 215.2 226.9 224.6 216.4 211.6 212.6 211.1 210.1 204.7 204.0 202.4 199.4 193.6 189.7 188.1 185.3 181.4 183.8 184.7 184.0 182.9 183.8 181.4 179.5 177.4 178.3 176.8 177.2 173.9 174.4 171.6 167.2 164.0 161.4 159.7 154.9 155.4 153.9 153.5 151.7 149.4 147.1 144.7 141.1 138.3 135.2 133.3 133.4 131.9 130.4 129.7 129.2 130.6 132.8 134.4 137.9 140.1 140.1 140.4 140.5 139.2 138.5 138.3 139.7 139.6 138.2 138.6 137.8 136.8 136.1 136.1 135.0 134.5 134.1 133.3 132.3 130.8 131.0 130.0 129.1 127.1 127.2 125.6 123.8 122.7 121.1 120.3 119.7 117.1 114.5 114.2 112.6 111.3 112.7 109.5 107.3 104.6 103.0 102.0 98.2 93.3 83.2 83.4 92.2 92.4 92.4 90.1 87.3 85.0 83.5 81.3 78.6 77.2 76.4 73.9 72.5 70.1 69.1 67.3 65.4 63.0 63.1 62.8 -9999.0 -9999.0 -9999.0 -9999.0 -9999.0 -9999.0 -9999.0 -9999.0 -9999.0 -9999.0 -9999.0 -9999.0 -9999.0 -9999.0 -9999.0 -9999.0 -9999.0 -9999.0 -9999.0 -9999.0 -9999.0 -9999.0 -9999.0 -9999.0 -9999.0 -9999.0 -9999.0 -9999.0 -9999.0 -9999.0 -9999.0 -9999.0 -9999.0 -9999.0 -9999.0 -9999.0 -9999.0 -9999.0 -9999.0 -9999.0 -9999.0 -9999.0 -9999.0 -9999.0 -9999.0 -9999.0 -9999.0 -9999.0 -9999.0 -9999.0 -9999.0 -9999.0 -9999.0 -9999.0 -9999.0 -9999.0 -9999.0 -9999.0 -9999.0 -9999.0 -9999.0 -9999.0 -9999.0 -9999.0 -9999.0 -9999.0 -9999.0 -9999.0 -9999.0 -9999.0 -9999.0 -9999.0 -9999.0 -9999.0 -9999.0 -9999.0 -9999.0 -9999.0 -9999.0
214.3 332.2 293.8 282.4 289.9 247.9 173.1 148.1 126.0 112.8 109.5 97.6 94.8 93.7 93.6 89.2 87.6 85.5 82.8 81.9 79.9 68.2 72.9 63.2 79.1 116.5 134.6 131.4 129.6 129.4 102.3 76.9 100.2 132.7 135.0 133.1 128.1 124.2 119.9 113.6 109.5 93.4 92.2 98.7 106.1 105.9 102.8 100.4 101.6 102.0 101.2 98.9 95.2 91.3 87.3 83.1 77.8 63.7 62.2 71.2 70.4 63.7 54.8 48.5 54.9 63.6 64.8 64.3 65.1 63.3 -9999.0 -9999.0 -9999.0 -9999.0 -9999.0 -9999.0 -9999.0 -9999.0 -9999.0 -9999.0 -9999.0 -9999.0 -9999.0 -9999.0 -9999.0 -9999.0 -9999.0 -9999.0 -9999.0 -9999.0 -9999.0 -9999.0 -9999.0 -9999.0 -9999.0 -9999.0 -9999.0 -9999.0 -9999.0 -9999.0 -9999.0 -9999.0 -9999.0 -9999.0 -9999.0 -9999.0 -9999.0 -9999.0 -9999.0 -9999.0 -9999.0 -9999.0 65.2 79.9 78.6 76.8 75.1 75.9 75.1 69.8 70.8 51.5 43.4 43.4 37.3 47.6 48.0 48.4 62.3 67.9 49.8 48.0 48.0 48.0 42.1 47.9 48.0 48.0 48.0 50.5 64.0 75.6 80.2 76.0 73.8 89.7 94.3 99.8 105.0 101.2 105.5 105.6 109.4 118.7 120.7 121.4 123.6 125.8 127.7 128.7 130.9 133.8 140.8 139.5 136.5 138.0 143.3 152.7 160.5 164.4 170.3 179.3 186.9 196.5 203.2 208.4 220.1 223.1 211.7 206.9 204.9 204.0 202.3 201.2 199.7 198.0 196.6 194.5 190.9 189.0 186.5 182.5 183.9 180.8 177.4 176.1 172.8 167.6 163.8 162.9 161.2 161.4 161.8 159.4 159.5 158.9 156.0 153.7 151.1 150.5 149.3 148.1 147.2 146.3 145.9 143.2 141.7 138.7 136.3 135.4 131.9 129.9 128.6 128.2 126.9 125.9 125.9 125.3 125.0 124.3 125.5 126.1 126.4 127.5 128.5 130.0 128.7 130.9 135.1 136.3 133.0 135.4 136.1 135.7 135.1 135.2 135.4 134.0 133.4 133.0 131.6 131.4 132.0 131.2 130.6 129.9 129.4 127.0 125.0 124.1 123.5 122.1 119.4 118.2 116.0 115.4 114.1 112.2 111.5 110.2 108.0 105.0 103.8 102.3 97.8 81.1 89.9 93.5 93.1 92.3 92.3 88.9 84.1 83.8 84.2 82.8 80.8 81.3 79.5 76.6 77.7 69.4 68.7 71.5 70.2 65.8 64.1 63.9 63.4 -9999.0 -9999.0 -9999.0 -9999.0 -9999.0 -9999.0 -9999.0 -9999.0 -9999.0 -9999.0 -9999.0 -9999.0 -9999.0 -9999.0 -9999.0 -9999.0 -9999.0 -9999.0 -9999.0 -9999.0 -9999.0 -9999.0 -9999.0 -9999.0 -9999.0 -9999.0 -9999.0 -9999.0 -9999.0 -9999.0 -9999.0 -9999.0 -9999.0 -9999.0 -9999.0 -9999.0 -9999.0 -9999.0 -9999.0 -9999.0 -9999.0 -9999.0 -9999.0 -9999.0 -9999.0 -9999.0 -9999.0 -9999.0 -9999.0 -9999.0 -9999.0 -9999.0 -9999.0 -9999.0 -9999.0 -9999.0 -9999.0 -9999.0 -9999.0 -9999.0 -9999.0 -9999.0 -9999.0 -9999.0 -9999.0 -9999.0 -9999.0 -9999.0 -9999.0 -9999.0 -9999.0 -9999.0 -9999.0 -9999.0 -9999.0 -9999.0 -9999.0 -9999.0
186.9 304.5 293.9 302.7 306.7 288.0 265.9 244.3 213.6 198.5 203.2 173.6 183.8 166.8 137.8 109.0 118.1 111.1 85.3 82.5 80.8 79.1 63.8 60.7 85.3 114.9 114.4 133.1 107.6 120.3 82.9 86.6 126.5 129.5 126.8 122.2 118.5 114.2 110.6 107.0 103.3 88.7 88.2 105.5 104.8 101.4 88.5 91.5 101.0 98.6 96.2 92.3 86.8 82.2 77.7 65.1 58.2 70.2 70.2 65.6 56.4 48.2 57.9 64.4 63.8 63.3 64.4 66.7 -9999.0 -9999.0 -9999.0 -9999.0 -9999.0 -9999.0 -9999.0 -9999.0 -9999.0 -9999.0 -9999.0 -9999.0 -9999.0 -9999.0 -9999.0 -9999.0 -9999.0 -9999.0 -9999.0 -9999.0 -9999.0 -9999.0 -9999.0 -9999.0 -9999.0 -9999.0 -9999.0 -9999.0 -9999.0 -9999.0 -9999.0 -9999.0 -9999.0 -9999.0 -9999.0 -9999.0 -9999.0 -9999.0 -9999.0 -9999.0 -9999.0 -9999.0 -9999.0 -9999.0 67.8 79.3 74.9 72.7 70.9 71.9 69.9 59.9 52.8 38.0 37.1 38.1 40.3 41.2 45.0 47.6 53.8 62.5 48.7 47.8 46.7 43.9 38.6 43.0 43.0 42.8 45.7 48.4 54.3 64.1 74.0 63.6 68.5 68.3 72.7 82.2 85.5 93.1 95.3 104.8 110.9 111.0 106.4 118.4 123.7 127.1 128.3 130.3 132.9 138.3 149.1 156.2 148.4 139.6 139.1 148.0 157.5 160.2 164.8 171.5 177.5 185.1 192.4 201.3 216.8 224.1 212.8 204.1 202.0 199.8 200.5 199.4 198.2 197.2 196.6 193.7 188.8 184.6 180.4 177.4 176.0 172.6 169.8 167.5 166.2 162.8 159.5 159.7 157.5 155.2 153.6 152.7 152.6 152.0 151.0 150.2 148.9 147.8 147.3 145.5 143.7 142.0 141.5 140.2 138.7 137.5 135.1 133.6 132.3 129.1 128.6 126.1 125.3 123.9 124.2 125.0 125.1 122.2 121.4 122.6 123.5 123.7 124.2 123.1 121.5 123.0 126.9 126.5 124.6 126.7 128.4 129.9 131.5 132.4 131.9 131.2 130.3 130.1 129.6 129.6 130.8 130.1 129.1 128.2 126.9 127.7 128.1 126.8 123.3 123.0 120.3 118.8 117.9 116.8 115.5 114.6 112.1 111.0 108.4 106.3 104.2 102.1 88.2 91.1 94.3 93.5 93.4 92.6 91.6 87.4 85.3 85.2 87.2 87.0 84.5 83.2 81.9 79.2 76.6 69.0 70.0 71.0 71.3 70.0 66.5 66.3 65.8 65.5 62.1 -9999.0 -9999.0 -9999.0 -9999.0 -9999.0 -9999.0 -9999.0 -9999.0 -9999.0 -9999.0 -9999.0 -9999.0 -9999.0 -9999.0 -9999.0 -9999.0 -9999.0 -9999.0 -9999.0 -9999.0 -9999.0 -9999.0 -9999.0 -9999.0 -9999.0 -9999.0 -9999.0 -9999.0 -9999.0 -9999.0 -9999.0 -9999.0 -9999.0 -9999.0 -9999.0 -9999.0 -9999.0 -9999.0 -9999.0 -9999.0 -9999.0 -9999.0 -9999.0 -9999.0 -9999.0 -9999.0 -9999.0 -9999.0 -9999.0 -9999.0 -9999.0 -9999.0 -9999.0 -9999.0 -9999.0 -9999.0 -9999.0 -9999.0 -9999.0 -9999.0 -9999.0 -9999.0 -9999.0 -9999.0 -9999.0 -9999.0 -9999.0 -9999.0 -9999.0 -9999.0 -9999.0 -9999.0 -9999.0 -9999.0 -9999.0 -9999.0
212.4 345.6 336.8 316.2 282.0 264.5 251.3 245.2 239.2 228.9 219.0 219.5 228.4 208.4 170.1 153.2 184.2 133.0 96.0 77.8 74.0 74.8 75.5 59.9 70.0 67.4 77.3 92.7 92.8 111.6 79.3 81.8 118.1 120.7 116.3 111.7 106.3 103.9 101.9 99.5 83.5 93.0 103.9 106.1 95.6 87.1 98.1 99.8 96.9 93.4 87.8 83.6 79.2 69.5 55.3 64.5 70.9 65.8 60.7 49.4 55.8 67.1 69.0 64.0 63.3 63.8 64.2 -9999.0 -9999.0 -9999.0 -9999.0 -9999.0 -9999.0 -9999.0 -9999.0 -9999.0 -9999.0 -9999.0 -9999.0 -9999.0 -9999.0 -9999.0 -9999.0 -9999.0 -9999.0 -9999.0 -9999.0 -9999.0 -9999.0 -9999.0 -9999.0 -9999.0 -9999.0 -9999.0 -9999.0 -9999.0 -9999.0 -9999.0 -9999.0 -9999.0 -9999.0 -9999.0 -9999.0 -9999.0 -9999.0 -9999.0 -9999.0 -9999.0 -9999.0 -9999.0 -9999.0 -9999.0 -9999.0 -9999.0 -9999.0 -9999.0 -9999.0 55.8 -9999.0 -9999.0 39.4 39.5 46.4 48.0 48.6 47.7 45.3 40.8 42.0 45.4 43.3 40.1 43.9 46.6 47.7 47.9 48.6 47.1 39.3 35.9 32.6 44.2 50.2 52.2 65.8 85.5 93.2 92.9 98.4 107.9 110.5 98.0 114.9 119.9 118.3 112.8 120.4 124.5 129.1 131.7 135.3 140.7 149.8 153.3 157.9 149.4 141.6 145.7 150.8 156.3 161.2 168.6 172.5 179.1 185.4 195.0 203.9 213.8 211.2 204.9 200.6 195.8 195.4 194.6 193.1 192.4 191.0 188.7 185.2 181.8 177.0 174.5 172.9 170.6 170.3 169.2 166.2 163.4 158.6 156.3 155.8 155.2 152.9 151.5 149.5 148.8 148.8 146.8 147.1 146.7 146.2 144.3 142.7 141.6 140.5 138.8 137.0 135.7 134.2 132.6 131.7 129.5 128.2 127.2 125.0 124.1 123.6 123.8 123.7 122.8 121.6 121.4 121.6 121.6 124.2 123.2 123.6 121.9 121.0 119.6 117.9 118.3 119.4 121.2 122.2 123.4 123.8 126.0 126.2 128.0 126.7 125.8 126.6 126.5 127.0 127.2 115.6 113.9 125.1 130.4 125.0 122.2 122.0 120.0 118.5 118.0 116.5 115.2 114.2 112.5 111.5 109.9 106.0 102.1 98.9 99.0 95.2 94.9 95.3 93.2 91.7 90.0 91.6 89.3 88.5 86.7 86.0 85.4 82.7 78.2 77.3 72.8 73.1 73.3 72.5 71.6 71.6 68.9 67.0 66.3 64.3 63.6 62.5 62.0 61.4 -9999.0 -9999.0 -9999.0 -9999.0 -9999.0 -9999.0 -9999.0 -9999.0 -9999.0 -9999.0 -9999.0 -9999.0 -9999.0 -9999.0 -9999.0 -9999.0 -9999.0 -9999.0 -9999.0 -9999.0 -9999.0 -9999.0 -9999.0 -9999.0 -9999.0 -9999.0 -9999.0 -9999.0 -9999.0 -9999.0 -9999.0 -9999.0 -9999.0 -9999.0 -9999.0 -9999.0 -9999.0 -9999.0 -9999.0 -9999.0 -9999.0 -9999.0 -9999.0 -9999.0 -9999.0 -9999.0 -9999.0 -9999.0 -9999.0 -9999.0 -9999.0 -9999.0 -9999.0 -9999.0 -9999.0 -9999.0 -9999.0 -9999.0 -9999.0 -9999.0 -9999.0 -9999.0 -9999.0 -9999.0 -9999.0 -9999.0 -9999.0 -9999.0 -9999.0 -9999.0 -9999.0 -9999.0
218.2 356.0 346.9 332.2 310.1 291.6 282.5 273.1 266.2 258.4 246.0 218.8 205.6 226.2 204.5 210.9 192.3 115.1 97.4 110.7 110.6 71.6 75.4 75.8 73.4 69.4 59.6 53.7 54.4 62.7 70.3 58.2 91.1 101.4 96.8 96.4 87.7 93.2 90.4 76.5 98.1 104.4 104.6 102.6 89.2 100.3 98.4 94.7 89.9 84.4 80.0 75.5 59.6 58.0 68.6 67.5 64.2 58.0 48.7 63.2 68.9 70.1 68.5 66.9 67.7 -9999.0 -9999.0 -9999.0 -9999.0 -9999.0 -9999.0 -9999.0 -9999.0 -9999.0 -9999.0 -9999.0 -9999.0 -9999.0 -9999.0 -9999.0 -9999.0 -9999.0 -9999.0 -9999.0 -9999.0 -9999.0 -9999.0 -9999.0 -9999.0 -9999.0 -9999.0 -9999.0 -9999.0 -9999.0 -9999.0 -9999.0 -9999.0 -9999.0 -9999.0 -9999.0 -9999.0 -9999.0 -9999.0 -9999.0 -9999.0 -9999.0 -9999.0 -9999.0 -9999.0 -9999.0 -9999.0 -9999.0 -9999.0 -9999.0 -9999.0 -9999.0 -9999.0 -9999.0 -9999.0 -9999.0 -9999.0 -9999.0 -9999.0 67.8 63.6 55.4 52.6 52.7 52.4 50.5 48.4 47.9 48.0 48.0 48.2 49.8 54.9 57.3 50.3 52.3 43.3 44.1 59.9 73.4 87.1 94.7 99.8 109.7 107.1 109.6 114.6 109.4 108.6 120.4 122.3 117.9 120.1 124.8 130.1 133.8 138.4 145.4 156.4 162.1 165.0 156.0 151.2 146.0 155.1 155.5 154.7 161.9 168.0 172.9 178.6 186.6 194.1 199.4 206.3 202.4 197.2 193.2 190.2 189.1 189.1 188.2 187.3 185.7 183.5 181.1 178.0 174.7 171.9 169.9 168.7 170.3 165.7 161.5 160.0 158.9 156.3 155.1 154.5 153.0 150.0 147.7 148.3 146.6 145.5 145.9 145.5 143.8 142.6 140.8 140.4 138.2 137.1 135.5 134.2 133.9 133.5 130.8 130.9 129.5 127.0 126.4 123.8 124.5 123.7 123.4 123.2 122.5 122.4 123.1 123.4 122.9 125.1 124.8 122.4 120.7 117.8 116.1 115.4 115.8 116.9 116.9 115.8 114.9 115.4 117.5 119.9 121.5 121.8 122.4 122.1 122.2 122.9 122.5 112.0 108.3 116.7 121.0 121.9 122.3 119.8 118.1 118.1 118.1 115.1 113.0 113.5 112.5 110.1 105.2 102.0 101.9 100.5 99.2 98.9 97.5 97.9 95.5 94.2 93.0 90.1 88.9 86.7 85.1 82.6 81.5 82.2 76.1 77.3 77.5 76.0 73.5 73.0 73.0 69.2 68.2 66.6 63.6 63.4 63.4 63.8 62.6 62.4 60.5 -9999.0 -9999.0 -9999.0 -9999.0 -9999.0 -9999.0 -9999.0 -9999.0 -9999.0 -9999.0 -9999.0 -9999.0 -9999.0 -9999.0 -9999.0 -9999.0 -9999.0 -9999.0 -9999.0 -9999.0 -9999.0 -9999.0 -9999.0 -9999.0 -9999.0 -9999.0 -9999.0 -9999.0 -9999.0 -9999.0 -9999.0 -9999.0 -9999.0 -9999.0 -9999.0 -9999.0 -9999.0 -9999.0 -9999.0 -9999.0 -9999.0 -9999.0 -9999.0 -9999.0 -9999.0 -9999.0 -9999.0 -9999.0 -9999.0 -9999.0 -9999.0 -9999.0 -9999.0 -9999.0 -9999.0 -9999.0 -9999.0 -9999.0 -9999.0 -9999.0 -9999.0 -9999.0 -9999.0 -9999.0 -9999.0 -9999.0 -9999.0 -9999.0 -9999.0
194.9 299.3 298.3 310.1 296.5 282.6 275.6 268.1 260.2 255.6 245.9 232.8 215.7 202.4 221.6 208.5 172.2 110.1 171.3 166.0 134.4 99.3 64.6 69.1 61.7 64.0 63.7 69.6 65.1 71.1 64.0 55.1 66.4 76.5 70.0 68.1 78.3 72.0 73.3 95.4 99.0 105.0 104.6 101.5 88.6 92.9 92.3 86.6 79.8 77.8 66.3 54.1 65.4 69.1 64.3 62.7 53.4 51.7 62.1 67.0 67.9 66.2 69.3 -9999.0 -9999.0 -9999.0 -9999.0 -9999.0 -9999.0 -9999.0 -9999.0 -9999.0 -9999.0 -9999.0 -9999.0 -9999.0 -9999.0 -9999.0 -9999.0 -9999.0 -9999.0 -9999.0 -9999.0 -9999.0 -9999.0 -9999.0 -9999.0 -9999.0 -9999.0 -9999.0 -9999.0 -9999.0 -9999.0 -9999.0 -9999.0 -9999.0 -9999.0 -9999.0 -9999.0 -9999.0 -9999.0 -9999.0 -9999.0 -9999.0 -9999.0 -9999.0 -9999.0 -9999.0 -9999.0 -9999.0 -9999.0 -9999.0 -9999.0 -9999.0 -9999.0 -9999.0 -9999.0 -9999.0 -9999.0 -9999.0 -9999.0 -9999.0 -9999.0 -9999.0 83.5 70.7 64.5 68.2 72.5 72.6 69.9 58.4 54.9 54.8 59.2 61.4 61.6 64.1 69.7 69.8 66.2 46.4 63.1 75.1 88.4 95.5 100.3 111.7 115.4 114.4 117.6 116.9 104.3 120.9 125.9 129.8 129.3 131.9 135.1 136.4 141.0 150.4 161.7 166.7 166.5 168.3 157.7 152.9 153.2 158.5 157.7 157.7 164.1 172.4 177.3 181.4 190.8 196.0 201.8 200.3 196.2 193.5 191.3 188.1 186.2 185.3 185.3 184.9 183.8 180.3 178.2 174.9 172.2 168.6 166.9 166.4 160.8 159.7 157.4 153.5 153.2 152.5 151.5 151.5 150.6 147.9 146.1 146.9 145.4 144.6 145.5 146.0 144.5 140.4 138.8 138.5 136.5 134.7 132.9 131.7 131.6 131.2 132.1 130.7 128.2 127.5 125.8 126.3 125.9 124.1 124.4 124.2 124.4 124.1 124.5 124.4 125.6 124.5 122.2 121.8 120.6 118.1 116.0 115.8 113.7 113.1 111.9 110.5 109.7 110.6 111.1 112.7 114.7 115.3 116.0 117.3 118.6 119.8 120.0 117.4 106.2 114.1 119.5 121.6 122.8 120.9 120.0 120.0 116.8 113.4 112.6 111.7 112.0 111.8 108.9 103.7 104.0 103.3 101.3 99.9 99.3 97.8 96.5 94.1 92.9 91.5 91.6 88.2 85.9 85.3 86.4 85.3 81.5 80.3 80.4 78.6 74.6 73.8 74.3 72.8 69.0 66.1 64.0 64.5 63.5 62.7 62.2 61.6 60.9 -9999.0 -9999.0 -9999.0 -9999.0 -9999.0 -9999.0 -9999.0 -9999.0 -9999.0 -9999.0 -9999.0 -9999.0 -9999.0 -9999.0 -9999.0 -9999.0 -9999.0 -9999.0 -9999.0 -9999.0 -9999.0 -9999.0 -9999.0 -9999.0 -9999.0 -9999.0 -9999.0 -9999.0 -9999.0 -9999.0 -9999.0 -9999.0 -9999.0 -9999.0 -9999.0 -9999.0 -9999.0 -9999.0 -9999.0 -9999.0 -9999.0 -9999.0 -9999.0 -9999.0 -9999.0 -9999.0 -9999.0 -9999.0 -9999.0 -9999.0 -9999.0 -9999.0 -9999.0 -9999.0 -9999.0 -9999.0 -9999.0 -9999.0 -9999.0 -9999.0 -9999.0 -9999.0 -9999.0 -9999.0 -9999.0 -9999.0 -9999.0 -9999.0
124.2 215.9 223.4 234.7 277.9 281.8 267.6 266.0 267.5 254.8 244.0 233.5 215.6 187.4 208.0 196.3 160.2 162.2 181.2 165.3 148.4 127.3 95.7 80.7 71.3 62.9 72.9 72.6 72.3 72.1 70.9 60.9 56.0 57.1 65.2 70.9 58.2 71.4 72.2 98.4 101.0 101.7 100.6 99.6 94.9 79.1 75.8 79.0 71.9 56.5 59.3 69.8 67.7 63.6 59.7 49.6 59.9 64.1 62.5 63.1 62.9 -9999.0 -9999.0 -9999.0 -9999.0 -9999.0 -9999.0 -9999.0 -9999.0 -9999.0 -9999.0 -9999.0 -9999.0 -9999.0 -9999.0 -9999.0 -9999.0 -9999.0 -9999.0 -9999.0 -9999.0 -9999.0 -9999.0 -9999.0 -9999.0 -9999.0 -9999.0 -9999.0 -9999.0 -9999.0 -9999.0 -9999.0 -9999.0 -9999.0 -9999.0 -9999.0 -9999.0 -9999.0 -9999.0 -9999.0 -9999.0 -9999.0 -9999.0 -9999.0 -9999.0 -9999.0 -9999.0 -9999.0 -9999.0 -9999.0 -9999.0 -9999.0 -9999.0 -9999.0 -9999.0 -9999.0 -9999.0 -9999.0 -9999.0 -9999.0 -9999.0 -9999.0 -9999.0 -9999.0 -9999.0 86.3 83.3 81.5 81.0 79.5 78.1 76.3 73.8 74.6 73.9 72.2 66.0 67.1 75.9 76.2 74.1 68.8 55.1 72.0 80.1 87.9 92.0 97.6 106.7 116.7 120.9 122.4 114.9 122.7 131.8 134.7 134.9 136.3 140.9 144.4 143.8 150.2 154.7 157.1 158.6 164.5 163.7 164.8 165.3 160.1 164.9 160.9 159.8 170.7 176.6 180.1 185.4 189.7 193.1 195.2 195.1 193.0 190.7 188.5 185.7 184.6 183.9 183.6 183.3 181.0 178.7 176.4 173.0 170.4 164.5 162.1 158.4 155.7 153.4 150.7 150.6 150.0 149.1 148.4 148.2 145.5 143.6 144.1 145.3 144.7 143.6 142.2 143.0 140.7 137.3 134.9 135.2 133.0 131.2 129.8 129.3 129.2 129.3 127.0 124.3 124.1 124.7 124.0 123.4 121.0 120.3 119.8 119.7 120.2 120.5 120.0 121.7 122.8 121.4 122.7 121.4 119.2 116.3 115.7 116.2 114.4 114.1 113.3 112.0 109.1 107.6 106.9 106.9 110.3 110.3 112.8 114.5 114.7 115.9 115.8 113.8 104.1 116.1 117.1 120.5 122.2 121.5 119.9 117.7 115.3 114.1 112.2 111.3 111.1 111.8 111.9 109.5 108.0 103.5 101.1 99.9 99.1 98.4 96.1 92.0 91.8 91.8 92.4 90.5 88.7 91.1 89.2 87.3 84.7 83.0 80.8 76.5 74.9 75.6 74.5 74.2 72.3 70.0 69.1 66.3 63.4 62.5 62.3 62.2 60.5 60.7 60.3 60.3 61.8 -9999.0 -9999.0 -9999.0 -9999.0 -9999.0 -9999.0 -9999.0 -9999.0 -9999.0 -9999.0 -9999.0 -9999.0 -9999.0 -9999.0 -9999.0 -9999.0 -9999.0 -9999.0 -9999.0 -9999.0 -9999.0 -9999.0 -9999.0 -9999.0 -9999.0 -9999.0 -9999.0 -9999.0 -9999.0 -9999.0 -9999.0 -9999.0 -9999.0 -9999.0 -9999.0 -9999.0 -9999.0 -9999.0 -9999.0 -9999.0 -9999.0 -9999.0 -9999.0 -9999.0 -9999.0 -9999.0 -9999.0 -9999.0 -9999.0 -9999.0 -9999.0 -9999.0 -9999.0 -9999.0 -9999.0 -9999.0 -9999.0 -9999.0 -9999.0 -9999.0 -9999.0 -9999.0 -9999.0
80.3 150.2 159.6 172.8 244.2 279.5 265.5 255.9 248.7 247.8 241.7 235.0 231.6 215.5 183.1 186.7 191.6 175.0 162.5 158.1 142.6 130.8 111.3 107.6 77.7 105.2 111.9 97.3 83.9 71.6 70.7 69.7 64.8 50.0 62.3 56.9 69.3 55.4 55.6 89.7 99.5 100.0 96.5 91.3 86.6 80.9 67.1 57.9 54.5 66.4 69.3 65.5 62.5 52.7 52.1 64.2 69.7 65.1 62.6 62.8 -9999.0 -9999.0 -9999.0 -9999.0 -9999.0 -9999.0 -9999.0 -9999.0 -9999.0 -9999.0 -9999.0 -9999.0 -9999.0 -9999.0 -9999.0 -9999.0 -9999.0 -9999.0 -9999.0 -9999.0 -9999.0 -9999.0 -9999.0 -9999.0 -9999.0 -9999.0 -9999.0 -9999.0 -9999.0 -9999.0 -9999.0 -9999.0 -9999.0 -9999.0 -9999.0 -9999.0 -9999.0 -9999.0 -9999.0 -9999.0 -9999.0 -9999.0 -9999.0 -9999.0 -9999.0 -9999.0 -9999.0 -9999.0 -9999.0 -9999.0 -9999.0 -9999.0 -9999.0 -9999.0 -9999.0 -9999.0 -9999.0 -9999.0 -9999.0 -9999.0 -9999.0 -9999.0 -9999.0 -9999.0 -9999.0 -9999.0 82.9 85.1 82.9 83.6 82.1 78.8 78.9 79.8 71.9 66.4 70.5 79.6 79.3 79.3 76.1 72.9 74.5 73.4 76.2 78.5 86.3 87.9 94.7 118.6 135.5 132.0 128.8 125.0 134.9 136.3 140.9 144.1 146.7 151.6 154.6 154.7 163.2 159.7 158.2 162.1 171.1 172.4 167.1 165.3 166.3 164.9 162.8 163.1 177.8 186.6 185.4 188.6 192.5 194.6 193.6 192.3 189.8 188.2 186.1 184.2 182.8 181.4 180.7 179.6 178.4 175.9 172.4 168.8 162.9 159.5 156.9 154.3 150.4 148.8 147.3 147.4 147.2 146.6 145.9 142.7 141.6 141.4 142.5 144.4 142.3 140.4 139.7 139.5 137.6 134.7 132.7 132.4 129.8 128.1 128.1 127.0 125.8 123.9 121.8 120.7 121.1 120.2 120.2 119.1 117.1 115.8 115.9 117.1 116.7 117.3 117.0 118.2 119.2 120.4 120.1 117.7 116.1 113.1 113.6 116.2 116.5 115.8 113.6 111.3 107.3 105.8 105.1 105.3 105.8 108.1 111.0 111.8 111.6 110.8 110.3 96.9 110.2 112.8 115.6 117.7 118.6 118.0 117.0 115.6 114.9 114.5 113.8 111.6 112.4 113.5 113.2 110.8 105.4 103.6 101.8 100.5 98.8 97.4 94.7 92.9 90.3 94.6 94.3 91.4 90.4 91.5 91.0 88.4 85.0 85.0 82.0 77.8 76.5 76.4 77.4 75.4 72.5 72.3 70.4 67.4 63.9 62.5 61.7 61.3 62.1 61.2 60.3 61.7 62.3 62.4 -9999.0 -9999.0 -9999.0 -9999.0 -9999.0 -9999.0 -9999.0 -9999.0 -9999.0 -9999.0 -9999.0 -9999.0 -9999.0 -9999.0 -9999.0 -9999.0 -9999.0 -9999.0 -9999.0 -9999.0 -9999.0 -9999.0 -9999.0 -9999.0 -9999.0 -9999.0 -9999.0 -9999.0 -9999.0 -9999.0 -9999.0 -9999.0 -9999.0 -9999.0 -9999.0 -9999.0 -9999.0 -9999.0 -9999.0 -9999.0 -9999.0 -9999.0 -9999.0 -9999.0 -9999.0 -9999.0 -9999.0 -9999.0 -9999.0 -9999.0 -9999.0 -9999.0 -9999.0 -9999.0 -9999.0 -9999.0 -9999.0 -9999.0 -9999.0 -9999.0 -9999.0
114.7 147.1 123.6 137.8 222.7 275.5 274.6 267.8 250.2 232.5 222.1 232.9 227.9 212.6 205.8 176.9 170.7 193.3 187.2 172.8 171.5 165.7 145.6 103.2 118.7 135.0 123.0 112.3 101.9 80.5 71.1 68.9 67.3 56.2 62.8 63.6 57.5 74.3 58.0 72.9 94.8 93.6 87.8 81.7 78.6 71.0 53.7 60.3 68.5 67.5 63.8 61.3 49.8 58.6 63.8 67.3 69.5 65.7 -9999.0 -9999.0 -9999.0 -9999.0 -9999.0 -9999.0 -9999.0 -9999.0 -9999.0 -9999.0 -9999.0 -9999.0 -9999.0 -9999.0 -9999.0 -9999.0 -9999.0 -9999.0 -9999.0 -9999.0 -9999.0 -9999.0 -9999.0 -9999.0 -9999.0 -9999.0 -9999.0 -9999.0 -9999.0 -9999.0 -9999.0 -9999.0 -9999.0 -9999.0 -9999.0 -9999.0 -9999.0 -9999.0 -9999.0 -9999.0 -9999.0 -9999.0 -9999.0 -9999.0 -9999.0 -9999.0 -9999.0 -9999.0 -9999.0 -9999.0 -9999.0 -9999.0 -9999.0 -9999.0 -9999.0 -9999.0 -9999.0 -9999.0 -9999.0 -9999.0 -9999.0 -9999.0 -9999.0 -9999.0 -9999.0 -9999.0 -9999.0 -9999.0 83.1 82.9 79.6 78.6 78.5 79.9 79.7 80.3 76.7 73.9 80.4 79.9 76.9 76.0 72.9 74.2 76.9 76.0 74.2 75.6 79.9 86.7 91.3 125.7 164.1 148.4 141.5 136.1 140.6 143.6 147.0 151.1 154.9 162.5 169.5 177.4 179.9 175.7 170.1 173.9 175.2 174.2 166.8 170.4 169.1 167.4 166.5 162.8 171.5 193.2 190.3 185.6 185.8 188.7 190.3 190.1 187.1 187.1 186.0 183.6 181.1 178.6 177.4 177.5 176.5 174.8 170.9 166.9 161.9 157.0 153.2 151.4 148.8 147.7 147.2 147.1 146.6 146.4 145.3 144.1 142.6 141.4 141.6 141.8 142.2 140.5 137.8 137.3 137.9 135.2 132.7 131.8 130.8 128.5 128.0 126.8 124.8 123.7 122.1 119.0 117.0 116.5 116.9 116.3 115.7 114.5 113.6 113.6 116.2 116.5 115.5 112.8 113.6 114.2 115.6 117.0 113.9 112.4 110.2 111.5 116.0 116.5 115.1 112.3 108.8 106.4 105.6 105.5 104.3 103.5 105.9 109.4 109.9 108.6 108.4 104.4 96.7 108.3 109.8 110.3 109.0 108.2 108.3 111.5 115.4 114.7 116.3 116.8 117.2 115.8 113.2 109.9 108.4 107.0 104.7 102.3 100.2 98.0 96.6 93.9 93.0 89.7 93.3 93.7 91.9 91.9 93.1 91.3 90.1 88.4 84.7 81.2 77.3 78.6 78.6 78.0 76.5 74.6 71.7 69.7 67.0 65.1 63.1 62.8 65.5 65.3 63.4 61.6 62.3 62.1 62.3 -9999.0 -9999.0 -9999.0 -9999.0 -9999.0 -9999.0 -9999.0 -9999.0 -9999.0 -9999.0 -9999.0 -9999.0 -9999.0 -9999.0 -9999.0 -9999.0 -9999.0 -9999.0 -9999.0 -9999.0 -9999.0 -9999.0 -9999.0 -9999.0 -9999.0 -9999.0 -9999.0 -9999.0 -9999.0 -9999.0 -9999.0 -9999.0 -9999.0 -9999.0 -9999.0 -9999.0 -9999.0 -9999.0 -9999.0 -9999.0 -9999.0 -9999.0 -9999.0 -9999.0 -9999.0 -9999.0 -9999.0 -9999.0 -9999.0 -9999.0 -9999.0 -9999.0 -9999.0 -9999.0 -9999.0 -9999.0 -9999.0 -9999.0 -9999.0 -9999.0
157.8 211.7 168.3 118.5 147.7 244.3 271.8 259.1 246.2 238.4 232.8 213.7 216.3 207.2 192.9 181.4 154.2 190.7 187.7 182.3 175.5 162.6 127.7 146.2 143.2 137.3 127.0 110.5 109.7 97.2 85.5 70.4 67.5 63.1 55.9 65.3 59.3 64.5 70.2 54.4 86.6 83.3 80.1 76.7 71.2 56.7 58.5 67.9 64.5 63.4 58.3 49.7 61.0 66.3 69.7 70.3 70.1 -9999.0 -9999.0 -9999.0 -9999.0 -9999.0 -9999.0 -9999.0 -9999.0 -9999.0 -9999.0 -9999.0 -9999.0 -9999.0 -9999.0 -9999.0 -9999.0 -9999.0 -9999.0 -9999.0 -9999.0 -9999.0 -9999.0 -9999.0 -9999.0 -9999.0 -9999.0 -9999.0 -9999.0 -9999.0 -9999.0 -9999.0 -9999.0 -9999.0 -9999.0 -9999.0 -9999.0 -9999.0 -9999.0 -9999.0 -9999.0 -9999.0 -9999.0 -9999.0 -9999.0 -9999.0 -9999.0 -9999.0 -9999.0 -9999.0 -9999.0 -9999.0 -9999.0 -9999.0 -9999.0 -9999.0 -9999.0 -9999.0 -9999.0 -9999.0 -9999.0 -9999.0 -9999.0 -9999.0 -9999.0 -9999.0 -9999.0 -9999.0 -9999.0 -9999.0 77.0 78.6 78.1 78.1 78.7 84.3 82.8 81.5 81.0 81.1 69.0 60.7 56.8 56.9 64.4 59.6 72.5 79.1 77.6 77.4 78.3 86.0 92.0 123.2 176.2 174.0 151.3 148.3 150.2 152.2 156.7 163.3 166.6 176.0 183.4 185.9 184.3 182.8 179.8 176.8 178.1 175.8 171.7 172.2 172.1 170.7 169.3 166.9 165.7 177.2 190.2 184.0 181.3 181.8 184.1 187.2 186.2 186.0 186.0 185.2 179.8 176.8 174.7 174.5 172.1 169.1 167.0 164.1 158.3 154.2 150.7 148.7 147.3 146.5 146.3 146.6 147.2 147.3 146.7 145.4 143.6 143.4 140.5 141.9 141.2 139.8 138.3 137.2 137.2 136.7 134.3 132.0 131.1 128.9 127.1 125.6 125.9 123.7 122.5 120.5 118.2 114.9 114.4 113.9 113.1 112.6 112.8 113.7 114.2 117.7 117.2 113.1 111.1 111.2 110.0 112.4 112.5 109.2 107.9 106.0 105.7 111.4 112.5 110.6 108.1 104.7 102.9 104.2 103.9 102.2 102.5 97.8 100.8 109.5 108.8 107.1 98.8 101.7 107.0 106.1 105.1 104.0 101.9 101.5 101.1 102.5 109.8 114.5 114.6 113.8 114.2 112.5 110.2 106.7 106.9 103.1 101.9 98.0 97.6 97.0 96.2 94.3 93.7 94.9 93.9 91.8 91.2 91.5 90.7 89.4 86.9 84.8 82.3 83.0 83.7 81.2 78.7 78.5 76.0 72.3 69.7 66.4 66.5 69.5 73.5 71.2 68.8 64.6 61.5 62.4 62.6 62.5 -9999.0 -9999.0 -9999.0 -9999.0 -9999.0 -9999.0 -9999.0 -9999.0 -9999.0 -9999.0 -9999.0 -9999.0 -9999.0 -9999.0 -9999.0 -9999.0 -9999.0 -9999.0 -9999.0 -9999.0 -9999.0 -9999.0 -9999.0 -9999.0 -9999.0 -9999.0 -9999.0 -9999.0 -9999.0 -9999.0 -9999.0 -9999.0 -9999.0 -9999.0 -9999.0 -9999.0 -9999.0 -9999.0 -9999.0 -9999.0 -9999.0 -9999.0 -9999.0 -9999.0 -9999.0 -9999.0 -9999.0 -9999.0 -9999.0 -9999.0 -9999.0 -9999.0 -9999.0 -9999.0 -9999.0 -9999.0 -9999.0 -9999.0 -9999.0
143.7 212.2 194.6 141.1 114.8 192.0 262.7 251.4 240.9 232.3 228.0 225.5 200.5 192.9 198.7 184.7 148.8 175.7 181.1 166.8 163.7 144.9 152.4 155.1 150.7 137.8 127.6 118.9 100.5 78.2 80.1 70.7 70.4 64.8 48.3 56.9 60.8 57.3 67.2 55.2 74.2 75.6 73.7 70.2 67.9 68.7 50.3 58.3 63.6 58.3 50.7 63.2 66.6 68.7 69.1 69.2 -9999.0 -9999.0 -9999.0 -9999.0 -9999.0 -9999.0 -9999.0 -9999.0 -9999.0 -9999.0 -9999.0 -9999.0 -9999.0 -9999.0 -9999.0 -9999.0 -9999.0 -9999.0 -9999.0 -9999.0 -9999.0 -9999.0 -9999.0 -9999.0 -9999.0 -9999.0 -9999.0 -9999.0 -9999.0 -9999.0 -9999.0 -9999.0 -9999.0 -9999.0 -9999.0 -9999.0 -9999.0 -9999.0 -9999.0 -9999.0 -9999.0 -9999.0 -9999.0 -9999.0 -9999.0 -9999.0 -9999.0 -9999.0 -9999.0 -9999.0 -9999.0 -9999.0 -9999.0 -9999.0 -9999.0 -9999.0 -9999.0 -9999.0 -9999.0 -9999.0 -9999.0 -9999.0 -9999.0 -9999.0 -9999.0 -9999.0 -9999.0 -9999.0 -9999.0 -9999.0 72.2 79.7 78.1 78.2 81.8 85.7 84.4 83.6 76.5 63.0 57.4 57.6 55.4 55.5 62.1 62.8 69.3 80.9 80.4 80.0 80.2 86.1 90.0 112.0 147.5 186.1 165.3 161.9 166.0 171.4 177.5 184.5 183.6 173.2 171.4 175.9 179.8 176.2 176.9 179.1 180.3 179.7 176.1 174.7 175.7 172.9 170.6 168.8 167.0 166.5 174.7 182.6 182.8 179.4 179.0 180.4 181.3 182.1 181.9 181.5 179.3 174.9 173.1 171.1 166.9 164.2 162.1 160.0 155.6 151.7 149.7 148.2 146.4 145.5 144.3 143.3 143.8 143.0 143.2 144.1 143.7 143.7 142.7 141.3 140.4 139.8 139.9 139.0 137.4 137.2 135.2 131.7 130.7 129.0 127.1 127.9 126.8 125.5 125.0 122.7 120.0 116.8 113.5 111.5 110.5 109.4 109.3 112.2 113.9 115.0 117.8 114.2 112.0 109.2 107.5 107.3 108.2 107.2 105.1 103.8 102.6 102.2 105.6 104.3 102.8 101.7 100.7 99.9 101.4 102.0 101.7 93.1 97.9 108.2 107.4 106.7 102.6 93.3 98.9 103.0 102.8 101.5 99.8 98.9 96.7 94.1 92.6 97.5 103.8 111.8 113.5 112.6 112.1 109.1 106.2 104.4 103.8 100.2 96.5 96.7 97.8 95.5 95.5 94.4 95.4 94.1 91.6 92.0 90.4 90.2 89.7 88.1 86.8 85.3 85.9 85.9 83.5 79.9 79.1 77.2 73.3 71.2 69.6 71.3 74.3 76.0 75.1 70.6 66.0 62.3 60.6 48.6 53.3 57.0 -9999.0 -9999.0 -9999.0 -9999.0 -9999.0 -9999.0 -9999.0 -9999.0 -9999.0 -9999.0 -9999.0 -9999.0 -9999.0 -9999.0 -9999.0 -9999.0 -9999.0 -9999.0 -9999.0 -9999.0 -9999.0 -9999.0 -9999.0 -9999.0 -9999.0 -9999.0 -9999.0 -9999.0 -9999.0 -9999.0 -9999.0 -9999.0 -9999.0 -9999.0 -9999.0 -9999.0 -9999.0 -9999.0 -9999.0 -9999.0 -9999.0 -9999.0 -9999.0 -9999.0 -9999.0 -9999.0 -9999.0 -9999.0 -9999.0 -9999.0 -9999.0 -9999.0 -9999.0 -9999.0 -9999.0 -9999.0 -9999.0
159.4 232.0 184.4 141.7 110.9 128.5 192.0 239.7 238.8 235.4 227.3 210.5 205.5 188.7 167.1 182.0 167.1 139.1 174.5 179.1 170.5 164.1 162.5 158.0 147.7 123.8 117.4 106.1 98.9 82.7 60.7 72.0 70.8 78.6 60.5 52.3 55.3 59.1 62.8 54.7 64.4 70.0 67.4 66.5 67.2 61.3 57.1 49.8 57.0 51.3 62.2 64.4 70.1 68.0 67.1 -9999.0 -9999.0 -9999.0 -9999.0 -9999.0 -9999.0 -9999.0 -9999.0 -9999.0 -9999.0 -9999.0 -9999.0 -9999.0 -9999.0 -9999.0 -9999.0 -9999.0 -9999.0 -9999.0 -9999.0 -9999.0 -9999.0 -9999.0 -9999.0 -9999.0 -9999.0 -9999.0 -9999.0 -9999.0 -9999.0 -9999.0 -9999.0 -9999.0 -9999.0 -9999.0 -9999.0 -9999.0 -9999.0 -9999.0 -9999.0 -9999.0 -9999.0 -9999.0 -9999.0 -9999.0 -9999.0 -9999.0 -9999.0 -9999.0 -9999.0 -9999.0 -9999.0 -9999.0 -9999.0 -9999.0 -9999.0 -9999.0 -9999.0 -9999.0 -9999.0 -9999.0 -9999.0 -9999.0 -9999.0 -9999.0 -9999.0 -9999.0 -9999.0 -9999.0 -9999.0 64.9 70.8 79.8 78.4 81.1 86.4 86.4 83.4 77.0 59.9 58.5 55.8 54.5 60.4 66.7 53.5 59.6 74.1 83.2 83.0 82.1 82.9 87.4 88.3 94.4 133.8 179.0 187.2 188.9 188.1 187.8 182.1 175.6 164.5 156.7 154.1 153.7 153.0 152.3 153.0 162.0 172.1 176.0 178.7 178.3 177.8 176.3 174.8 173.4 171.1 168.5 168.7 171.1 178.0 182.1 179.5 177.3 172.7 171.0 173.2 174.4 175.6 174.2 170.9 168.8 164.8 158.9 155.4 154.2 153.7 151.3 149.5 148.7 146.4 144.7 143.9 142.7 143.0 142.2 140.3 139.0 139.7 141.2 142.8 138.9 138.2 138.7 138.8 139.5 137.4 135.4 133.5 131.5 129.5 128.1 127.5 128.1 127.3 126.1 125.6 123.7 122.1 119.2 115.9 115.3 111.9 110.4 110.4 110.1 112.9 113.3 117.1 116.5 113.9 109.6 109.6 109.5 109.4 106.6 105.6 103.4 102.6 102.0 101.4 101.3 101.9 102.3 101.8 100.1 99.2 99.7 99.3 92.5 89.4 107.0 107.8 107.2 106.0 103.7 95.1 86.9 100.2 99.5 98.4 96.4 95.4 92.2 90.7 90.1 91.5 95.6 102.5 112.9 113.8 111.2 109.1 108.8 107.9 104.6 97.9 96.6 97.2 96.1 96.8 96.7 96.9 96.0 94.3 91.9 91.2 91.0 91.0 90.2 88.8 86.9 86.1 88.5 87.8 84.0 79.0 77.6 76.5 74.9 73.4 74.6 72.7 73.8 77.1 76.2 71.8 70.2 64.2 61.5 63.0 64.6 62.0 -9999.0 -9999.0 -9999.0 -9999.0 -9999.0 -9999.0 -9999.0 -9999.0 -9999.0 -9999.0 -9999.0 -9999.0 -9999.0 -9999.0 -9999.0 -9999.0 -9999.0 -9999.0 -9999.0 -9999.0 -9999.0 -9999.0 -9999.0 -9999.0 -9999.0 -9999.0 -9999.0 -9999.0 -9999.0 -9999.0 -9999.0 -9999.0 -9999.0 -9999.0 -9999.0 -9999.0 -9999.0 -9999.0 -9999.0 -9999.0 -9999.0 -9999.0 -9999.0 -9999.0 -9999.0 -9999.0 -9999.0 -9999.0 -9999.0 -9999.0 -9999.0 -9999.0 -9999.0 -9999.0 -9999.0 -9999.0
178.1 285.7 258.8 200.0 130.7 98.3 127.0 194.4 236.6 233.8 226.2 211.9 200.2 189.2 184.0 169.0 144.0 157.8 134.2 172.5 170.7 170.5 164.0 157.1 146.8 134.6 120.8 106.6 87.3 71.4 55.8 60.1 56.0 52.2 53.0 46.6 50.5 47.8 56.7 61.3 49.7 61.4 58.6 59.7 59.2 51.2 62.0 60.6 47.4 62.5 62.5 62.4 65.1 68.2 -9999.0 -9999.0 -9999.0 -9999.0 -9999.0 -9999.0 -9999.0 -9999.0 -9999.0 -9999.0 -9999.0 -9999.0 -9999.0 -9999.0 -9999.0 -9999.0 -9999.0 -9999.0 -9999.0 -9999.0 -9999.0 -9999.0 -9999.0 -9999.0 -9999.0 -9999.0 -9999.0 -9999.0 -9999.0 -9999.0 -9999.0 -9999.0 -9999.0 -9999.0 -9999.0 -9999.0 -9999.0 -9999.0 -9999.0 -9999.0 -9999.0 -9999.0 -9999.0 -9999.0 -9999.0 -9999.0 -9999.0 -9999.0 -9999.0 -9999.0 -9999.0 -9999.0 -9999.0 -9999.0 -9999.0 -9999.0 -9999.0 -9999.0 -9999.0 -9999.0 -9999.0 -9999.0 -9999.0 -9999.0 -9999.0 -9999.0 -9999.0 -9999.0 -9999.0 -9999.0 -9999.0 67.2 71.4 77.4 81.3 84.5 86.8 82.2 65.3 60.4 66.5 57.5 59.0 61.2 68.0 63.4 53.0 71.8 75.3 82.9 85.0 84.6 85.4 87.6 89.0 89.5 96.3 125.7 189.5 187.1 175.5 165.7 157.3 150.4 145.3 142.5 141.9 140.3 135.0 132.7 135.4 143.1 149.2 156.8 168.8 179.7 179.2 176.2 177.4 174.6 172.2 171.9 169.8 168.5 170.4 174.6 180.6 180.6 174.4 169.9 169.0 170.2 172.4 172.9 171.1 168.0 164.9 159.5 154.8 152.9 150.9 149.8 148.9 147.1 146.4 143.9 143.7 142.6 142.9 143.1 142.1 139.6 136.1 132.9 133.3 131.8 133.8 136.6 137.2 135.9 135.0 133.2 131.1 130.0 129.8 129.1 127.8 127.8 127.3 126.9 125.5 124.3 122.9 120.6 118.6 117.9 116.2 114.2 113.0 110.6 110.9 109.7 111.3 113.1 110.9 113.6 116.0 114.0 113.7 110.8 108.3 105.7 103.0 102.8 101.9 101.4 100.7 101.2 100.2 99.3 99.1 99.1 99.1 94.4 86.9 102.3 107.1 107.2 106.1 104.9 102.8 95.7 92.6 98.1 97.0 95.4 93.9 91.3 90.0 88.5 88.0 88.1 88.8 105.6 114.6 113.4 111.2 111.4 109.9 108.1 104.2 99.7 97.9 97.3 97.5 99.2 98.2 97.8 97.6 94.0 92.6 92.4 92.4 89.8 88.4 88.3 88.8 88.1 89.5 89.4 85.3 79.2 78.4 77.5 78.9 77.3 77.7 76.1 75.3 77.6 78.2 76.8 76.0 69.2 65.9 67.4 65.1 56.0 -9999.0 -9999.0 -9999.0 -9999.0 -9999.0 -9999.0 -9999.0 -9999.0 -9999.0 -9999.0 -9999.0 -9999.0 -9999.0 -9999.0 -9999.0 -9999.0 -9999.0 -9999.0 -9999.0 -9999.0 -9999.0 -9999.0 -9999.0 -9999.0 -9999.0 -9999.0 -9999.0 -9999.0 -9999.0 -9999.0 -9999.0 -9999.0 -9999.0 -9999.0 -9999.0 -9999.0 -9999.0 -9999.0 -9999.0 -9999.0 -9999.0 -9999.0 -9999.0 -9999.0 -9999.0 -9999.0 -9999.0 -9999.0 -9999.0 -9999.0 -9999.0 -9999.0 -9999.0 -9999.0 -9999.0
160.4 261.3 234.7 237.4 181.4 115.7 96.1 139.2 223.8 229.6 216.3 204.6 201.9 199.3 193.9 181.6 173.9 137.7 135.9 144.1 159.1 169.0 161.2 152.5 142.2 130.6 121.3 109.2 85.0 69.0 86.2 95.5 90.0 84.0 65.9 51.6 51.4 59.4 47.4 55.6 57.7 54.2 55.0 56.7 50.0 46.4 60.5 60.9 53.9 54.6 61.9 62.6 63.4 -9999.0 -9999.0 -9999.0 -9999.0 -9999.0 -9999.0 -9999.0 -9999.0 -9999.0 -9999.0 -9999.0 -9999.0 -9999.0 -9999.0 -9999.0 -9999.0 -9999.0 -9999.0 -9999.0 -9999.0 -9999.0 -9999.0 -9999.0 -9999.0 -9999.0 -9999.0 -9999.0 -9999.0 -9999.0 -9999.0 -9999.0 -9999.0 -9999.0 -9999.0 -9999.0 -9999.0 -9999.0 -9999.0 -9999.0 -9999.0 -9999.0 -9999.0 -9999.0 -9999.0 -9999.0 -9999.0 -9999.0 -9999.0 -9999.0 -9999.0 -9999.0 -9999.0 -9999.0 -9999.0 -9999.0 -9999.0 -9999.0 -9999.0 -9999.0 -9999.0 -9999.0 -9999.0 -9999.0 -9999.0 -9999.0 -9999.0 -9999.0 -9999.0 -9999.0 -9999.0 -9999.0 -9999.0 69.0 71.4 78.4 81.7 83.5 75.5 59.4 57.2 52.7 58.9 67.5 57.8 57.5 64.8 55.0 61.3 74.0 77.7 84.8 86.6 87.0 86.5 88.4 89.2 89.7 90.9 97.0 142.0 179.0 161.5 151.6 145.8 141.6 137.8 135.0 131.0 130.7 130.7 133.5 136.7 139.7 141.1 144.1 148.6 156.3 161.6 166.3 166.1 165.6 164.7 164.2 165.9 166.2 165.9 167.8 175.9 180.9 177.7 171.6 165.2 165.0 165.6 168.0 167.3 164.3 162.9 159.7 158.4 157.2 153.9 152.1 149.1 146.6 145.5 144.8 144.4 143.7 142.8 142.8 142.8 140.3 137.8 133.1 130.3 128.5 127.9 131.0 134.1 134.6 134.5 134.5 132.7 132.2 133.5 131.9 129.2 128.9 127.9 127.1 126.4 125.8 122.8 121.4 120.7 119.9 117.3 115.1 114.0 114.4 111.3 109.9 109.4 109.3 111.5 117.5 117.9 116.4 115.0 113.7 113.1 110.8 106.9 104.5 103.3 102.1 101.0 99.6 99.3 99.2 99.1 99.1 99.1 89.8 96.0 99.3 100.9 104.1 104.8 102.3 100.6 97.6 84.6 97.7 95.4 93.9 91.8 90.2 89.0 87.9 87.6 87.5 87.6 93.0 113.1 115.0 114.0 113.8 113.7 111.1 107.9 107.8 103.3 97.9 97.5 101.5 100.1 100.4 99.7 97.5 92.4 91.9 93.6 91.9 89.8 88.9 89.2 89.0 89.0 89.9 90.4 85.8 80.7 78.6 80.2 79.7 76.5 79.4 77.6 76.9 78.5 79.4 78.0 75.7 73.2 71.5 67.7 64.0 49.4 54.1 -9999.0 -9999.0 -9999.0 -9999.0 -9999.0 -9999.0 -9999.0 -9999.0 -9999.0 -9999.0 -9999.0 -9999.0 -9999.0 -9999.0 -9999.0 -9999.0 -9999.0 -9999.0 -9999.0 -9999.0 -9999.0 -9999.0 -9999.0 -9999.0 -9999.0 -9999.0 -9999.0 -9999.0 -9999.0 -9999.0 -9999.0 -9999.0 -9999.0 -9999.0 -9999.0 -9999.0 -9999.0 -9999.0 -9999.0 -9999.0 -9999.0 -9999.0 -9999.0 -9999.0 -9999.0 -9999.0 -9999.0 -9999.0 -9999.0 -9999.0 -9999.0 -9999.0 -9999.0
102.3 180.1 156.9 185.9 193.6 134.3 91.1 118.0 208.0 226.0 211.3 193.8 186.8 190.2 180.1 186.7 179.2 154.1 138.3 117.3 128.5 157.0 159.6 141.3 127.0 113.8 112.3 98.0 81.9 101.7 101.0 99.0 95.6 89.6 87.5 74.6 47.4 46.8 55.1 52.6 47.9 57.0 57.1 57.6 58.7 56.0 44.5 56.0 58.8 46.5 60.1 62.0 -9999.0 -9999.0 -9999.0 -9999.0 -9999.0 -9999.0 -9999.0 -9999.0 -9999.0 -9999.0 -9999.0 -9999.0 -9999.0 -9999.0 -9999.0 -9999.0 -9999.0 -9999.0 -9999.0 -9999.0 -9999.0 -9999.0 -9999.0 -9999.0 -9999.0 -9999.0 -9999.0 -9999.0 -9999.0 -9999.0 -9999.0 -9999.0 -9999.0 -9999.0 -9999.0 -9999.0 -9999.0 -9999.0 -9999.0 -9999.0 -9999.0 -9999.0 -9999.0 -9999.0 -9999.0 -9999.0 -9999.0 -9999.0 -9999.0 -9999.0 -9999.0 -9999.0 -9999.0 -9999.0 -9999.0 -9999.0 -9999.0 -9999.0 -9999.0 -9999.0 -9999.0 -9999.0 -9999.0 -9999.0 -9999.0 -9999.0 -9999.0 -9999.0 -9999.0 -9999.0 -9999.0 62.8 66.9 71.2 72.1 80.4 79.4 61.3 53.5 54.9 53.7 59.3 62.4 61.4 53.4 60.2 64.7 71.3 74.3 78.8 83.5 86.2 89.4 89.3 88.1 89.1 90.3 90.2 89.6 92.7 112.5 168.5 156.4 146.2 140.9 136.5 132.4 128.2 124.6 125.1 126.9 131.0 134.6 137.1 139.4 140.7 141.2 143.9 146.7 153.5 157.7 157.8 158.6 159.2 159.7 158.5 160.0 161.3 163.7 169.6 172.0 168.5 161.1 158.2 156.2 157.4 160.9 163.0 158.7 157.6 156.5 156.3 155.2 153.3 150.6 147.1 145.5 145.8 145.1 143.7 143.0 143.4 142.1 140.0 137.8 135.7 133.5 131.4 128.8 127.7 130.0 134.0 134.5 134.8 134.9 133.8 133.6 133.7 133.0 130.1 127.8 126.9 127.3 126.4 124.8 123.7 122.5 120.7 119.3 115.8 114.4 115.3 116.0 111.6 109.4 109.7 111.4 116.8 119.8 119.1 118.5 116.8 114.1 111.0 107.9 107.4 106.3 105.3 104.7 103.0 101.6 100.7 101.2 100.8 98.8 86.5 99.2 98.9 97.9 99.0 100.6 101.0 97.5 90.7 88.0 95.0 93.3 88.1 84.8 88.3 88.5 87.7 87.2 87.4 87.4 87.8 96.2 112.0 115.9 115.1 114.7 113.9 112.4 109.8 106.5 101.5 98.6 102.1 102.9 102.1 99.8 99.7 97.8 96.6 94.9 92.8 90.4 89.2 89.2 89.0 88.4 89.0 91.6 91.7 86.1 82.4 80.6 80.3 80.1 79.4 82.1 80.2 79.9 78.8 80.7 79.8 76.3 75.2 70.5 65.3 57.8 56.8 61.3 -9999.0 -9999.0 -9999.0 -9999.0 -9999.0 -9999.0 -9999.0 -9999.0 -9999.0 -9999.0 -9999.0 -9999.0 -9999.0 -9999.0 -9999.0 -9999.0 -9999.0 -9999.0 -9999.0 -9999.0 -9999.0 -9999.0 -9999.0 -9999.0 -9999.0 -9999.0 -9999.0 -9999.0 -9999.0 -9999.0 -9999.0 -9999.0 -9999.0 -9999.0 -9999.0 -9999.0 -9999.0 -9999.0 -9999.0 -9999.0 -9999.0 -9999.0 -9999.0 -9999.0 -9999.0 -9999.0 -9999.0 -9999.0 -9999.0 -9999.0 -9999.0 -9999.0
80.8 126.5 126.9 126.2 155.9 145.2 100.5 99.8 179.1 216.4 204.6 192.1 185.8 164.9 156.7 157.5 173.2 164.1 151.2 143.1 119.0 108.0 128.9 145.1 134.3 123.8 111.8 99.4 110.4 106.8 101.9 98.9 95.3 92.4 86.2 74.7 63.6 42.8 37.2 37.3 37.3 44.1 52.1 55.8 57.1 57.5 55.6 44.2 45.2 43.3 57.7 -9999.0 -9999.0 -9999.0 -9999.0 -9999.0 -9999.0 -9999.0 -9999.0 -9999.0 -9999.0 -9999.0 -9999.0 -9999.0 -9999.0 -9999.0 -9999.0 -9999.0 -9999.0 -9999.0 -9999.0 -9999.0 -9999.0 -9999.0 -9999.0 -9999.0 -9999.0 -9999.0 -9999.0 -9999.0 -9999.0 -9999.0 -9999.0 -9999.0 -9999.0 -9999.0 -9999.0 -9999.0 -9999.0 -9999.0 -9999.0 -9999.0 -9999.0 -9999.0 -9999.0 -9999.0 -9999.0 -9999.0 -9999.0 -9999.0 -9999.0 -9999.0 -9999.0 -9999.0 -9999.0 -9999.0 -9999.0 -9999.0 -9999.0 -9999.0 -9999.0 -9999.0 -9999.0 -9999.0 -9999.0 -9999.0 -9999.0 -9999.0 63.3 64.1 63.5 63.4 64.0 64.3 69.4 72.6 77.6 82.2 75.9 58.2 52.3 54.0 62.3 71.3 72.2 71.3 70.9 73.7 74.2 76.2 78.6 84.6 88.1 88.4 89.8 91.4 89.7 90.1 90.6 91.0 89.9 94.5 117.1 157.5 179.3 149.2 139.1 134.0 129.9 126.9 125.6 124.4 125.2 127.7 131.9 136.7 140.2 142.5 144.8 142.8 140.2 141.3 150.1 153.3 154.6 155.1 157.5 157.7 157.2 159.6 160.7 161.9 161.4 159.3 157.8 155.6 155.1 154.9 154.5 156.0 156.2 154.2 153.1 153.3 153.2 151.5 150.6 148.3 147.2 146.2 145.7 144.1 143.1 143.1 141.6 140.2 137.4 136.9 135.4 131.7 131.3 130.5 128.3 132.3 135.0 134.6 135.3 134.1 134.4 134.8 135.3 133.0 129.2 127.8 126.0 126.1 126.2 125.7 123.4 121.6 120.3 118.8 116.6 115.8 114.9 114.9 112.3 111.4 112.9 115.9 121.5 123.0 122.0 117.3 114.4 112.5 112.8 113.6 111.8 112.1 111.6 110.3 107.7 107.0 105.1 103.4 100.6 91.2 100.5 99.5 98.0 97.6 99.2 99.4 98.6 94.3 85.0 84.4 81.9 84.0 85.1 84.3 86.8 87.8 87.1 88.0 88.7 90.3 89.1 91.5 95.9 106.9 114.5 115.6 114.8 113.5 110.9 107.7 104.0 105.3 104.4 103.0 101.1 100.8 99.6 98.5 96.8 94.9 92.7 91.0 90.9 90.0 89.4 88.9 89.9 92.7 91.9 84.4 82.5 81.1 81.2 82.9 84.9 84.0 82.8 80.2 81.7 81.9 79.0 77.5 73.6 70.6 65.6 51.6 61.5 62.2 -9999.0 -9999.0 -9999.0 -9999.0 -9999.0 -9999.0 -9999.0 -9999.0 -9999.0 -9999.0 -9999.0 -9999.0 -9999.0 -9999.0 -9999.0 -9999.0 -9999.0 -9999.0 -9999.0 -9999.0 -9999.0 -9999.0 -9999.0 -9999.0 -9999.0 -9999.0 -9999.0 -9999.0 -9999.0 -9999.0 -9999.0 -9999.0 -9999.0 -9999.0 -9999.0 -9999.0 -9999.0 -9999.0 -9999.0 -9999.0 -9999.0 -9999.0 -9999.0 -9999.0 -9999.0 -9999.0 -9999.0 -9999.0 -9999.0 -9999.0 -9999.0
46.9 92.8 108.0 108.3 137.5 124.4 98.7 86.8 137.9 198.4 197.8 172.0 180.8 192.8 177.3 148.7 142.7 177.2 174.8 163.4 150.2 146.6 108.0 108.8 127.5 129.6 123.7 117.9 113.7 108.2 101.5 89.9 94.5 88.6 80.1 72.8 58.6 46.8 60.6 56.1 40.2 40.5 40.1 42.3 46.0 55.3 53.9 54.1 54.4 53.3 -9999.0 -9999.0 -9999.0 -9999.0 -9999.0 -9999.0 -9999.0 -9999.0 -9999.0 -9999.0 -9999.0 -9999.0 -9999.0 -9999.0 -9999.0 -9999.0 -9999.0 -9999.0 -9999.0 -9999.0 -9999.0 -9999.0 -9999.0 -9999.0 -9999.0 -9999.0 -9999.0 -9999.0 -9999.0 -9999.0 -9999.0 -9999.0 -9999.0 -9999.0 -9999.0 -9999.0 -9999.0 -9999.0 -9999.0 -9999.0 -9999.0 -9999.0 -9999.0 -9999.0 -9999.0 -9999.0 -9999.0 -9999.0 -9999.0 -9999.0 -9999.0 -9999.0 -9999.0 -9999.0 -9999.0 -9999.0 -9999.0 -9999.0 -9999.0 -9999.0 -9999.0 -9999.0 -9999.0 -9999.0 -9999.0 -9999.0 -9999.0 64.4 65.4 65.3 65.4 65.7 67.0 68.6 70.6 74.0 80.5 82.4 77.0 73.6 74.1 75.5 77.5 79.1 79.5 78.7 78.5 79.2 79.6 81.4 83.9 87.9 89.6 90.5 91.0 92.1 91.3 90.9 91.7 90.6 90.4 93.9 112.8 152.6 189.4 175.7 142.4 131.9 127.8 122.8 122.7 123.6 124.4 125.7 130.4 136.1 140.1 143.1 147.8 150.4 143.4 141.6 147.2 150.8 151.9 153.3 155.3 157.8 158.1 159.3 159.7 161.7 159.7 157.5 157.3 157.1 156.0 155.4 156.1 154.6 153.1 152.5 151.6 150.9 149.8 149.5 147.6 146.3 146.1 146.2 145.1 143.5 143.1 141.5 141.9 141.1 140.2 139.3 137.2 135.2 134.1 133.4 130.5 130.6 135.5 136.0 137.0 136.0 135.2 135.3 135.6 133.6 128.6 124.8 123.5 124.6 125.0 125.1 124.6 123.9 122.9 122.2 120.6 119.5 117.2 115.2 113.8 113.1 114.0 115.5 119.2 122.6 122.8 120.7 119.5 117.3 116.9 115.7 114.9 114.9 114.1 112.4 109.8 107.9 106.8 103.0 91.2 99.2 103.5 102.6 101.1 99.2 97.8 97.7 97.2 96.5 96.9 96.4 95.2 85.2 79.5 85.0 78.6 85.4 87.2 87.1 88.4 90.1 91.1 92.2 91.0 91.7 101.7 116.0 116.6 115.1 112.8 111.5 109.9 109.1 108.0 105.5 103.6 101.3 100.4 99.5 98.7 98.0 95.2 93.9 94.4 94.1 93.1 90.2 88.8 91.8 94.2 91.6 85.6 84.0 83.6 83.8 83.4 85.6 82.6 80.6 82.1 82.1 82.0 79.5 76.1 75.7 72.6 62.6 50.5 57.6 62.4 58.2 -9999.0 -9999.0 -9999.0 -9999.0 -9999.0 -9999.0 -9999.0 -9999.0 -9999.0 -9999.0 -9999.0 -9999.0 -9999.0 -9999.0 -9999.0 -9999.0 -9999.0 -9999.0 -9999.0 -9999.0 -9999.0 -9999.0 -9999.0 -9999.0 -9999.0 -9999.0 -9999.0 -9999.0 -9999.0 -9999.0 -9999.0 -9999.0 -9999.0 -9999.0 -9999.0 -9999.0 -9999.0 -9999.0 -9999.0 -9999.0 -9999.0 -9999.0 -9999.0 -9999.0 -9999.0 -9999.0 -9999.0 -9999.0 -9999.0
45.9 86.1 85.0 79.6 97.8 106.2 80.9 90.8 143.8 165.7 184.5 145.8 157.2 188.1 175.9 141.1 144.9 177.0 168.2 165.3 151.0 143.3 142.7 111.9 86.5 102.4 115.4 107.6 106.1 95.8 86.3 82.7 79.8 82.6 74.1 64.8 48.4 63.1 59.4 54.9 50.3 51.1 44.5 55.1 44.6 48.2 44.0 51.1 53.9 -9999.0 -9999.0 -9999.0 -9999.0 -9999.0 -9999.0 -9999.0 -9999.0 -9999.0 -9999.0 -9999.0 -9999.0 -9999.0 -9999.0 -9999.0 -9999.0 -9999.0 -9999.0 -9999.0 -9999.0 -9999.0 -9999.0 -9999.0 -9999.0 -9999.0 -9999.0 -9999.0 -9999.0 -9999.0 -9999.0 -9999.0 -9999.0 -9999.0 -9999.0 -9999.0 -9999.0 -9999.0 -9999.0 -9999.0 -9999.0 -9999.0 -9999.0 -9999.0 -9999.0 -9999.0 -9999.0 -9999.0 -9999.0 -9999.0 -9999.0 -9999.0 -9999.0 -9999.0 -9999.0 -9999.0 -9999.0 -9999.0 -9999.0 -9999.0 -9999.0 -9999.0 -9999.0 -9999.0 -9999.0 -9999.0 -9999.0 -9999.0 -9999.0 -9999.0 -9999.0 -9999.0 -9999.0 68.2 70.4 75.1 77.9 77.1 77.0 77.5 77.5 78.5 80.4 83.8 83.5 83.0 82.9 82.2 82.2 82.2 83.1 85.6 87.5 90.6 91.5 92.2 92.4 92.1 92.1 91.0 91.3 90.9 90.7 92.2 101.3 135.1 161.4 181.0 162.6 133.9 126.5 120.5 119.1 124.9 125.1 126.7 129.0 131.2 138.0 142.3 146.9 152.0 150.5 148.6 148.2 150.8 153.2 155.1 156.1 158.1 159.6 160.4 159.3 163.1 164.8 163.7 162.4 159.9 158.4 158.0 157.6 156.3 154.3 154.1 153.8 153.1 151.1 150.0 148.2 146.3 146.5 146.0 145.2 145.1 143.2 140.6 138.8 138.6 138.8 140.1 139.8 138.6 138.0 136.5 132.1 129.0 133.5 135.7 135.4 135.3 135.9 135.5 135.2 133.7 131.5 124.6 123.0 121.5 121.4 122.8 123.6 123.7 125.1 125.4 124.6 121.9 120.1 115.9 115.0 116.9 115.0 118.8 118.4 120.9 121.4 121.3 120.1 119.2 117.8 117.1 115.9 115.4 114.4 113.2 110.7 103.0 92.3 96.8 102.1 104.5 105.3 104.9 103.9 102.2 101.0 98.2 97.7 97.6 97.6 96.6 94.5 87.1 88.3 94.7 93.3 91.6 90.5 89.3 87.6 87.6 89.5 90.1 93.2 91.8 95.3 101.6 108.5 115.0 113.8 113.1 113.0 113.5 112.0 109.2 107.5 105.6 104.5 102.6 100.6 99.3 96.7 95.3 96.3 96.6 97.6 92.7 91.7 92.4 94.5 94.8 90.9 88.7 87.7 87.4 85.5 85.6 86.8 82.9 81.2 81.2 81.8 81.2 79.9 78.9 76.8 73.1 65.4 63.1 63.5 62.9 -9999.0 -9999.0 -9999.0 -9999.0 -9999.0 -9999.0 -9999.0 -9999.0 -9999.0 -9999.0 -9999.0 -9999.0 -9999.0 -9999.0 -9999.0 -9999.0 -9999.0 -9999.0 -9999.0 -9999.0 -9999.0 -9999.0 -9999.0 -9999.0 -9999.0 -9999.0 -9999.0 -9999.0 -9999.0 -9999.0 -9999.0 -9999.0 -9999.0 -9999.0 -9999.0 -9999.0 -9999.0 -9999.0 -9999.0 -9999.0 -9999.0 -9999.0 -9999.0 -9999.0 -9999.0 -9999.0 -9999.0 -9999.0 -9999.0
46.0 71.1 75.3 70.1 69.6 76.3 79.0 93.3 108.3 126.9 130.4 111.8 135.1 147.0 127.2 108.9 153.8 168.3 159.5 154.6 151.9 136.5 126.9 128.7 115.1 80.1 106.2 118.1 112.9 106.3 102.4 97.0 84.0 65.0 58.9 58.2 62.9 62.2 56.5 55.2 47.4 49.7 43.7 54.2 49.4 38.2 47.0 39.8 -9999.0 -9999.0 -9999.0 -9999.0 -9999.0 -9999.0 -9999.0 -9999.0 -9999.0 -9999.0 -9999.0 -9999.0 -9999.0 -9999.0 -9999.0 -9999.0 -9999.0 -9999.0 -9999.0 -9999.0 -9999.0 -9999.0 -9999.0 -9999.0 -9999.0 -9999.0 -9999.0 -9999.0 -9999.0 -9999.0 -9999.0 -9999.0 -9999.0 -9999.0 -9999.0 -9999.0 -9999.0 -9999.0 -9999.0 -9999.0 -9999.0 -9999.0 -9999.0 -9999.0 -9999.0 -9999.0 -9999.0 -9999.0 -9999.0 -9999.0 -9999.0 -9999.0 -9999.0 -9999.0 -9999.0 -9999.0 -9999.0 -9999.0 -9999.0 -9999.0 -9999.0 -9999.0 -9999.0 -9999.0 -9999.0 -9999.0 -9999.0 -9999.0 -9999.0 -9999.0 -9999.0 -9999.0 -9999.0 -9999.0 -9999.0 -9999.0 70.7 74.7 80.1 79.5 78.8 80.4 80.9 83.8 85.1 86.1 85.5 86.6 86.1 86.8 86.9 88.1 89.5 91.5 92.5 94.3 95.6 92.9 92.4 92.7 92.5 91.8 91.2 92.2 94.2 104.4 120.5 151.0 160.0 141.5 130.2 118.4 114.2 118.4 119.6 123.3 129.7 128.6 130.2 139.6 146.9 151.6 154.3 152.3 151.3 153.1 154.8 156.4 160.4 163.2 162.9 161.4 159.9 162.5 169.4 170.2 169.2 168.7 166.6 163.2 160.6 159.5 156.7 155.8 156.1 156.5 154.4 151.9 150.9 149.4 148.7 147.9 146.4 144.8 142.3 140.5 138.2 136.0 135.8 136.3 138.1 138.3 137.3 137.1 133.4 130.1 129.2 132.6 135.4 138.0 136.3 135.5 133.0 132.5 131.4 124.8 123.4 121.6 120.5 120.5 121.4 123.6 125.5 126.0 125.9 122.9 120.8 117.2 115.2 117.2 117.6 121.3 121.3 121.3 122.3 121.6 121.2 119.6 118.4 117.0 115.4 115.1 113.6 111.7 106.8 95.9 105.6 106.4 105.8 106.0 106.6 106.2 105.4 104.9 104.1 103.3 103.0 99.2 98.7 97.2 87.2 80.9 92.9 93.8 95.9 96.0 91.9 91.8 91.1 89.6 87.8 88.3 90.9 93.0 93.5 96.5 97.1 103.0 112.8 113.5 115.3 115.9 115.2 111.6 109.7 108.3 109.1 103.4 103.3 100.0 97.9 96.3 97.9 98.3 99.4 96.4 94.1 95.7 92.7 94.0 93.5 91.7 91.7 92.1 91.4 88.0 85.9 85.5 84.9 81.6 83.8 82.4 81.0 80.4 79.8 76.1 72.7 67.6 64.4 63.4 63.0 61.1 -9999.0 -9999.0 -9999.0 -9999.0 -9999.0 -9999.0 -9999.0 -9999.0 -9999.0 -9999.0 -9999.0 -9999.0 -9999.0 -9999.0 -9999.0 -9999.0 -9999.0 -9999.0 -9999.0 -9999.0 -9999.0 -9999.0 -9999.0 -9999.0 -9999.0 -9999.0 -9999.0 -9999.0 -9999.0 -9999.0 -9999.0 -9999.0 -9999.0 -9999.0 -9999.0 -9999.0 -9999.0 -9999.0 -9999.0 -9999.0 -9999.0 -9999.0 -9999.0 -9999.0 -9999.0 -9999.0 -9999.0
58.4 90.1 92.4 88.5 79.7 84.3 75.7 84.1 68.1 72.1 89.9 91.0 91.8 97.4 97.8 103.6 125.6 130.7 131.4 127.9 140.3 143.3 119.9 110.5 112.7 77.2 94.7 117.0 112.2 108.4 104.0 94.5 84.3 75.6 70.2 68.4 68.7 61.2 55.8 53.5 38.9 36.4 49.3 50.8 48.6 50.0 50.3 50.7 -9999.0 -9999.0 -9999.0 -9999.0 -9999.0 -9999.0 -9999.0 -9999.0 -9999.0 -9999.0 -9999.0 -9999.0 -9999.0 -9999.0 -9999.0 -9999.0 -9999.0 -9999.0 -9999.0 -9999.0 -9999.0 -9999.0 -9999.0 -9999.0 -9999.0 -9999.0 -9999.0 -9999.0 -9999.0 -9999.0 -9999.0 -9999.0 -9999.0 -9999.0 -9999.0 -9999.0 -9999.0 -9999.0 -9999.0 -9999.0 -9999.0 -9999.0 -9999.0 -9999.0 -9999.0 -9999.0 -9999.0 -9999.0 -9999.0 -9999.0 -9999.0 -9999.0 -9999.0 -9999.0 -9999.0 -9999.0 -9999.0 -9999.0 -9999.0 -9999.0 -9999.0 -9999.0 -9999.0 -9999.0 -9999.0 -9999.0 -9999.0 -9999.0 -9999.0 -9999.0 -9999.0 -9999.0 -9999.0 -9999.0 -9999.0 -9999.0 -9999.0 69.8 78.7 80.1 81.0 82.7 83.4 83.7 84.7 85.7 86.7 87.5 88.4 89.3 89.8 90.5 91.1 92.4 93.8 96.2 94.8 93.0 93.4 94.7 95.1 93.5 92.9 93.6 94.1 95.5 99.3 109.4 118.8 118.5 126.9 117.7 107.5 116.3 117.4 121.3 120.2 118.3 119.9 128.3 143.5 147.9 152.8 155.1 151.9 149.1 149.2 152.1 157.7 162.7 164.0 163.1 160.5 159.6 163.4 171.1 174.6 173.4 170.7 166.6 164.3 163.3 163.0 161.2 160.1 158.1 155.0 152.9 152.1 151.3 149.3 148.5 147.3 145.1 141.5 137.3 135.3 133.9 133.2 133.2 134.0 133.6 134.5 133.5 131.5 131.0 132.0 130.3 131.1 137.1 137.9 138.3 137.0 134.9 132.0 125.1 124.1 123.3 120.8 120.2 119.9 120.2 119.8 119.3 119.9 118.5 117.6 116.0 115.3 116.9 118.8 122.8 125.2 123.9 124.3 122.9 122.0 119.7 116.8 115.4 113.4 108.9 102.5 97.4 95.7 105.0 108.5 107.9 107.2 106.8 107.8 107.6 106.9 105.6 105.3 106.8 107.3 103.8 100.1 94.1 85.9 95.2 94.0 93.2 93.5 94.7 92.1 91.3 93.0 94.0 92.8 89.4 87.8 89.7 90.9 94.6 95.8 95.4 100.9 111.4 114.2 114.5 114.9 113.3 111.7 110.5 106.7 105.1 106.0 103.7 102.3 100.4 101.2 100.1 100.0 100.4 98.3 97.4 97.1 94.8 96.1 93.7 92.7 92.7 93.3 91.1 87.1 85.2 85.0 84.8 81.6 85.1 82.7 80.7 81.5 79.1 74.6 71.5 67.9 64.1 64.7 62.9 61.3 -9999.0 -9999.0 -9999.0 -9999.0 -9999.0 -9999.0 -9999.0 -9999.0 -9999.0 -9999.0 -9999.0 -9999.0 -9999.0 -9999.0 -9999.0 -9999.0 -9999.0 -9999.0 -9999.0 -9999.0 -9999.0 -9999.0 -9999.0 -9999.0 -9999.0 -9999.0 -9999.0 -9999.0 -9999.0 -9999.0 -9999.0 -9999.0 -9999.0 -9999.0 -9999.0 -9999.0 -9999.0 -9999.0 -9999.0 -9999.0 -9999.0 -9999.0 -9999.0 -9999.0 -9999.0 -9999.0
94.3 120.5 105.8 97.3 92.4 82.9 69.6 67.8 63.4 62.0 68.1 66.2 67.8 68.2 85.0 87.1 86.4 92.1 94.5 95.4 103.0 116.4 114.9 103.2 90.9 77.2 87.9 98.5 97.4 104.7 91.7 82.8 75.5 69.4 70.4 72.1 65.7 58.6 55.1 43.9 37.0 35.7 45.3 31.6 35.2 36.8 45.5 -9999.0 -9999.0 -9999.0 -9999.0 -9999.0 -9999.0 -9999.0 -9999.0 -9999.0 -9999.0 -9999.0 -9999.0 -9999.0 -9999.0 -9999.0 -9999.0 -9999.0 -9999.0 -9999.0 -9999.0 -9999.0 -9999.0 -9999.0 -9999.0 -9999.0 -9999.0 -9999.0 -9999.0 -9999.0 -9999.0 -9999.0 -9999.0 -9999.0 -9999.0 -9999.0 -9999.0 -9999.0 -9999.0 -9999.0 -9999.0 -9999.0 -9999.0 -9999.0 -9999.0 -9999.0 -9999.0 -9999.0 -9999.0 -9999.0 -9999.0 -9999.0 -9999.0 -9999.0 -9999.0 -9999.0 -9999.0 -9999.0 -9999.0 -9999.0 -9999.0 -9999.0 -9999.0 -9999.0 -9999.0 -9999.0 -9999.0 -9999.0 -9999.0 -9999.0 -9999.0 -9999.0 -9999.0 -9999.0 -9999.0 -9999.0 -9999.0 -9999.0 -9999.0 -9999.0 -9999.0 -9999.0 -9999.0 81.4 83.1 83.1 84.2 84.9 85.4 86.0 88.5 90.7 91.4 92.1 93.1 94.0 95.9 97.0 96.2 95.6 96.3 96.5 97.2 96.2 95.3 95.3 95.7 95.3 96.3 97.3 97.0 97.4 96.8 101.9 93.7 112.3 113.5 116.6 114.3 110.1 110.0 115.6 126.8 141.2 147.0 149.5 149.7 146.4 144.0 144.3 148.4 153.1 157.2 158.3 159.5 159.3 159.3 163.8 167.2 169.0 169.7 169.4 167.7 169.0 166.3 163.0 162.1 160.9 159.5 156.5 154.6 153.3 151.2 149.0 146.1 144.1 140.8 137.7 135.0 133.8 133.5 133.3 133.2 133.1 133.9 136.3 134.4 133.0 131.8 131.3 129.3 134.7 136.3 136.7 139.5 135.1 129.9 125.6 124.5 124.2 122.9 120.7 120.9 120.8 119.2 118.8 117.4 117.5 117.7 116.4 117.0 118.7 123.0 126.2 127.1 126.3 114.4 115.4 112.0 109.1 108.7 106.3 101.9 107.4 109.3 111.0 108.9 96.9 108.2 108.8 108.5 108.5 108.3 107.9 106.9 106.3 106.3 105.5 105.5 105.4 95.3 88.4 96.1 97.3 95.8 94.2 93.2 93.2 92.5 89.9 92.1 93.4 92.8 92.3 89.0 88.0 89.6 91.1 92.4 93.3 94.5 100.1 114.3 114.9 114.4 115.1 113.9 113.7 110.5 112.8 111.7 104.3 102.9 102.0 102.7 103.1 100.4 100.3 101.5 101.2 100.6 100.6 98.3 97.5 94.8 93.8 94.6 91.8 87.9 84.4 84.8 84.6 84.8 84.4 85.7 84.7 82.8 82.4 80.0 74.7 72.6 68.0 65.5 64.3 63.3 62.4 62.2 -9999.0 -9999.0 -9999.0 -9999.0 -9999.0 -9999.0 -9999.0 -9999.0 -9999.0 -9999.0 -9999.0 -9999.0 -9999.0 -9999.0 -9999.0 -9999.0 -9999.0 -9999.0 -9999.0 -9999.0 -9999.0 -9999.0 -9999.0 -9999.0 -9999.0 -9999.0 -9999.0 -9999.0 -9999.0 -9999.0 -9999.0 -9999.0 -9999.0 -9999.0 -9999.0 -9999.0 -9999.0 -9999.0 -9999.0 -9999.0 -9999.0 -9999.0 -9999.0 -9999.0
111.5 150.3 172.3 154.1 126.5 129.8 108.2 89.0 75.2 67.9 72.8 61.8 67.1 58.8 64.3 69.5 61.0 73.3 77.9 64.9 59.9 62.9 68.5 79.9 68.4 71.3 59.6 71.9 71.2 69.0 63.2 61.7 62.2 56.7 55.5 56.8 57.0 56.7 48.0 42.7 53.6 46.2 38.8 45.9 49.3 42.2 -9999.0 -9999.0 -9999.0 -9999.0 -9999.0 -9999.0 -9999.0 -9999.0 -9999.0 -9999.0 -9999.0 -9999.0 -9999.0 -9999.0 -9999.0 -9999.0 -9999.0 -9999.0 -9999.0 -9999.0 -9999.0 -9999.0 -9999.0 -9999.0 -9999.0 -9999.0 -9999.0 -9999.0 -9999.0 -9999.0 -9999.0 -9999.0 -9999.0 -9999.0 -9999.0 -9999.0 -9999.0 -9999.0 -9999.0 -9999.0 -9999.0 -9999.0 -9999.0 -9999.0 -9999.0 -9999.0 -9999.0 -9999.0 -9999.0 -9999.0 -9999.0 -9999.0 -9999.0 -9999.0 -9999.0 -9999.0 -9999.0 -9999.0 -9999.0 -9999.0 -9999.0 -9999.0 -9999.0 -9999.0 -9999.0 -9999.0 -9999.0 -9999.0 -9999.0 -9999.0 -9999.0 -9999.0 -9999.0 -9999.0 -9999.0 -9999.0 -9999.0 -9999.0 -9999.0 -9999.0 -9999.0 -9999.0 -9999.0 71.6 78.2 85.1 85.9 86.5 85.9 86.5 87.7 90.0 90.3 92.1 95.4 98.4 100.6 100.0 100.0 99.8 99.6 97.6 98.8 97.6 96.2 96.3 96.6 97.1 97.5 94.6 85.6 88.4 91.6 89.3 79.7 107.2 110.2 106.8 102.0 100.0 100.4 104.1 112.4 128.2 144.0 145.2 147.0 145.6 142.2 141.2 141.5 146.1 151.5 152.2 152.9 152.9 154.9 158.6 161.1 165.5 165.8 166.8 165.7 164.5 166.9 167.0 162.9 160.7 160.5 160.8 158.4 156.3 153.2 148.6 144.8 142.5 140.3 138.4 138.3 136.0 135.3 134.6 134.7 134.4 135.7 137.7 137.0 135.1 132.4 129.5 128.3 132.6 136.3 136.4 137.0 138.5 134.4 130.2 127.0 123.8 123.8 122.8 122.7 124.0 121.3 119.2 117.9 118.2 118.2 119.4 119.6 123.4 124.5 128.0 128.6 127.3 118.3 127.0 124.3 121.7 119.9 116.4 114.3 115.3 115.4 112.6 110.6 107.2 98.0 107.5 109.1 109.2 108.2 108.3 107.3 106.6 106.2 106.1 106.1 106.7 104.9 105.3 102.2 100.1 98.7 96.1 94.5 92.8 92.5 91.8 91.5 90.7 90.2 90.8 91.2 88.0 88.0 87.9 88.4 89.7 92.0 93.6 100.7 112.9 115.6 115.9 114.9 115.4 113.6 112.5 111.7 107.6 104.3 104.2 103.4 104.2 101.6 101.1 102.4 102.2 101.9 101.9 101.3 101.3 97.8 97.7 95.6 92.5 90.4 87.5 87.2 86.2 85.4 83.8 84.5 86.4 85.9 83.8 83.5 80.0 76.8 72.0 69.2 65.5 64.5 63.4 62.6 62.2 49.5 -9999.0 -9999.0 -9999.0 -9999.0 -9999.0 -9999.0 -9999.0 -9999.0 -9999.0 -9999.0 -9999.0 -9999.0 -9999.0 -9999.0 -9999.0 -9999.0 -9999.0 -9999.0 -9999.0 -9999.0 -9999.0 -9999.0 -9999.0 -9999.0 -9999.0 -9999.0 -9999.0 -9999.0 -9999.0 -9999.0 -9999.0 -9999.0 -9999.0 -9999.0 -9999.0 -9999.0 -9999.0 -9999.0 -9999.0 -9999.0 -9999.0 -9999.0
152.0 238.4 235.9 229.9 206.2 178.4 144.4 114.3 145.8 140.4 95.8 75.3 99.6 85.0 64.3 64.6 70.0 64.0 66.3 66.1 55.9 68.0 57.7 60.0 70.1 67.7 50.1 46.2 44.4 59.3 62.6 63.7 65.3 66.4 64.9 61.1 52.5 41.3 48.6 53.8 53.2 53.6 52.4 52.0 53.3 -9999.0 -9999.0 -9999.0 -9999.0 -9999.0 -9999.0 -9999.0 -9999.0 -9999.0 -9999.0 -9999.0 -9999.0 -9999.0 -9999.0 -9999.0 -9999.0 -9999.0 -9999.0 -9999.0 -9999.0 -9999.0 -9999.0 -9999.0 -9999.0 -9999.0 -9999.0 -9999.0 -9999.0 -9999.0 -9999.0 -9999.0 -9999.0 -9999.0 -9999.0 -9999.0 -9999.0 -9999.0 -9999.0 -9999.0 -9999.0 -9999.0 -9999.0 -9999.0 -9999.0 -9999.0 -9999.0 -9999.0 -9999.0 -9999.0 -9999.0 -9999.0 -9999.0 -9999.0 -9999.0 -9999.0 -9999.0 -9999.0 -9999.0 -9999.0 -9999.0 -9999.0 -9999.0 -9999.0 -9999.0 -9999.0 -9999.0 -9999.0 -9999.0 -9999.0 -9999.0 -9999.0 -9999.0 -9999.0 -9999.0 -9999.0 -9999.0 -9999.0 -9999.0 -9999.0 -9999.0 -9999.0 -9999.0 -9999.0 -9999.0 -9999.0 -9999.0 79.9 84.1 83.2 80.8 83.7 86.4 87.4 88.2 89.3 92.6 100.8 100.5 99.4 100.1 101.5 101.2 95.8 97.6 97.1 96.3 97.0 96.4 96.4 99.0 97.9 97.7 99.1 98.7 96.6 81.1 90.2 95.7 94.2 89.8 88.6 88.9 91.3 100.1 110.3 127.0 137.1 144.8 142.1 142.4 142.2 141.1 142.8 148.7 150.2 150.5 150.9 151.6 152.6 153.5 159.8 163.6 161.6 160.8 161.6 161.5 163.7 164.3 162.1 160.2 157.2 155.7 154.6 153.0 147.5 145.0 142.4 142.3 142.5 143.0 140.1 137.3 136.5 135.8 137.7 139.3 139.6 138.2 136.5 134.0 132.1 128.3 128.2 132.7 130.9 132.0 135.7 135.7 133.5 131.2 127.7 124.3 124.0 124.5 125.5 124.0 122.5 120.8 120.2 120.5 122.6 123.4 123.2 124.9 128.8 130.2 126.1 121.6 127.9 125.6 122.9 121.0 117.5 116.5 114.9 113.7 112.0 110.9 111.2 107.4 106.8 110.4 109.1 108.5 107.5 107.1 106.5 106.2 106.2 106.2 107.1 108.8 109.7 106.2 104.2 102.5 100.4 97.5 96.0 94.8 93.4 92.9 92.1 90.5 90.4 91.0 90.5 88.3 87.8 87.1 86.9 88.1 91.5 93.4 100.8 108.8 114.8 115.2 115.9 116.1 116.4 111.7 110.5 104.9 106.2 104.4 103.3 103.2 103.4 104.9 103.8 103.3 103.0 104.0 102.8 101.6 98.7 97.4 95.7 92.9 90.8 89.2 88.3 89.4 87.1 87.6 86.8 85.7 84.9 87.5 87.1 80.3 76.6 73.4 70.1 67.0 63.5 63.1 64.0 52.9 -9999.0 -9999.0 -9999.0 -9999.0 -9999.0 -9999.0 -9999.0 -9999.0 -9999.0 -9999.0 -9999.0 -9999.0 -9999.0 -9999.0 -9999.0 -9999.0 -9999.0 -9999.0 -9999.0 -9999.0 -9999.0 -9999.0 -9999.0 -9999.0 -9999.0 -9999.0 -9999.0 -9999.0 -9999.0 -9999.0 -9999.0 -9999.0 -9999.0 -9999.0 -9999.0 -9999.0 -9999.0 -9999.0 -9999.0 -9999.0 -9999.0 -9999.0
136.6 244.7 228.8 206.1 183.2 173.8 160.7 181.7 179.1 134.1 84.8 125.0 165.1 116.7 144.1 144.7 132.5 110.6 79.3 74.3 73.2 76.2 71.8 75.2 75.8 73.2 66.0 61.5 54.6 34.3 53.9 60.7 63.0 65.4 66.1 63.2 60.7 52.6 51.3 55.1 53.4 52.5 52.3 53.1 54.7 -9999.0 -9999.0 -9999.0 -9999.0 -9999.0 -9999.0 -9999.0 -9999.0 -9999.0 -9999.0 -9999.0 -9999.0 -9999.0 -9999.0 -9999.0 -9999.0 -9999.0 -9999.0 -9999.0 -9999.0 -9999.0 -9999.0 -9999.0 -9999.0 -9999.0 -9999.0 -9999.0 -9999.0 -9999.0 -9999.0 -9999.0 -9999.0 -9999.0 -9999.0 -9999.0 -9999.0 -9999.0 -9999.0 -9999.0 -9999.0 -9999.0 -9999.0 -9999.0 -9999.0 -9999.0 -9999.0 -9999.0 -9999.0 -9999.0 -9999.0 -9999.0 -9999.0 -9999.0 -9999.0 -9999.0 -9999.0 -9999.0 -9999.0 -9999.0 -9999.0 -9999.0 -9999.0 -9999.0 -9999.0 -9999.0 -9999.0 -9999.0 -9999.0 -9999.0 -9999.0 -9999.0 -9999.0 -9999.0 -9999.0 -9999.0 -9999.0 -9999.0 -9999.0 -9999.0 -9999.0 -9999.0 -9999.0 -9999.0 -9999.0 -9999.0 -9999.0 -9999.0 -9999.0 -9999.0 -9999.0 -9999.0 80.1 87.1 87.7 88.3 88.6 89.4 91.3 93.4 97.9 101.6 94.6 94.2 98.4 96.7 96.6 97.6 97.9 98.2 101.4 101.3 98.3 98.3 99.4 98.1 91.3 80.4 92.3 90.8 90.7 92.5 90.5 90.1 97.6 99.9 104.7 112.4 125.2 132.8 134.2 140.3 141.2 145.7 148.1 147.0 146.2 146.3 149.9 151.6 150.9 150.2 153.1 157.7 157.1 158.8 160.8 159.2 162.5 161.7 157.5 155.2 153.7 152.3 152.1 150.0 146.1 145.1 144.8 144.2 144.0 141.9 139.3 140.2 138.0 139.6 140.5 138.7 136.8 136.0 135.1 132.1 128.8 127.9 128.7 130.8 130.9 133.0 133.4 133.7 132.4 131.3 128.4 126.1 125.1 125.7 123.3 122.9 122.1 122.0 123.6 126.0 127.5 126.0 125.3 126.2 127.9 122.9 128.2 126.5 126.5 123.0 119.5 117.3 117.0 116.5 115.4 113.0 112.1 111.7 111.3 112.1 110.9 109.4 108.9 107.3 106.7 106.6 106.8 107.4 106.8 107.0 108.6 110.1 107.1 105.9 105.1 102.8 100.8 99.0 97.5 93.0 90.7 90.1 88.3 87.3 87.9 87.6 89.1 95.8 96.3 90.3 85.9 88.0 89.3 92.9 98.1 104.0 111.2 112.6 115.0 113.2 110.8 110.0 109.7 108.8 108.2 105.5 103.4 104.9 104.9 104.9 104.4 104.2 104.6 103.3 101.6 99.3 96.9 96.4 95.7 94.5 92.7 90.8 89.9 91.7 91.2 89.1 86.5 85.5 85.0 84.6 82.0 78.2 75.0 71.9 70.8 66.6 63.1 64.3 63.2 -9999.0 -9999.0 -9999.0 -9999.0 -9999.0 -9999.0 -9999.0 -9999.0 -9999.0 -9999.0 -9999.0 -9999.0 -9999.0 -9999.0 -9999.0 -9999.0 -9999.0 -9999.0 -9999.0 -9999.0 -9999.0 -9999.0 -9999.0 -9999.0 -9999.0 -9999.0 -9999.0 -9999.0 -9999.0 -9999.0 -9999.0 -9999.0 -9999.0 -9999.0 -9999.0 -9999.0 -9999.0 -9999.0 -9999.0 -9999.0 -9999.0 -9999.0
95.4 185.7 217.9 200.7 176.9 144.3 175.5 177.1 142.1 99.8 116.9 172.4 157.0 157.8 167.0 152.3 143.5 143.1 137.3 121.1 103.1 97.5 87.6 80.5 79.1 75.7 70.6 66.9 63.7 58.0 35.4 51.5 60.6 63.9 65.9 65.8 62.5 61.2 47.0 46.6 53.3 53.9 54.7 56.8 -9999.0 -9999.0 -9999.0 -9999.0 -9999.0 -9999.0 -9999.0 -9999.0 -9999.0 -9999.0 -9999.0 -9999.0 -9999.0 -9999.0 -9999.0 -9999.0 -9999.0 -9999.0 -9999.0 -9999.0 -9999.0 -9999.0 -9999.0 -9999.0 -9999.0 -9999.0 -9999.0 -9999.0 -9999.0 -9999.0 -9999.0 -9999.0 -9999.0 -9999.0 -9999.0 -9999.0 -9999.0 -9999.0 -9999.0 -9999.0 -9999.0 -9999.0 -9999.0 -9999.0 -9999.0 -9999.0 -9999.0 -9999.0 -9999.0 -9999.0 -9999.0 -9999.0 -9999.0 -9999.0 -9999.0 -9999.0 -9999.0 -9999.0 -9999.0 -9999.0 -9999.0 -9999.0 -9999.0 -9999.0 -9999.0 -9999.0 -9999.0 -9999.0 -9999.0 -9999.0 -9999.0 -9999.0 -9999.0 -9999.0 -9999.0 -9999.0 -9999.0 -9999.0 -9999.0 -9999.0 -9999.0 -9999.0 -9999.0 -9999.0 -9999.0 -9999.0 -9999.0 -9999.0 -9999.0 -9999.0 -9999.0 -9999.0 -9999.0 85.0 87.4 87.7 87.5 88.0 88.4 87.1 87.8 89.0 77.2 87.4 86.6 87.0 91.1 90.3 88.1 89.4 95.2 96.3 94.6 94.7 91.1 87.0 84.8 71.2 83.7 84.6 84.3 83.9 84.3 85.3 90.3 94.0 95.5 97.7 102.2 107.9 116.4 131.4 137.8 144.5 144.7 142.9 144.9 144.2 145.5 147.5 149.0 148.9 150.4 156.0 158.8 157.3 157.4 158.0 159.5 159.5 157.5 155.8 153.2 150.8 149.8 150.5 147.8 147.2 146.3 145.3 144.6 141.8 141.2 142.7 141.8 141.4 142.3 138.8 135.5 134.2 132.8 131.3 129.3 128.1 129.4 129.4 131.1 134.4 133.3 136.0 136.6 135.8 131.6 130.5 129.5 128.0 126.7 126.7 126.1 124.5 126.7 128.4 132.4 132.1 130.6 130.0 130.2 130.7 128.9 115.3 125.8 124.5 120.9 118.5 118.1 117.0 114.7 114.5 113.3 112.5 111.9 111.1 111.0 110.4 108.4 107.8 107.1 107.7 107.6 107.9 106.4 106.4 106.3 107.8 107.8 106.0 104.6 103.4 102.3 100.8 98.3 93.5 91.0 89.6 87.8 86.4 86.2 84.7 85.1 90.4 95.7 94.0 87.3 84.5 86.1 89.5 92.9 97.1 96.2 98.4 104.8 109.3 110.3 110.7 110.7 110.3 110.9 108.1 104.8 103.2 103.2 104.6 102.8 102.6 102.8 104.4 102.1 100.1 97.1 95.9 96.2 96.4 95.0 92.7 92.5 91.2 92.2 92.7 92.5 92.1 90.0 86.6 83.9 81.1 77.9 74.9 71.9 69.6 63.6 64.4 64.5 64.4 -9999.0 -9999.0 -9999.0 -9999.0 -9999.0 -9999.0 -9999.0 -9999.0 -9999.0 -9999.0 -9999.0 -9999.0 -9999.0 -9999.0 -9999.0 -9999.0 -9999.0 -9999.0 -9999.0 -9999.0 -9999.0 -9999.0 -9999.0 -9999.0 -9999.0 -9999.0 -9999.0 -9999.0 -9999.0 -9999.0 -9999.0 -9999.0 -9999.0 -9999.0 -9999.0 -9999.0 -9999.0 -9999.0 -9999.0 -9999.0 -9999.0
124.6 161.2 161.4 172.9 137.1 134.8 125.8 132.4 107.7 124.7 171.1 168.0 162.0 157.3 151.3 150.6 146.8 129.2 126.7 128.4 127.1 123.8 119.3 110.0 116.8 113.2 98.6 82.5 69.0 50.1 47.1 35.3 57.3 61.6 64.1 65.8 63.7 62.4 60.7 51.9 43.7 45.2 57.3 -9999.0 -9999.0 -9999.0 -9999.0 -9999.0 -9999.0 -9999.0 -9999.0 -9999.0 -9999.0 -9999.0 -9999.0 -9999.0 -9999.0 -9999.0 -9999.0 -9999.0 -9999.0 -9999.0 -9999.0 -9999.0 -9999.0 -9999.0 -9999.0 -9999.0 -9999.0 -9999.0 -9999.0 -9999.0 -9999.0 -9999.0 -9999.0 -9999.0 -9999.0 -9999.0 -9999.0 -9999.0 -9999.0 -9999.0 -9999.0 -9999.0 -9999.0 -9999.0 -9999.0 -9999.0 -9999.0 -9999.0 -9999.0 -9999.0 -9999.0 -9999.0 -9999.0 -9999.0 -9999.0 -9999.0 -9999.0 -9999.0 -9999.0 -9999.0 -9999.0 -9999.0 -9999.0 -9999.0 -9999.0 -9999.0 -9999.0 -9999.0 -9999.0 -9999.0 -9999.0 -9999.0 -9999.0 -9999.0 -9999.0 -9999.0 -9999.0 -9999.0 -9999.0 -9999.0 -9999.0 -9999.0 -9999.0 -9999.0 -9999.0 -9999.0 -9999.0 -9999.0 -9999.0 -9999.0 -9999.0 -9999.0 -9999.0 -9999.0 -9999.0 -9999.0 -9999.0 83.8 83.9 86.1 86.0 85.7 85.2 78.9 70.7 79.1 77.0 78.5 78.8 79.3 80.3 79.5 80.5 80.8 79.9 81.0 80.3 79.5 78.9 65.3 76.9 77.4 77.3 77.4 78.2 78.5 85.0 88.0 90.8 93.1 96.1 96.6 98.9 108.6 118.6 121.6 126.2 134.1 137.9 142.2 143.9 143.6 145.4 150.1 155.1 161.1 163.2 160.0 158.0 158.8 160.2 158.1 156.2 155.7 153.9 151.2 147.9 147.8 148.7 147.7 146.3 146.0 145.4 144.3 142.9 144.4 144.2 143.2 141.5 139.0 136.4 133.7 132.9 131.1 130.3 128.4 128.7 127.8 128.9 130.1 129.0 130.8 132.6 136.8 131.7 131.3 136.5 136.9 134.7 131.8 130.6 129.1 130.8 133.9 134.5 136.8 136.9 135.9 134.6 132.5 130.8 124.3 111.7 124.3 122.6 119.9 119.0 117.2 115.9 114.7 113.7 113.6 113.0 111.7 111.1 110.1 107.8 107.1 107.2 108.4 107.2 106.2 106.2 105.8 104.9 106.4 107.0 106.3 105.1 102.8 101.9 100.8 98.0 95.2 93.5 90.9 88.8 87.0 85.3 84.5 84.9 84.8 84.5 85.4 86.9 84.4 84.4 86.9 88.9 92.5 94.1 90.9 94.5 96.6 102.3 108.5 111.0 110.9 111.9 111.8 109.1 106.0 103.2 103.1 103.8 103.9 106.9 108.7 106.2 104.6 100.2 97.9 96.9 96.4 95.6 93.3 93.4 92.1 93.0 93.8 93.5 91.5 93.2 91.9 90.9 86.6 82.2 77.8 74.7 73.0 68.8 67.5 67.3 64.7 69.7 -9999.0 -9999.0 -9999.0 -9999.0 -9999.0 -9999.0 -9999.0 -9999.0 -9999.0 -9999.0 -9999.0 -9999.0 -9999.0 -9999.0 -9999.0 -9999.0 -9999.0 -9999.0 -9999.0 -9999.0 -9999.0 -9999.0 -9999.0 -9999.0 -9999.0 -9999.0 -9999.0 -9999.0 -9999.0 -9999.0 -9999.0 -9999.0 -9999.0 -9999.0 -9999.0 -9999.0 -9999.0 -9999.0 -9999.0 -9999.0
137.7 219.7 178.8 155.3 165.7 173.3 135.1 139.6 152.8 179.9 174.7 174.9 171.8 166.5 159.2 151.9 145.2 136.3 119.6 110.9 109.6 113.1 102.6 111.7 117.3 103.5 94.1 83.1 61.5 70.0 74.3 52.9 45.9 45.8 45.6 60.0 62.5 63.6 60.5 58.9 58.1 57.5 -9999.0 -9999.0 -9999.0 -9999.0 -9999.0 -9999.0 -9999.0 -9999.0 -9999.0 -9999.0 -9999.0 -9999.0 -9999.0 -9999.0 -9999.0 -9999.0 -9999.0 -9999.0 -9999.0 -9999.0 -9999.0 -9999.0 -9999.0 -9999.0 -9999.0 -9999.0 -9999.0 -9999.0 -9999.0 -9999.0 -9999.0 -9999.0 -9999.0 -9999.0 -9999.0 -9999.0 -9999.0 -9999.0 -9999.0 -9999.0 -9999.0 -9999.0 -9999.0 -9999.0 -9999.0 -9999.0 -9999.0 -9999.0 -9999.0 -9999.0 -9999.0 -9999.0 -9999.0 -9999.0 -9999.0 -9999.0 -9999.0 -9999.0 -9999.0 -9999.0 -9999.0 -9999.0 -9999.0 -9999.0 -9999.0 -9999.0 -9999.0 -9999.0 -9999.0 -9999.0 -9999.0 -9999.0 -9999.0 -9999.0 -9999.0 -9999.0 -9999.0 -9999.0 -9999.0 -9999.0 -9999.0 -9999.0 -9999.0 -9999.0 -9999.0 -9999.0 -9999.0 -9999.0 -9999.0 -9999.0 -9999.0 -9999.0 -9999.0 -9999.0 -9999.0 -9999.0 -9999.0 -9999.0 -9999.0 -9999.0 -9999.0 -9999.0 80.2 73.2 73.3 77.5 76.1 74.6 74.9 75.2 75.2 77.0 78.2 79.0 78.2 76.5 76.3 76.1 76.5 63.8 75.0 75.4 74.9 74.3 74.6 74.5 75.1 75.9 78.8 85.9 91.7 91.2 92.3 93.6 95.7 98.9 104.2 112.0 122.9 132.7 141.3 144.4 142.5 146.4 152.6 157.5 164.5 165.3 162.8 162.7 161.9 158.4 156.4 154.8 153.2 152.1 150.0 147.3 147.1 147.8 147.6 149.7 150.7 147.7 145.4 146.1 147.0 148.5 146.9 143.4 142.8 138.6 132.9 130.7 128.6 128.0 126.7 124.5 123.8 124.4 123.3 122.4 130.2 134.6 132.1 129.5 131.2 133.9 136.6 136.9 136.9 135.4 136.4 143.1 143.6 143.9 143.4 139.5 138.5 135.9 133.5 128.7 122.6 114.3 124.1 122.1 120.9 120.7 118.6 117.0 116.4 117.6 116.2 113.8 112.6 110.8 109.1 107.3 107.1 107.7 106.3 105.1 105.8 104.9 104.0 104.6 106.5 105.9 104.2 102.7 101.6 100.4 98.1 96.7 94.8 91.9 89.4 87.5 86.2 85.1 85.0 84.6 84.1 84.5 84.4 85.4 86.9 85.1 86.5 89.6 91.8 87.7 88.7 90.5 92.5 96.5 99.9 107.6 109.9 110.8 110.1 108.0 105.7 104.0 103.3 104.0 108.8 109.8 108.1 107.0 102.9 101.0 98.7 95.4 94.5 94.6 95.1 93.4 94.2 94.3 94.2 93.5 92.4 92.9 95.2 94.0 89.3 83.2 78.3 75.5 74.3 72.0 69.1 67.0 64.3 58.7 -9999.0 -9999.0 -9999.0 -9999.0 -9999.0 -9999.0 -9999.0 -9999.0 -9999.0 -9999.0 -9999.0 -9999.0 -9999.0 -9999.0 -9999.0 -9999.0 -9999.0 -9999.0 -9999.0 -9999.0 -9999.0 -9999.0 -9999.0 -9999.0 -9999.0 -9999.0 -9999.0 -9999.0 -9999.0 -9999.0 -9999.0 -9999.0 -9999.0 -9999.0 -9999.0 -9999.0 -9999.0 -9999.0 -9999.0
129.7 210.6 209.4 204.6 196.5 194.0 185.1 186.3 183.4 179.7 177.8 171.4 161.4 159.3 155.5 147.8 131.4 124.8 121.1 125.0 121.2 90.2 100.9 87.0 85.5 79.1 71.9 63.1 66.5 80.6 70.2 58.7 33.1 44.2 51.6 47.9 57.6 59.1 59.8 60.0 61.8 -9999.0 -9999.0 -9999.0 -9999.0 -9999.0 -9999.0 -9999.0 -9999.0 -9999.0 -9999.0 -9999.0 -9999.0 -9999.0 -9999.0 -9999.0 -9999.0 -9999.0 -9999.0 -9999.0 -9999.0 -9999.0 -9999.0 -9999.0 -9999.0 -9999.0 -9999.0 -9999.0 -9999.0 -9999.0 -9999.0 -9999.0 -9999.0 -9999.0 -9999.0 -9999.0 -9999.0 -9999.0 -9999.0 -9999.0 -9999.0 -9999.0 -9999.0 -9999.0 -9999.0 -9999.0 -9999.0 -9999.0 -9999.0 -9999.0 -9999.0 -9999.0 -9999.0 -9999.0 -9999.0 -9999.0 -9999.0 -9999.0 -9999.0 -9999.0 -9999.0 -9999.0 -9999.0 -9999.0 -9999.0 -9999.0 -9999.0 -9999.0 -9999.0 -9999.0 -9999.0 -9999.0 -9999.0 -9999.0 -9999.0 -9999.0 -9999.0 -9999.0 -9999.0 -9999.0 -9999.0 -9999.0 -9999.0 -9999.0 -9999.0 -9999.0 -9999.0 -9999.0 -9999.0 -9999.0 -9999.0 -9999.0 -9999.0 -9999.0 -9999.0 -9999.0 -9999.0 -9999.0 -9999.0 -9999.0 -9999.0 -9999.0 -9999.0 -9999.0 -9999.0 -9999.0 -9999.0 76.1 77.2 75.0 74.4 74.0 73.0 73.0 75.7 74.6 74.9 75.1 75.2 74.8 75.1 61.4 75.1 75.2 74.4 73.4 73.1 72.3 72.2 72.2 72.8 80.0 84.9 87.8 91.3 90.5 90.6 91.9 94.4 98.6 105.6 115.7 126.1 137.3 140.9 142.7 151.2 157.6 166.8 177.6 178.4 177.7 171.6 163.0 157.8 156.2 155.1 153.8 152.7 149.1 147.4 146.7 146.6 147.4 151.8 153.7 149.4 149.5 150.7 153.1 151.9 147.4 143.1 137.3 131.9 129.2 125.9 125.4 122.8 120.4 119.2 120.7 120.5 120.3 123.9 133.3 129.9 127.6 126.4 124.9 130.6 133.3 132.4 132.4 133.7 139.8 149.0 153.0 151.1 146.7 144.4 142.3 137.0 128.1 124.0 111.5 124.5 123.2 122.7 121.7 119.1 119.3 119.0 120.2 120.2 118.3 115.7 113.9 111.9 109.7 108.7 108.9 106.2 103.9 104.2 104.6 103.2 102.2 105.3 106.7 104.9 103.6 101.6 100.6 100.0 99.1 96.1 91.9 90.1 88.2 86.9 86.4 85.2 84.3 84.1 84.3 85.1 86.7 88.4 85.5 84.4 85.8 88.7 86.3 86.3 85.0 89.0 91.2 94.7 99.1 106.5 108.8 108.7 109.5 109.6 108.7 106.7 107.1 110.1 109.4 107.8 106.1 104.7 101.3 100.7 100.5 93.4 94.4 95.0 95.1 95.9 95.4 94.3 94.2 94.2 93.9 93.5 91.1 90.2 88.8 84.0 80.1 78.1 75.8 74.1 70.8 67.4 65.6 52.5 63.1 -9999.0 -9999.0 -9999.0 -9999.0 -9999.0 -9999.0 -9999.0 -9999.0 -9999.0 -9999.0 -9999.0 -9999.0 -9999.0 -9999.0 -9999.0 -9999.0 -9999.0 -9999.0 -9999.0 -9999.0 -9999.0 -9999.0 -9999.0 -9999.0 -9999.0 -9999.0 -9999.0 -9999.0 -9999.0 -9999.0 -9999.0 -9999.0 -9999.0 -9999.0 -9999.0 -9999.0 -9999.0
135.5 209.1 195.9 203.9 194.7 180.8 169.6 164.1 159.0 150.9 171.6 167.5 157.6 140.3 144.1 142.0 135.6 130.0 120.4 108.7 105.2 113.0 120.4 105.0 93.9 87.3 74.3 74.0 84.4 75.8 65.0 60.4 53.6 41.0 46.0 44.0 40.1 43.4 57.1 59.6 -9999.0 -9999.0 -9999.0 -9999.0 -9999.0 -9999.0 -9999.0 -9999.0 -9999.0 -9999.0 -9999.0 -9999.0 -9999.0 -9999.0 -9999.0 -9999.0 -9999.0 -9999.0 -9999.0 -9999.0 -9999.0 -9999.0 -9999.0 -9999.0 -9999.0 -9999.0 -9999.0 -9999.0 -9999.0 -9999.0 -9999.0 -9999.0 -9999.0 -9999.0 -9999.0 -9999.0 -9999.0 -9999.0 -9999.0 -9999.0 -9999.0 -9999.0 -9999.0 -9999.0 -9999.0 -9999.0 -9999.0 -9999.0 -9999.0 -9999.0 -9999.0 -9999.0 -9999.0 -9999.0 -9999.0 -9999.0 -9999.0 -9999.0 -9999.0 -9999.0 -9999.0 -9999.0 -9999.0 -9999.0 -9999.0 -9999.0 -9999.0 -9999.0 -9999.0 -9999.0 -9999.0 -9999.0 -9999.0 -9999.0 -9999.0 -9999.0 -9999.0 -9999.0 -9999.0 -9999.0 -9999.0 -9999.0 -9999.0 -9999.0 -9999.0 -9999.0 -9999.0 -9999.0 -9999.0 -9999.0 -9999.0 -9999.0 -9999.0 -9999.0 -9999.0 -9999.0 -9999.0 -9999.0 -9999.0 -9999.0 -9999.0 -9999.0 -9999.0 -9999.0 -9999.0 -9999.0 -9999.0 -9999.0 77.0 78.4 76.5 77.5 74.6 73.6 73.7 73.5 71.9 71.8 72.2 72.5 73.9 58.6 74.2 74.7 74.1 74.2 73.3 72.7 72.3 71.8 71.5 73.2 76.0 79.4 87.4 89.7 89.6 90.3 91.3 94.2 101.1 111.1 119.4 126.2 131.7 139.1 150.8 154.6 154.7 157.5 163.4 173.5 174.7 172.9 163.7 158.9 157.6 157.4 155.3 152.8 148.5 147.2 146.0 145.0 147.6 160.3 163.0 163.1 161.1 158.4 158.6 152.7 145.3 136.0 130.8 128.5 128.3 125.2 121.7 120.3 118.2 117.2 119.7 119.4 120.2 127.0 129.3 129.8 125.6 122.4 122.4 124.2 123.7 126.8 127.5 132.0 142.4 150.7 155.1 152.4 145.7 140.4 136.0 128.2 124.4 111.5 118.6 119.0 118.2 116.8 117.8 119.2 119.8 120.2 121.7 119.7 119.5 117.9 115.9 113.3 110.1 110.4 108.3 104.3 102.5 102.7 101.9 101.6 103.0 105.4 105.6 104.1 102.4 101.7 101.1 99.5 96.5 94.4 92.0 90.2 89.1 87.5 85.8 84.5 84.9 85.8 84.9 86.6 89.4 88.7 85.8 84.4 86.1 85.8 83.5 82.0 82.2 87.0 88.3 91.3 98.2 104.7 106.8 109.4 110.3 110.9 111.5 111.8 113.9 110.7 108.8 105.7 104.7 101.7 100.5 99.1 95.0 92.9 93.6 96.2 95.6 96.8 95.8 93.8 93.4 93.9 94.4 93.2 92.3 91.1 90.0 86.7 81.3 78.9 75.6 72.9 69.6 67.6 63.9 49.6 -9999.0 -9999.0 -9999.0 -9999.0 -9999.0 -9999.0 -9999.0 -9999.0 -9999.0 -9999.0 -9999.0 -9999.0 -9999.0 -9999.0 -9999.0 -9999.0 -9999.0 -9999.0 -9999.0 -9999.0 -9999.0 -9999.0 -9999.0 -9999.0 -9999.0 -9999.0 -9999.0 -9999.0 -9999.0 -9999.0 -9999.0 -9999.0 -9999.0 -9999.0 -9999.0 -9999.0 -9999.0
132.5 211.2 187.0 198.7 195.4 189.2 184.1 178.4 149.6 132.9 129.7 130.2 135.7 147.8 138.6 129.2 119.1 120.4 126.6 124.3 122.0 123.3 110.2 94.0 85.5 70.1 78.7 85.0 76.8 66.9 65.4 64.0 61.0 55.4 46.0 48.4 37.3 36.3 50.7 56.7 -9999.0 -9999.0 -9999.0 -9999.0 -9999.0 -9999.0 -9999.0 -9999.0 -9999.0 -9999.0 -9999.0 -9999.0 -9999.0 -9999.0 -9999.0 -9999.0 -9999.0 -9999.0 -9999.0 -9999.0 -9999.0 -9999.0 -9999.0 -9999.0 -9999.0 -9999.0 -9999.0 -9999.0 -9999.0 -9999.0 -9999.0 -9999.0 -9999.0 -9999.0 -9999.0 -9999.0 -9999.0 -9999.0 -9999.0 -9999.0 -9999.0 -9999.0 -9999.0 -9999.0 -9999.0 -9999.0 -9999.0 -9999.0 -9999.0 -9999.0 -9999.0 -9999.0 -9999.0 -9999.0 -9999.0 -9999.0 -9999.0 -9999.0 -9999.0 -9999.0 -9999.0 -9999.0 -9999.0 -9999.0 -9999.0 -9999.0 -9999.0 -9999.0 -9999.0 -9999.0 -9999.0 -9999.0 -9999.0 -9999.0 -9999.0 -9999.0 -9999.0 -9999.0 -9999.0 -9999.0 -9999.0 -9999.0 -9999.0 -9999.0 -9999.0 -9999.0 -9999.0 -9999.0 -9999.0 -9999.0 -9999.0 -9999.0 -9999.0 -9999.0 -9999.0 -9999.0 -9999.0 -9999.0 -9999.0 -9999.0 -9999.0 -9999.0 -9999.0 -9999.0 -9999.0 -9999.0 -9999.0 -9999.0 -9999.0 -9999.0 -9999.0 -9999.0 76.5 74.5 73.3 72.1 71.0 70.2 71.4 69.8 70.0 55.8 72.1 73.1 73.6 73.8 73.4 71.2 67.5 57.2 60.0 59.8 70.9 75.0 79.2 85.6 91.2 90.2 90.0 91.1 95.3 106.2 117.0 122.5 124.7 128.2 136.8 143.3 147.0 147.6 148.7 153.0 158.2 164.7 162.5 162.9 158.1 154.9 155.0 154.7 153.1 152.2 148.6 144.6 143.4 147.1 159.8 163.4 162.5 158.4 157.0 150.6 140.8 134.3 131.3 130.6 127.9 124.4 122.3 121.3 120.3 114.7 115.0 114.3 113.3 115.8 123.7 124.4 121.2 117.4 116.6 114.7 114.9 115.9 116.6 121.2 127.7 137.5 143.6 144.2 141.1 134.3 132.6 127.5 122.6 117.4 116.5 116.2 116.2 116.5 117.4 118.0 118.3 120.9 120.7 120.6 121.1 121.5 119.4 115.0 112.3 112.0 111.0 107.1 102.7 102.7 101.5 101.1 102.1 104.2 105.8 104.9 102.6 102.4 100.4 98.6 97.5 95.4 92.9 91.9 89.2 90.8 89.7 89.2 87.4 85.2 85.7 87.1 88.7 88.4 88.6 86.5 85.1 84.1 81.7 80.5 81.2 83.2 85.1 86.6 89.9 103.1 107.4 107.9 108.8 109.5 112.0 112.9 112.6 110.9 108.9 105.5 103.1 99.5 98.1 97.8 97.1 93.7 93.1 94.8 95.5 96.2 96.6 95.3 94.7 94.6 95.1 94.4 93.4 91.6 90.7 90.8 87.5 82.8 77.9 75.0 73.1 70.6 68.6 63.8 49.5 60.2 61.4 61.8 -9999.0 -9999.0 -9999.0 -9999.0 -9999.0 -9999.0 -9999.0 -9999.0 -9999.0 -9999.0 -9999.0 -9999.0 -9999.0 -9999.0 -9999.0 -9999.0 -9999.0 -9999.0 -9999.0 -9999.0 -9999.0 -9999.0 -9999.0 -9999.0 -9999.0 -9999.0 -9999.0 -9999.0 -9999.0 -9999.0 -9999.0 -9999.0 -9999.0
131.2 208.5 192.0 175.5 174.2 174.2 178.7 154.9 157.1 172.9 165.1 157.9 139.4 109.4 114.4 140.8 135.4 127.1 114.9 106.6 121.4 112.1 101.4 86.0 78.5 85.3 86.2 77.3 54.1 52.9 53.5 55.7 56.7 54.2 47.2 37.6 33.8 29.5 31.6 -9999.0 -9999.0 -9999.0 -9999.0 -9999.0 -9999.0 -9999.0 -9999.0 -9999.0 -9999.0 -9999.0 -9999.0 -9999.0 -9999.0 -9999.0 -9999.0 -9999.0 -9999.0 -9999.0 -9999.0 -9999.0 -9999.0 -9999.0 -9999.0 -9999.0 -9999.0 -9999.0 -9999.0 -9999.0 -9999.0 -9999.0 -9999.0 -9999.0 -9999.0 -9999.0 -9999.0 -9999.0 -9999.0 -9999.0 -9999.0 -9999.0 -9999.0 -9999.0 -9999.0 -9999.0 -9999.0 -9999.0 -9999.0 -9999.0 -9999.0 -9999.0 -9999.0 -9999.0 -9999.0 -9999.0 -9999.0 -9999.0 -9999.0 -9999.0 -9999.0 -9999.0 -9999.0 -9999.0 -9999.0 -9999.0 -9999.0 -9999.0 -9999.0 -9999.0 -9999.0 -9999.0 -9999.0 -9999.0 -9999.0 -9999.0 -9999.0 -9999.0 -9999.0 -9999.0 -9999.0 -9999.0 -9999.0 -9999.0 -9999.0 -9999.0 -9999.0 -9999.0 -9999.0 -9999.0 -9999.0 -9999.0 -9999.0 -9999.0 -9999.0 -9999.0 -9999.0 -9999.0 -9999.0 -9999.0 -9999.0 -9999.0 -9999.0 -9999.0 -9999.0 -9999.0 -9999.0 -9999.0 -9999.0 -9999.0 -9999.0 -9999.0 -9999.0 -9999.0 74.4 75.1 71.6 67.3 67.2 65.7 67.8 70.6 70.1 56.4 69.5 72.1 71.3 71.1 59.3 60.2 65.5 71.0 72.7 69.9 59.0 65.2 74.4 82.2 91.2 89.8 89.1 89.5 90.6 98.3 112.1 118.3 122.5 126.3 132.2 132.2 133.0 134.5 141.7 149.7 154.1 158.6 161.6 160.6 159.4 153.2 150.2 151.6 154.0 151.8 151.8 148.7 145.1 143.6 146.6 151.6 151.7 148.8 144.6 135.4 130.1 128.9 130.3 128.6 128.2 126.5 123.3 117.0 116.9 112.5 109.2 110.8 109.6 110.7 116.0 121.1 120.6 117.9 115.4 111.4 109.7 108.9 108.4 110.1 115.4 123.0 129.6 131.7 132.3 131.3 128.1 124.7 122.0 117.9 115.6 115.4 115.5 116.9 120.8 121.1 118.9 120.9 121.0 121.1 119.6 121.7 120.8 116.8 115.2 112.1 111.6 108.6 108.3 105.7 102.2 102.4 101.9 102.9 104.5 103.8 102.4 100.3 99.3 98.2 95.9 95.3 95.4 93.8 91.4 91.5 91.6 94.1 92.4 88.4 86.7 89.0 90.0 89.2 90.1 89.2 87.3 85.6 83.2 80.5 79.9 81.2 84.0 83.0 87.3 92.0 104.4 107.4 106.3 108.0 107.8 107.4 110.4 111.2 108.7 104.9 100.9 101.4 100.8 98.1 98.3 95.8 94.4 96.5 96.1 95.5 96.1 96.2 94.9 95.6 96.5 96.1 95.7 94.3 92.9 90.2 89.8 88.4 83.7 80.3 75.6 71.2 70.7 69.5 66.2 50.5 50.1 55.6 -9999.0 -9999.0 -9999.0 -9999.0 -9999.0 -9999.0 -9999.0 -9999.0 -9999.0 -9999.0 -9999.0 -9999.0 -9999.0 -9999.0 -9999.0 -9999.0 -9999.0 -9999.0 -9999.0 -9999.0 -9999.0 -9999.0 -9999.0 -9999.0 -9999.0 -9999.0 -9999.0 -9999.0 -9999.0 -9999.0 -9999.0 -9999.0 -9999.0
