ncols   363
nrows   43
xllcorner    10.7858
yllcorner    44.016994
cellsize    0.005011
NODATA_value -9999
-9999.0 779.9 734.8 698.5 642.7 610.2 574.0 527.7 489.5 487.4 494.2 485.9 455.1 492.1 563.3 638.3 700.3 748.7 795.1 842.9 880.6 890.0 843.8 775.7 766.0 783.3 824.9 869.5 922.3 1009.2 1086.0 1060.7 1027.8 948.6 934.9 882.4 799.1 758.1 806.6 828.2 816.1 771.2 728.1 652.6 565.9 489.4 421.9 381.3 386.8 352.8 304.9 298.0 299.0 298.7 283.9 288.5 335.5 397.9 462.1 519.5 563.7 520.5 490.4 486.6 546.0 638.3 691.2 715.5 733.9 758.7 697.3 661.8 590.0 599.5 591.7 586.2 566.8 485.8 373.8 359.0 501.6 601.1 683.9 762.8 734.4 645.2 554.2 534.3 640.0 704.6 789.5 885.4 926.3 966.6 911.1 742.1 598.6 584.7 667.1 732.0 786.8 858.7 903.2 854.3 757.8 745.5 817.5 884.5 928.6 823.6 717.0 643.3 571.0 483.7 482.7 516.7 587.5 606.6 611.0 660.7 732.4 797.6 802.5 818.0 806.6 744.3 653.3 660.2 627.7 557.8 517.3 488.4 437.6 448.0 457.1 498.5 464.4 433.5 435.5 395.8 390.6 399.2 327.2 223.5 249.1 310.3 381.0 429.8 452.0 490.5 560.2 555.2 499.8 397.1 461.9 501.4 473.0 469.2 547.8 614.3 550.0 501.7 508.0 507.0 411.2 352.3 329.9 269.8 221.4 231.6 284.9 302.9 349.9 405.7 398.3 388.5 442.4 448.1 344.6 291.9 257.9 218.7 220.6 218.2 243.6 277.8 349.9 428.9 397.3 403.7 377.2 324.6 316.1 279.7 265.5 263.8 255.8 221.6 168.5 127.8 127.2 118.4 108.1 111.9 159.1 186.5 215.8 221.9 223.5 189.5 176.3 177.9 171.4 144.2 131.3 128.5 113.5 105.5 122.3 145.1 118.3 114.0 189.4 179.8 163.4 156.3 141.7 137.8 132.3 115.9 113.0 112.1 108.7 106.8 103.4 99.4 96.6 95.5 94.1 93.7 92.9 91.5 90.6 88.8 86.4 81.1 72.3 50.6 81.3 86.1 89.5 89.1 86.3 84.5 81.9 77.8 75.3 74.6 71.8 61.2 45.6 67.7 69.3 70.3 71.6 73.5 76.6 77.7 78.5 80.1 79.0 78.4 77.3 76.5 75.3 74.5 73.9 74.1 74.6 73.4 73.0 73.4 73.9 75.0 75.3 72.2 69.6 66.3 55.3 65.8 68.2 70.6 71.2 70.3 69.7 69.0 68.3 66.8 66.1 65.2 64.8 64.4 63.1 62.2 62.1 61.7 61.2 60.5 60.0 57.0 54.4 51.0 49.3 51.3 56.8 62.1 -9999.0 -9999.0 -9999.0 -9999.0 -9999.0 -9999.0 -9999.0 -9999.0 -9999.0 -9999.0 -9999.0 -9999.0 -9999.0 -9999.0 -9999.0 -9999.0 -9999.0 -9999.0 -9999.0 -9999.0 -9999.0 -9999.0 -9999.0 -9999.0 -9999.0 -9999.0 -9999.0 -9999.0 -9999.0 -9999.0 -9999.0 -9999.0 -9999.0 -9999.0 -9999.0 -9999.0 -9999.0 -9999.0 -9999.0 -9999.0 -9999.0 -9999.0 -9999.0 -9999.0 -9999.0 -9999.0 -9999.0
-9999.0 765.1 691.1 648.9 605.0 546.7 504.6 521.4 550.0 575.7 616.1 584.8 509.8 472.1 531.4 608.4 685.4 755.9 825.2 890.1 971.7 948.7 878.9 849.3 855.9 863.6 903.9 951.2 991.6 1033.7 1029.1 970.7 951.3 972.0 910.9 848.8 804.8 834.7 878.8 880.9 825.4 757.8 700.4 656.2 598.4 534.9 462.2 394.9 313.4 313.2 357.8 412.0 417.5 387.1 313.0 323.9 404.6 493.6 569.1 628.3 770.0 632.1 558.5 548.6 589.5 658.1 736.6 733.7 673.9 629.9 590.1 593.7 551.2 559.9 537.8 493.0 464.6 403.9 363.7 361.5 457.1 551.6 647.0 732.0 719.7 645.7 560.6 560.2 680.0 727.1 787.5 839.9 897.6 962.5 942.5 801.5 634.4 601.6 681.6 745.4 810.1 869.7 925.2 881.8 829.3 823.5 867.3 872.4 831.1 747.4 656.5 568.7 490.5 523.1 544.6 579.1 626.6 686.5 691.0 711.2 773.9 835.8 862.4 813.2 734.8 677.9 623.0 561.3 597.3 626.5 580.8 488.0 508.8 573.9 560.5 549.6 499.1 447.7 386.3 383.3 344.1 342.3 284.2 246.3 302.7 375.4 374.4 395.7 464.5 533.2 588.3 505.2 459.1 419.3 481.5 568.5 585.8 558.9 642.4 594.7 498.9 465.7 475.4 481.0 396.3 316.0 253.4 228.1 278.1 382.0 392.5 379.5 382.1 430.2 496.8 480.5 476.9 442.2 383.5 298.0 226.3 257.0 305.0 307.4 310.8 304.8 360.6 431.4 466.0 474.4 474.3 389.0 321.9 289.1 247.8 208.7 187.2 156.0 127.5 116.2 121.5 133.8 154.8 180.8 218.5 243.2 199.8 177.7 158.9 149.1 137.3 115.4 119.9 109.6 107.4 108.6 120.8 171.5 173.2 147.4 122.2 118.3 183.3 198.8 205.3 192.6 160.2 145.9 150.5 126.3 127.0 122.5 116.8 115.0 110.1 103.0 99.6 98.2 97.5 96.8 95.7 95.2 93.2 90.9 88.9 84.9 77.4 55.9 81.3 91.4 91.7 90.0 87.8 84.0 80.2 77.0 74.9 73.3 71.2 47.8 55.8 68.3 70.9 71.5 73.2 75.1 77.9 78.7 81.2 81.3 79.6 78.4 77.2 75.6 75.6 76.5 75.3 75.5 75.6 74.7 74.6 74.9 75.1 76.2 75.7 72.5 69.9 60.0 63.6 68.9 71.2 73.2 72.6 71.6 71.6 70.6 69.3 67.8 67.1 66.5 66.3 65.2 64.2 63.3 62.7 62.5 62.8 61.8 62.7 61.1 57.4 54.7 54.2 55.0 56.7 60.3 62.8 -9999.0 -9999.0 -9999.0 -9999.0 -9999.0 -9999.0 -9999.0 -9999.0 -9999.0 -9999.0 -9999.0 -9999.0 -9999.0 -9999.0 -9999.0 -9999.0 -9999.0 -9999.0 -9999.0 -9999.0 -9999.0 -9999.0 -9999.0 -9999.0 -9999.0 -9999.0 -9999.0 -9999.0 -9999.0 -9999.0 -9999.0 -9999.0 -9999.0 -9999.0 -9999.0 -9999.0 -9999.0 -9999.0 -9999.0 -9999.0 -9999.0 -9999.0 -9999.0 -9999.0 -9999.0 -9999.0
-9999.0 813.9 672.7 599.1 550.3 523.3 570.9 606.3 633.4 663.8 678.5 619.0 546.1 497.8 562.6 611.4 672.4 735.1 807.0 873.8 948.9 977.1 946.0 934.8 940.5 969.2 1001.4 1051.5 1077.5 1018.5 947.9 863.9 850.4 929.9 905.7 852.6 847.3 885.9 888.6 836.1 803.3 729.5 651.2 583.7 546.6 513.6 436.0 357.4 311.5 390.2 464.8 499.9 460.5 378.7 301.4 373.2 467.3 550.5 624.9 753.9 896.3 844.2 661.3 614.0 643.4 696.3 731.4 723.4 696.2 619.6 553.8 498.5 471.7 462.9 474.3 408.6 389.1 413.9 436.9 384.4 402.2 493.2 594.3 698.8 744.3 691.7 596.1 548.6 607.9 642.9 696.7 772.4 855.5 933.3 922.6 850.0 694.6 599.5 629.7 719.8 766.6 818.2 874.2 825.5 842.1 870.6 865.4 785.0 702.5 655.5 591.4 519.8 546.5 610.8 639.9 642.7 669.5 732.2 779.0 804.2 850.8 860.5 802.9 764.3 746.1 689.5 630.1 556.0 520.2 541.4 511.2 511.5 599.7 673.0 714.2 587.4 486.3 432.3 469.0 509.3 448.1 366.9 281.0 226.8 325.5 415.4 482.9 464.9 455.5 521.8 609.0 528.5 460.7 510.9 492.2 513.5 577.6 663.3 662.0 549.6 489.4 431.7 411.6 463.6 385.1 268.3 256.8 318.8 411.9 456.4 477.6 497.9 497.9 497.4 522.7 471.4 391.5 396.7 342.6 253.4 287.2 333.1 356.9 381.9 380.6 400.3 387.3 339.1 402.8 355.0 374.9 329.8 231.8 185.0 170.0 145.5 130.1 128.7 140.1 162.0 193.7 208.7 234.7 217.4 205.8 220.5 174.6 131.9 125.5 123.9 127.3 128.6 117.6 141.4 149.4 172.5 195.3 181.8 152.5 192.6 153.1 111.9 131.5 203.6 212.3 177.0 166.5 144.2 177.3 157.4 145.4 137.0 128.1 126.0 118.5 109.2 102.9 100.9 100.8 100.2 99.3 98.0 95.3 93.1 91.6 88.7 83.9 62.6 85.0 91.6 92.2 90.6 88.6 85.1 81.1 76.7 73.9 72.9 72.2 52.1 60.4 70.4 72.3 73.5 76.2 77.6 79.1 80.8 82.6 81.5 80.1 78.9 77.6 77.4 77.3 77.0 76.9 77.0 76.2 76.3 76.0 76.6 76.3 77.5 76.2 72.7 68.8 56.4 68.5 72.1 74.9 75.3 74.4 73.6 72.8 71.2 70.1 69.1 68.0 67.3 67.1 65.5 64.3 64.2 63.4 63.2 62.6 62.2 62.4 61.4 60.2 58.7 58.5 58.7 59.3 58.8 61.7 63.4 -9999.0 -9999.0 -9999.0 -9999.0 -9999.0 -9999.0 -9999.0 -9999.0 -9999.0 -9999.0 -9999.0 -9999.0 -9999.0 -9999.0 -9999.0 -9999.0 -9999.0 -9999.0 -9999.0 -9999.0 -9999.0 -9999.0 -9999.0 -9999.0 -9999.0 -9999.0 -9999.0 -9999.0 -9999.0 -9999.0 -9999.0 -9999.0 -9999.0 -9999.0 -9999.0 -9999.0 -9999.0 -9999.0 -9999.0 -9999.0 -9999.0 -9999.0 -9999.0 -9999.0 -9999.0
-9999.0 778.4 662.7 549.0 561.2 608.9 653.4 685.3 717.5 733.9 703.9 661.8 595.7 511.0 563.1 632.8 679.6 729.7 794.5 857.5 948.3 1035.3 1033.6 1031.3 1030.9 1066.3 1088.5 1049.1 1026.1 1021.6 945.1 804.8 774.7 799.3 841.6 843.6 826.4 839.6 826.2 747.6 687.1 646.5 611.3 570.1 503.6 442.4 395.2 331.6 337.2 413.3 491.8 515.4 447.5 380.3 309.9 386.4 479.4 552.7 626.6 698.2 809.9 897.3 764.2 691.9 724.6 729.1 656.6 602.8 574.7 535.5 487.4 452.1 435.4 419.3 400.7 434.8 484.9 537.4 536.8 454.9 372.3 456.8 547.0 649.0 737.4 718.8 649.0 566.0 618.4 684.8 728.6 771.6 828.7 906.6 915.9 895.1 805.2 706.4 599.6 663.6 717.3 783.9 806.8 755.4 776.3 797.8 852.0 872.5 796.8 699.4 597.5 550.1 621.7 670.1 720.3 726.0 725.9 750.4 800.8 869.3 894.0 843.6 770.4 705.8 685.9 679.8 629.9 567.4 590.9 590.7 599.5 630.1 683.8 765.5 714.4 546.0 507.2 554.0 563.4 474.4 417.0 384.8 307.6 232.7 297.2 380.9 470.3 447.3 494.3 534.0 571.8 535.0 535.5 556.6 587.8 603.6 618.8 641.1 610.1 613.0 560.8 505.2 416.3 371.1 382.6 273.8 280.2 336.2 383.8 397.2 434.4 490.1 513.4 449.1 435.4 375.3 347.5 282.7 266.1 299.0 405.9 423.9 420.4 409.8 428.7 384.0 318.1 282.6 333.6 298.2 268.0 214.8 151.0 138.0 136.5 134.5 144.8 173.6 181.5 228.5 292.6 297.9 302.2 250.1 203.0 160.5 133.3 128.1 164.0 185.8 174.2 176.0 153.8 180.0 203.7 207.1 176.7 167.3 212.7 222.8 184.5 130.0 143.3 209.5 218.7 200.8 156.3 173.7 210.8 176.0 152.3 159.1 140.8 136.0 123.7 113.1 107.4 104.9 104.5 103.2 101.1 99.6 97.9 96.6 94.2 87.8 75.5 70.7 89.4 92.5 93.4 91.0 88.3 84.6 82.1 78.7 75.6 73.2 70.4 54.5 56.0 74.5 75.4 75.1 77.1 79.2 81.4 81.9 83.3 82.3 80.8 79.9 79.4 78.8 78.3 78.1 77.3 77.8 78.0 77.5 77.4 78.0 78.5 77.9 77.6 73.9 69.2 60.8 70.4 74.2 76.7 75.9 74.7 74.2 73.4 71.5 71.4 69.7 68.5 68.5 67.4 66.4 65.4 64.7 64.2 63.8 63.2 62.9 62.6 61.8 61.2 61.2 60.4 60.2 59.9 59.6 60.1 61.3 61.5 -9999.0 -9999.0 -9999.0 -9999.0 -9999.0 -9999.0 -9999.0 -9999.0 -9999.0 -9999.0 -9999.0 -9999.0 -9999.0 -9999.0 -9999.0 -9999.0 -9999.0 -9999.0 -9999.0 -9999.0 -9999.0 -9999.0 -9999.0 -9999.0 -9999.0 -9999.0 -9999.0 -9999.0 -9999.0 -9999.0 -9999.0 -9999.0 -9999.0 -9999.0 -9999.0 -9999.0 -9999.0 -9999.0 -9999.0 -9999.0 -9999.0 -9999.0 -9999.0 -9999.0
-9999.0 692.8 603.0 622.1 646.3 676.1 720.9 757.4 796.0 797.5 732.4 661.6 604.0 528.7 574.7 661.0 721.1 766.4 829.4 917.1 985.6 1068.2 1125.7 1122.0 1139.2 1097.2 1016.1 942.1 900.7 870.3 800.4 724.2 692.6 721.2 773.2 794.2 767.6 777.0 811.0 735.2 645.9 578.2 527.9 492.4 465.1 413.5 364.1 316.5 352.4 421.4 489.4 506.5 449.2 374.3 320.6 415.4 526.4 616.8 690.0 810.7 914.5 910.6 815.3 778.3 761.3 734.4 666.3 588.3 520.4 485.8 494.7 523.3 524.3 498.2 427.0 486.2 608.1 670.9 656.6 554.8 427.2 411.4 529.7 634.9 724.7 762.6 717.7 635.6 594.3 643.0 680.2 711.2 758.7 820.3 883.2 873.1 788.4 656.6 646.3 687.0 671.6 694.0 706.1 725.4 764.2 779.9 817.4 844.9 749.0 669.1 587.1 597.4 673.0 724.0 772.8 805.2 808.6 816.5 854.0 908.0 900.9 817.6 759.7 714.6 680.2 641.0 633.7 669.0 717.3 748.6 755.9 768.7 798.1 825.2 725.3 581.1 601.6 672.0 580.3 535.7 514.6 444.0 327.5 241.3 337.4 361.6 383.8 413.7 446.1 488.8 584.4 656.1 643.6 616.8 639.5 595.6 589.4 617.7 524.5 573.3 509.1 452.1 421.3 372.7 288.1 272.8 388.1 414.9 383.2 444.9 496.7 508.9 488.5 428.9 375.5 307.6 304.2 343.4 395.5 397.8 468.0 483.8 455.1 354.6 375.0 330.5 342.9 291.9 221.8 233.5 195.8 169.1 149.1 185.9 193.6 186.8 202.8 225.8 203.1 256.3 339.9 307.3 327.9 260.7 206.4 140.9 164.9 188.1 220.8 215.5 220.4 201.3 177.9 216.9 234.0 185.4 211.2 219.6 221.2 205.4 179.3 122.6 175.8 227.2 171.1 169.4 167.0 235.5 229.4 177.3 170.9 167.4 163.7 142.5 126.5 117.1 110.9 108.2 107.1 105.3 103.0 99.3 97.5 85.6 72.9 74.6 69.8 83.0 95.3 93.9 93.7 91.3 88.7 85.0 80.3 78.7 77.2 74.6 64.6 56.6 70.6 76.0 76.0 77.5 80.0 80.2 83.1 83.4 84.2 83.8 82.6 81.2 80.4 79.5 80.1 78.9 79.1 78.8 79.1 79.4 79.8 79.8 78.9 78.8 78.0 74.4 69.8 60.8 72.0 75.0 77.5 76.5 75.3 75.0 73.9 72.5 72.2 70.1 69.5 69.0 67.8 67.8 67.0 66.8 65.8 65.1 63.8 63.6 63.1 62.2 62.4 62.3 61.8 61.3 60.4 60.8 60.1 57.2 56.6 -9999.0 -9999.0 -9999.0 -9999.0 -9999.0 -9999.0 -9999.0 -9999.0 -9999.0 -9999.0 -9999.0 -9999.0 -9999.0 -9999.0 -9999.0 -9999.0 -9999.0 -9999.0 -9999.0 -9999.0 -9999.0 -9999.0 -9999.0 -9999.0 -9999.0 -9999.0 -9999.0 -9999.0 -9999.0 -9999.0 -9999.0 -9999.0 -9999.0 -9999.0 -9999.0 -9999.0 -9999.0 -9999.0 -9999.0 -9999.0 -9999.0 -9999.0 -9999.0 -9999.0
-9999.0 625.2 587.6 728.6 793.5 739.1 815.7 905.7 943.2 931.2 876.8 772.7 768.4 615.9 564.0 639.0 707.0 777.4 833.0 893.8 949.7 1025.0 1081.0 1093.4 1137.6 1080.4 958.0 849.1 771.2 723.6 697.9 655.9 628.7 651.1 678.8 697.6 678.4 720.6 753.7 727.3 662.4 594.6 515.5 453.2 417.4 356.1 331.1 366.7 418.0 464.4 502.4 456.3 394.1 333.0 343.4 420.8 514.5 634.9 709.6 782.3 888.0 1007.2 856.2 774.5 719.6 668.6 625.3 573.2 528.8 559.4 586.4 616.5 614.9 552.1 461.3 473.9 571.3 659.7 704.5 585.4 482.7 402.7 502.4 600.7 720.3 810.5 773.8 670.8 675.0 724.6 708.4 716.6 734.4 809.4 856.1 783.9 704.4 626.9 697.9 774.9 785.5 773.3 744.7 753.8 794.8 840.8 844.7 865.9 824.2 741.7 651.1 621.3 694.8 754.8 812.8 867.4 894.6 913.5 945.3 958.5 923.5 886.1 825.4 783.2 738.5 720.7 773.1 806.1 847.6 887.8 910.9 909.0 922.7 842.7 727.1 648.5 682.4 722.0 597.1 509.1 494.5 479.5 361.8 246.3 378.7 389.8 462.4 537.1 584.6 552.4 611.0 672.4 626.3 569.3 562.7 530.9 580.8 563.3 484.9 536.3 518.3 407.5 323.4 279.8 322.7 400.9 490.6 495.4 451.3 502.5 569.4 489.5 419.8 412.0 319.8 342.9 406.1 466.0 491.1 484.2 415.1 418.0 424.3 361.8 292.1 293.8 251.1 193.4 163.0 159.9 162.2 169.9 195.9 234.6 244.1 208.7 255.2 313.3 253.7 226.1 268.1 331.9 279.4 267.7 212.4 142.5 180.9 261.3 303.9 289.4 255.7 201.2 201.5 233.8 250.9 202.7 251.4 214.3 208.8 203.2 151.8 141.9 237.7 206.6 216.4 236.9 188.6 225.9 195.7 176.5 169.8 220.8 197.2 154.8 133.1 121.0 111.3 110.3 109.2 102.1 92.5 78.4 75.3 76.3 92.6 92.6 72.4 89.5 96.9 96.3 94.9 92.6 88.3 85.2 80.7 78.2 77.1 76.9 60.1 62.8 73.8 76.6 77.1 77.9 79.8 81.4 84.4 84.6 84.8 82.6 81.7 81.4 81.3 80.7 80.2 80.5 80.2 81.2 81.2 82.0 81.4 80.1 79.5 79.5 78.8 74.6 71.2 60.7 70.9 75.5 77.4 77.7 76.5 75.7 74.8 73.8 72.7 71.3 70.4 69.6 68.8 68.5 68.0 67.0 66.1 64.6 64.3 63.7 63.4 63.7 63.9 63.0 62.1 61.1 61.6 61.4 58.0 54.4 51.6 48.7 43.8 -9999.0 -9999.0 -9999.0 -9999.0 -9999.0 -9999.0 -9999.0 -9999.0 -9999.0 -9999.0 -9999.0 -9999.0 -9999.0 -9999.0 -9999.0 -9999.0 -9999.0 -9999.0 -9999.0 -9999.0 -9999.0 -9999.0 -9999.0 -9999.0 -9999.0 -9999.0 -9999.0 -9999.0 -9999.0 -9999.0 -9999.0 -9999.0 -9999.0 -9999.0 -9999.0 -9999.0 -9999.0 -9999.0 -9999.0 -9999.0 -9999.0 -9999.0
-9999.0 730.3 660.1 789.2 979.0 902.3 958.3 1073.9 1123.4 1116.3 1043.4 903.8 853.4 679.0 576.5 641.1 701.5 758.3 810.4 861.4 923.0 968.5 962.6 983.2 1032.6 1021.2 930.9 817.6 738.3 679.4 629.2 584.2 564.6 571.3 582.7 583.3 601.2 639.8 666.8 665.9 624.1 566.1 485.4 404.0 349.6 347.3 400.3 460.5 501.6 547.3 524.2 451.6 384.1 343.8 417.3 467.6 528.6 601.4 636.6 690.4 746.4 827.7 854.7 788.8 726.6 673.6 610.7 585.2 608.0 657.3 688.3 703.6 654.3 568.2 477.3 474.4 575.2 629.1 690.4 604.2 520.2 423.0 466.9 584.1 679.2 747.0 766.9 685.8 772.6 835.9 849.5 861.6 804.8 848.3 892.8 856.6 740.2 670.4 742.9 795.7 873.6 866.2 846.1 850.3 821.2 870.7 918.7 936.5 884.8 781.8 714.2 687.0 726.2 773.2 824.3 870.8 926.7 980.4 965.1 907.6 846.2 812.2 793.1 794.8 770.7 774.4 802.9 824.9 898.7 943.0 966.9 954.8 908.8 884.3 837.1 764.1 771.0 621.9 513.5 499.7 409.2 378.4 314.7 264.1 393.6 439.3 532.6 573.5 633.1 688.2 688.7 618.4 567.5 523.6 506.3 514.5 542.9 517.7 450.4 490.6 494.4 385.5 282.9 338.3 396.4 450.0 526.5 511.0 533.6 598.5 598.2 479.0 404.1 335.5 379.4 454.8 477.2 490.4 477.2 454.7 374.8 362.3 340.3 337.8 254.3 211.7 181.9 179.3 211.6 229.1 237.2 255.0 232.9 331.1 365.1 292.3 263.6 369.7 310.2 264.1 335.5 287.5 221.8 213.6 195.4 147.0 176.9 247.1 344.9 358.7 267.6 240.7 278.9 292.5 250.2 230.6 275.6 246.1 208.6 185.0 149.6 155.3 246.0 219.3 238.8 228.0 245.0 229.9 227.4 242.3 208.0 226.5 208.5 162.9 133.0 115.7 108.5 88.7 88.1 83.2 88.2 98.5 103.1 100.1 100.2 100.0 80.7 82.4 100.8 98.7 96.6 93.4 90.7 85.4 82.0 78.6 76.7 75.3 51.0 61.5 70.3 76.2 78.5 78.8 80.1 81.4 84.1 86.2 85.2 83.4 82.4 81.4 80.9 80.8 80.6 81.2 81.4 82.2 83.7 83.4 83.3 82.4 81.3 81.5 80.5 77.0 73.1 60.7 71.8 75.0 77.5 79.1 78.1 76.9 75.9 75.4 74.0 72.7 71.6 70.7 69.9 69.2 68.2 67.5 66.5 66.1 66.1 65.8 65.1 64.6 64.5 64.1 62.8 62.3 62.3 61.6 56.9 52.6 48.4 43.1 52.8 57.0 -9999.0 -9999.0 -9999.0 -9999.0 -9999.0 -9999.0 -9999.0 -9999.0 -9999.0 -9999.0 -9999.0 -9999.0 -9999.0 -9999.0 -9999.0 -9999.0 -9999.0 -9999.0 -9999.0 -9999.0 -9999.0 -9999.0 -9999.0 -9999.0 -9999.0 -9999.0 -9999.0 -9999.0 -9999.0 -9999.0 -9999.0 -9999.0 -9999.0 -9999.0 -9999.0 -9999.0 -9999.0 -9999.0 -9999.0 -9999.0 -9999.0
-9999.0 763.4 746.0 940.5 1124.6 1085.2 1046.4 1143.4 1212.2 1044.5 931.6 764.1 641.6 618.9 629.5 629.2 676.5 727.2 786.0 849.9 868.7 869.4 869.0 892.0 915.5 879.3 810.6 749.3 715.0 660.1 603.9 556.3 514.3 481.0 498.5 496.7 539.1 571.3 604.9 590.9 546.9 487.0 427.9 352.3 381.1 442.5 495.6 541.3 595.1 610.5 551.9 482.0 418.9 351.3 412.4 454.9 470.3 515.2 567.6 611.0 665.0 734.0 787.9 808.7 787.9 747.5 644.5 639.0 685.0 733.2 762.4 708.7 631.0 555.2 475.4 485.7 546.4 620.4 680.6 641.8 574.2 485.2 425.5 559.3 638.7 691.4 738.3 734.2 813.5 899.4 957.2 961.0 916.7 963.0 984.6 902.7 758.0 724.6 795.2 841.7 892.1 962.1 969.7 967.3 933.5 937.1 1001.4 1017.3 930.0 816.6 754.2 755.8 801.8 814.3 860.4 914.9 958.2 954.5 915.3 865.0 808.4 753.4 712.7 715.3 684.6 694.9 677.3 746.3 775.8 876.1 860.2 880.6 829.9 810.2 861.7 791.6 802.1 714.5 671.7 548.7 464.7 386.6 263.9 329.7 438.2 522.9 541.3 601.0 678.3 700.3 596.2 557.3 522.7 488.6 450.8 447.4 446.9 432.1 408.0 418.8 429.4 390.6 297.8 387.2 455.7 434.2 526.1 581.7 657.0 579.1 558.9 433.3 361.0 424.5 512.0 524.4 531.4 473.0 402.1 430.2 384.2 320.5 318.4 259.1 185.1 192.0 230.9 273.2 322.7 331.3 350.1 325.3 228.3 323.3 395.0 385.7 283.2 344.0 381.7 354.0 302.1 270.0 312.2 273.1 224.5 172.8 156.6 187.3 273.1 291.8 263.5 324.2 370.0 367.8 320.3 301.8 285.7 245.3 226.5 199.2 155.4 160.9 241.0 239.6 212.3 183.6 197.6 224.5 225.4 270.0 246.7 217.9 177.1 139.9 119.4 98.1 90.8 92.4 94.0 108.1 120.4 115.1 111.3 107.2 106.9 101.3 76.7 77.3 99.0 100.6 98.8 95.4 93.0 88.8 83.5 80.0 76.5 74.4 59.4 51.4 50.6 67.7 77.7 78.4 79.2 82.8 85.6 88.1 86.0 84.1 82.7 82.1 81.9 81.3 81.9 82.5 82.9 83.1 84.2 84.0 84.0 82.9 82.5 82.6 83.2 79.7 75.7 68.0 67.9 75.6 77.8 79.8 79.2 78.4 76.7 75.7 74.5 73.9 72.3 71.1 69.8 69.4 69.3 68.4 67.4 67.5 67.1 66.6 66.0 65.7 65.0 63.8 63.2 62.6 62.0 60.5 55.8 52.4 42.5 50.1 54.3 59.1 62.6 -9999.0 -9999.0 -9999.0 -9999.0 -9999.0 -9999.0 -9999.0 -9999.0 -9999.0 -9999.0 -9999.0 -9999.0 -9999.0 -9999.0 -9999.0 -9999.0 -9999.0 -9999.0 -9999.0 -9999.0 -9999.0 -9999.0 -9999.0 -9999.0 -9999.0 -9999.0 -9999.0 -9999.0 -9999.0 -9999.0 -9999.0 -9999.0 -9999.0 -9999.0 -9999.0 -9999.0 -9999.0 -9999.0 -9999.0 -9999.0
-9999.0 772.6 783.4 975.9 1173.7 1244.2 1210.9 1263.9 1246.9 967.2 736.9 646.7 698.2 723.4 725.3 699.2 708.8 758.8 807.7 828.3 778.8 788.0 782.7 797.7 829.1 796.8 753.9 708.3 657.6 613.3 559.1 514.5 476.3 431.0 423.1 437.4 464.8 494.6 525.3 511.6 459.8 409.3 357.2 374.2 447.4 538.0 603.5 648.8 685.1 682.7 615.0 542.1 472.2 381.1 369.9 418.5 477.0 533.8 588.7 630.9 668.6 709.3 762.3 821.4 799.5 732.8 690.7 709.5 762.5 795.2 744.6 675.5 615.9 558.1 508.5 492.2 556.7 638.2 717.3 707.5 643.0 546.7 437.8 503.7 605.8 674.8 728.4 766.9 806.8 889.4 967.0 1023.0 1024.1 1071.2 1001.5 909.0 795.3 737.4 825.3 893.4 963.9 1024.5 1084.1 1122.7 1053.0 1033.5 1085.1 1087.9 971.9 861.8 799.6 818.4 874.4 900.2 903.7 929.7 898.1 870.3 848.6 842.8 789.9 732.2 686.8 648.8 617.9 588.4 604.5 636.4 702.1 746.9 806.0 778.0 729.3 738.7 745.2 708.1 794.4 758.1 629.6 516.8 415.2 317.0 262.2 378.5 486.8 580.6 672.5 704.5 678.6 670.1 597.4 522.1 499.0 522.7 560.9 514.6 486.7 460.5 464.5 457.3 403.9 318.4 324.2 408.4 521.0 479.5 540.8 616.0 652.7 579.0 496.1 409.4 402.2 471.1 553.2 503.0 443.9 457.2 365.1 384.8 353.5 283.0 220.8 191.5 220.4 278.7 340.1 344.9 400.7 424.7 354.5 268.2 268.5 310.3 378.0 420.9 339.6 400.5 445.8 341.6 339.8 322.8 262.2 244.7 253.2 220.0 171.4 179.4 273.5 278.0 319.3 369.2 453.7 449.0 410.9 361.9 312.5 280.9 230.8 219.8 193.6 165.4 235.2 216.1 192.0 177.2 164.0 163.2 180.9 197.7 227.5 194.6 140.3 121.6 100.4 99.2 114.8 122.1 139.5 145.6 143.7 137.4 131.1 117.5 114.2 108.1 89.2 80.3 98.4 103.8 100.0 97.4 94.7 91.2 86.8 82.7 78.6 77.3 77.5 74.0 52.9 64.9 78.0 79.4 80.6 83.8 88.8 89.6 87.8 85.9 84.8 83.1 82.7 82.4 82.3 82.9 83.5 84.3 85.0 86.1 84.8 84.2 83.1 84.0 84.5 81.2 77.3 72.7 64.5 75.7 78.0 81.0 80.3 79.5 77.9 76.6 75.1 74.1 72.9 72.2 71.5 70.6 70.6 68.9 68.6 68.6 68.2 67.6 67.1 66.4 65.4 64.6 64.0 62.1 60.1 59.0 55.3 46.8 47.9 52.5 55.4 59.3 62.6 62.7 -9999.0 -9999.0 -9999.0 -9999.0 -9999.0 -9999.0 -9999.0 -9999.0 -9999.0 -9999.0 -9999.0 -9999.0 -9999.0 -9999.0 -9999.0 -9999.0 -9999.0 -9999.0 -9999.0 -9999.0 -9999.0 -9999.0 -9999.0 -9999.0 -9999.0 -9999.0 -9999.0 -9999.0 -9999.0 -9999.0 -9999.0 -9999.0 -9999.0 -9999.0 -9999.0 -9999.0 -9999.0 -9999.0 -9999.0
-9999.0 869.8 778.7 885.9 1010.2 1194.7 1353.9 1358.4 1166.8 937.5 737.0 720.3 748.5 805.0 814.7 775.1 780.8 817.6 792.2 744.2 694.8 698.5 708.9 706.3 719.0 728.1 720.2 668.6 621.7 577.5 535.2 482.7 418.5 430.4 428.8 408.6 389.1 386.0 407.8 397.7 365.1 373.1 402.5 474.8 500.7 601.5 708.8 766.9 746.4 686.4 617.3 539.6 473.8 404.1 376.2 439.0 518.6 595.6 654.2 705.3 758.8 776.7 818.3 864.6 841.8 790.3 767.8 783.5 825.9 819.4 748.6 696.3 641.7 571.4 511.8 514.8 584.1 657.7 729.5 735.3 643.8 578.1 493.9 475.4 589.1 638.7 711.2 802.0 861.3 891.2 949.7 1034.6 1096.6 1131.6 1038.6 951.2 857.7 742.8 796.3 861.6 940.2 1036.2 1144.0 1210.3 1202.8 1145.5 1182.7 1142.5 1027.2 912.5 855.7 894.3 949.2 1007.7 988.8 897.9 837.7 785.6 753.2 771.9 752.7 696.7 648.2 658.3 663.9 603.5 538.1 577.7 605.0 618.5 675.9 675.0 640.3 634.6 634.5 609.5 633.2 555.1 494.8 389.9 365.0 272.8 332.2 425.4 509.1 610.4 705.3 688.9 601.1 599.7 545.6 571.9 644.6 712.2 689.9 632.9 646.9 605.6 581.4 483.4 376.0 335.6 451.5 459.1 557.1 536.0 620.8 639.7 555.2 510.4 438.2 400.5 512.3 560.5 495.7 421.5 385.7 413.6 387.4 316.4 313.1 230.2 207.7 257.0 335.7 419.2 367.6 405.0 471.0 411.4 328.5 300.1 375.3 327.8 339.5 409.6 423.1 429.4 413.6 422.0 376.7 293.9 319.3 355.4 326.7 228.7 171.2 181.8 282.5 292.3 328.8 393.0 434.4 502.4 483.8 438.4 408.4 346.4 310.4 272.7 204.7 186.2 218.5 256.5 227.3 210.7 188.6 164.4 167.1 150.6 159.8 147.8 125.9 108.5 95.5 117.7 134.0 155.0 180.3 174.1 165.0 145.6 132.2 125.5 121.2 116.7 101.1 84.1 100.5 104.4 101.6 99.0 97.0 93.1 89.6 85.7 82.3 80.4 76.9 64.9 57.0 76.2 79.3 79.4 81.8 85.3 88.6 89.4 90.3 87.7 85.5 84.8 82.9 83.2 83.6 84.4 84.5 85.6 86.5 87.5 86.8 86.2 84.2 84.0 85.7 82.8 79.3 75.2 69.4 75.0 78.5 80.8 80.8 80.6 78.4 76.8 76.4 74.7 73.5 73.5 73.4 72.9 71.8 70.8 70.7 70.0 69.4 68.8 68.4 66.9 66.6 64.6 62.1 59.9 57.8 56.1 51.9 46.5 53.2 55.3 58.3 60.7 60.9 61.6 62.3 -9999.0 -9999.0 -9999.0 -9999.0 -9999.0 -9999.0 -9999.0 -9999.0 -9999.0 -9999.0 -9999.0 -9999.0 -9999.0 -9999.0 -9999.0 -9999.0 -9999.0 -9999.0 -9999.0 -9999.0 -9999.0 -9999.0 -9999.0 -9999.0 -9999.0 -9999.0 -9999.0 -9999.0 -9999.0 -9999.0 -9999.0 -9999.0 -9999.0 -9999.0 -9999.0 -9999.0 -9999.0 -9999.0
-9999.0 1007.6 834.3 939.0 1176.5 1282.0 1375.3 1200.3 1045.0 940.7 750.3 819.8 848.7 871.6 886.5 854.2 837.9 801.6 741.5 679.0 627.3 633.8 631.1 632.5 634.7 637.8 643.3 587.7 548.4 508.5 480.5 439.6 459.6 512.0 522.7 492.2 455.3 408.4 360.9 388.7 424.3 450.0 499.9 603.1 639.6 646.3 715.0 785.3 746.5 690.3 621.3 558.2 487.0 406.5 379.8 452.0 523.9 580.6 639.8 705.1 773.1 846.8 909.2 913.3 880.4 862.4 858.8 852.7 883.2 841.4 771.8 697.2 629.5 567.6 512.0 516.5 573.1 630.2 700.9 719.0 642.1 570.5 516.3 467.2 570.2 627.9 699.3 776.7 862.0 936.4 1005.3 1079.6 1154.7 1174.1 1083.8 971.9 871.2 764.5 806.9 898.3 947.4 993.6 1071.6 1155.6 1238.1 1273.8 1214.9 1114.0 1040.8 980.3 939.0 976.0 1077.6 1110.4 968.7 888.1 827.2 767.5 681.9 644.4 627.6 614.1 570.1 554.9 593.3 573.6 528.5 585.4 616.4 663.2 689.3 673.9 663.1 659.9 614.3 572.3 510.0 462.1 353.1 300.0 309.4 347.5 409.4 494.2 608.2 717.1 688.3 619.2 615.8 587.8 644.3 728.2 758.9 700.0 603.0 581.3 586.6 586.4 565.5 439.6 332.7 385.8 483.2 559.8 593.2 630.8 700.8 616.4 550.4 459.0 430.6 494.7 575.0 529.4 439.0 424.9 408.4 372.6 334.9 373.1 250.9 215.9 309.3 346.5 341.1 407.9 475.9 441.0 426.7 345.0 311.0 341.6 384.7 402.7 365.5 376.0 450.2 472.1 461.4 486.5 425.9 408.2 435.7 394.3 306.8 215.7 174.7 203.6 275.0 328.3 303.0 364.3 401.2 408.6 475.6 485.0 445.6 399.7 340.3 262.3 211.9 251.0 267.7 268.1 235.3 214.6 206.8 228.4 219.7 172.9 153.1 131.6 114.3 101.0 103.0 138.0 185.8 204.6 206.9 186.9 160.8 150.5 139.4 129.8 114.7 96.8 87.2 99.6 107.3 105.4 103.5 101.0 98.6 95.4 92.1 87.9 86.6 84.5 76.8 55.5 62.9 77.7 81.9 82.4 84.3 87.5 88.8 89.2 90.2 88.2 87.1 87.1 84.5 85.4 87.3 86.3 86.0 87.1 87.3 88.5 89.0 88.4 86.9 85.6 86.3 85.3 82.0 78.3 71.2 75.1 78.8 80.8 82.3 81.7 79.7 78.0 76.6 76.1 74.8 74.3 74.8 74.4 73.4 72.4 71.3 70.3 70.3 69.3 68.5 67.6 65.5 62.8 59.7 57.6 55.9 49.4 48.1 54.5 56.4 59.0 61.2 61.8 61.3 61.3 61.9 61.2 -9999.0 -9999.0 -9999.0 -9999.0 -9999.0 -9999.0 -9999.0 -9999.0 -9999.0 -9999.0 -9999.0 -9999.0 -9999.0 -9999.0 -9999.0 -9999.0 -9999.0 -9999.0 -9999.0 -9999.0 -9999.0 -9999.0 -9999.0 -9999.0 -9999.0 -9999.0 -9999.0 -9999.0 -9999.0 -9999.0 -9999.0 -9999.0 -9999.0 -9999.0 -9999.0 -9999.0 -9999.0
-9999.0 954.6 854.7 1021.6 1272.3 1390.4 1375.4 1176.8 973.1 818.5 872.6 943.2 956.7 960.2 975.3 937.9 873.6 827.6 796.5 751.4 665.9 588.4 560.0 559.8 551.3 542.3 520.2 481.9 471.1 483.8 491.0 503.2 543.0 588.0 581.2 552.5 486.4 417.7 368.1 423.1 482.8 526.3 570.8 676.4 776.6 796.8 822.6 798.9 734.4 692.4 638.9 561.7 460.1 388.9 407.3 472.1 508.4 571.1 656.2 738.8 803.9 808.0 817.8 841.2 876.1 912.7 933.6 933.1 913.4 847.5 779.5 715.0 652.8 580.5 517.7 541.2 590.8 646.5 709.0 693.0 637.6 571.5 496.0 480.1 549.9 588.0 640.6 697.1 760.5 840.8 908.4 1004.0 1105.5 1149.3 1103.5 1016.3 913.2 837.7 800.0 897.0 1015.3 1091.4 1165.6 1217.9 1251.1 1292.7 1202.1 1072.8 1030.0 1012.2 1010.4 1068.4 1122.2 1036.7 961.0 890.6 801.5 732.2 671.6 619.8 576.0 538.7 513.8 515.6 521.6 504.6 528.1 579.3 606.0 635.6 677.9 726.9 738.1 700.3 597.6 552.1 562.3 417.7 329.1 358.5 403.4 454.7 459.8 532.0 677.9 743.7 667.9 709.8 694.9 651.3 727.2 736.6 684.5 604.3 533.7 492.0 474.0 450.6 431.7 380.6 340.9 444.0 502.2 549.0 639.6 729.9 655.6 581.5 481.3 454.0 525.2 589.4 603.3 490.0 525.7 561.8 516.6 463.5 356.2 279.7 223.0 268.9 353.3 417.8 420.7 455.8 478.3 377.8 359.0 376.1 408.2 392.2 376.6 406.0 463.8 455.5 487.0 416.1 417.6 430.9 399.1 379.9 353.0 299.2 214.4 186.1 186.8 283.9 297.5 370.7 333.7 313.9 367.5 421.9 411.0 372.1 350.2 320.8 293.4 221.4 257.5 333.2 353.6 314.1 294.3 270.0 268.0 289.7 268.8 224.1 167.5 124.9 113.3 122.4 157.2 210.9 241.1 236.0 209.4 187.7 171.8 158.9 144.8 116.9 88.5 97.0 107.8 113.1 110.3 108.1 106.2 103.2 99.6 98.9 96.8 91.9 88.8 86.5 81.4 56.4 58.5 81.5 85.1 85.8 87.6 89.8 90.8 91.2 91.1 88.8 87.7 86.8 87.7 87.9 88.6 87.5 87.3 88.1 88.3 89.7 89.5 89.4 89.0 88.3 87.9 87.8 84.5 80.3 74.3 73.8 79.6 81.7 83.7 83.3 81.0 79.4 78.4 77.3 77.4 76.4 76.6 75.9 74.9 73.6 73.0 72.6 71.6 69.5 67.0 64.8 62.9 60.5 57.9 53.4 47.9 53.0 56.0 57.2 58.9 61.6 62.6 63.0 62.9 61.1 58.6 56.3 54.9 -9999.0 -9999.0 -9999.0 -9999.0 -9999.0 -9999.0 -9999.0 -9999.0 -9999.0 -9999.0 -9999.0 -9999.0 -9999.0 -9999.0 -9999.0 -9999.0 -9999.0 -9999.0 -9999.0 -9999.0 -9999.0 -9999.0 -9999.0 -9999.0 -9999.0 -9999.0 -9999.0 -9999.0 -9999.0 -9999.0 -9999.0 -9999.0 -9999.0 -9999.0 -9999.0 -9999.0
-9999.0 928.8 933.6 1085.9 1296.6 1391.6 1387.4 1152.3 894.2 947.5 1063.4 1141.7 1082.3 1062.7 1064.7 1089.0 989.5 893.3 825.6 750.7 683.2 633.9 586.1 517.1 505.8 518.3 530.2 551.0 575.4 586.2 594.9 607.6 616.2 592.5 549.5 499.7 451.6 387.5 391.2 467.4 536.8 593.9 646.6 750.4 831.1 886.9 843.7 761.6 695.8 636.7 590.9 529.6 410.1 417.0 426.5 442.7 462.8 502.2 564.8 649.5 714.2 718.5 746.5 801.7 858.5 921.9 970.6 968.4 928.8 916.8 864.4 727.0 658.7 585.4 528.8 580.5 657.4 711.4 724.3 659.9 599.3 529.5 471.6 541.8 620.0 675.0 705.2 733.2 788.9 820.7 866.2 946.7 1019.1 1087.2 1102.8 1024.7 985.1 948.6 870.2 862.4 984.3 1082.6 1189.2 1266.6 1202.3 1167.5 1114.3 1006.0 963.8 938.9 972.2 1014.6 944.1 924.3 952.0 910.1 834.1 788.3 737.5 695.9 637.5 589.6 592.6 605.1 550.9 498.3 603.3 649.1 685.4 712.2 751.6 791.6 710.9 562.3 522.3 432.1 357.5 326.7 370.6 508.4 518.8 455.7 500.5 602.7 694.6 764.7 732.1 806.2 732.5 758.5 802.8 743.5 654.8 659.9 669.3 598.3 590.8 565.5 480.2 365.7 374.6 495.8 581.8 574.6 617.3 627.4 586.5 498.3 476.8 533.5 612.2 689.4 637.6 537.4 612.3 576.0 440.9 364.7 262.4 231.8 272.0 402.5 485.5 489.1 546.3 510.5 403.3 397.3 421.9 439.4 424.4 488.4 437.5 475.8 471.7 443.6 435.3 349.0 360.3 422.4 384.9 291.6 218.0 199.1 201.0 226.8 250.9 268.9 342.6 398.6 368.8 322.5 363.2 438.1 405.4 310.6 314.2 257.3 228.8 243.3 287.3 362.0 387.4 350.9 313.9 300.5 298.2 261.6 208.5 164.7 132.5 109.8 147.7 180.5 217.7 255.4 247.0 218.9 210.3 180.9 164.7 152.7 117.9 94.7 100.4 119.7 134.1 146.9 133.9 125.1 116.5 110.5 108.7 112.9 108.2 101.2 92.6 89.6 75.1 57.0 59.0 83.3 87.4 87.4 92.4 94.3 98.7 99.4 93.1 91.0 88.2 94.7 93.5 89.4 89.4 89.4 92.7 89.8 90.6 90.4 91.1 91.5 90.8 90.4 90.1 90.4 86.3 82.7 77.6 74.1 81.5 83.2 86.0 85.1 82.6 80.8 80.4 80.0 79.5 78.9 78.0 77.2 76.0 74.5 73.5 71.6 69.9 67.4 64.5 62.6 59.8 56.8 49.3 53.5 57.4 58.0 59.7 61.6 63.2 64.0 64.2 64.3 62.9 59.8 56.2 53.4 51.8 50.5 51.6 -9999.0 -9999.0 -9999.0 -9999.0 -9999.0 -9999.0 -9999.0 -9999.0 -9999.0 -9999.0 -9999.0 -9999.0 -9999.0 -9999.0 -9999.0 -9999.0 -9999.0 -9999.0 -9999.0 -9999.0 -9999.0 -9999.0 -9999.0 -9999.0 -9999.0 -9999.0 -9999.0 -9999.0 -9999.0 -9999.0 -9999.0 -9999.0 -9999.0 -9999.0
-9999.0 997.1 1009.3 1174.1 1328.8 1406.2 1331.0 1129.5 948.4 989.5 1130.2 1248.4 1256.8 1186.3 1203.1 1229.6 1134.0 996.2 903.1 868.1 788.4 701.5 601.0 528.4 593.1 638.4 623.8 650.1 683.2 677.4 673.3 688.4 667.1 611.8 556.0 494.9 445.2 377.1 422.3 486.1 540.3 595.4 663.0 756.6 844.1 847.2 791.0 735.2 662.4 602.9 551.3 480.1 413.6 427.6 495.5 519.3 530.6 521.0 539.2 581.0 638.6 690.2 747.4 807.7 876.8 942.3 910.5 886.4 848.5 820.4 811.1 716.0 639.3 554.7 555.1 618.9 689.8 758.2 752.7 682.4 597.2 498.0 504.9 575.9 646.9 720.4 791.2 839.5 872.9 910.3 930.2 933.6 998.5 1075.0 1140.5 1122.3 1108.2 1043.4 946.3 878.0 977.0 1064.7 1131.5 1183.7 1141.3 1067.3 1007.7 965.2 918.3 883.5 843.8 826.9 827.7 853.7 881.1 919.3 902.1 854.4 831.5 812.1 711.2 673.6 719.8 751.3 623.6 487.5 576.9 687.0 671.1 756.4 725.1 703.4 624.5 496.5 383.3 331.6 356.5 392.1 431.3 521.4 656.5 631.0 504.8 549.8 599.0 712.3 806.7 842.4 794.1 735.0 733.1 684.9 660.0 611.5 562.8 519.9 488.4 472.2 438.7 374.8 375.5 489.0 606.1 709.6 675.4 607.0 519.9 518.5 575.7 614.6 658.0 726.3 627.0 644.3 606.9 539.7 538.5 440.8 309.5 252.6 377.9 450.2 552.3 602.1 548.2 472.7 432.0 495.3 489.4 469.8 467.9 540.3 542.1 465.0 404.2 344.0 360.6 383.4 292.5 287.0 260.6 215.2 227.3 247.3 298.5 362.4 389.2 291.1 354.9 384.6 378.6 400.3 430.8 457.0 399.5 326.0 255.7 278.8 304.9 334.0 325.2 304.7 281.6 275.0 292.8 275.6 227.5 193.7 164.5 137.6 120.8 126.5 217.4 239.3 200.1 221.5 213.3 221.6 190.8 171.0 154.0 141.4 123.1 98.7 109.8 152.3 194.9 169.1 155.3 144.6 130.8 126.5 124.8 122.2 114.5 103.1 95.2 91.3 81.5 60.5 58.4 79.1 88.5 92.3 106.7 99.4 119.6 121.9 102.9 110.8 98.3 104.9 96.6 91.7 90.9 103.5 95.2 93.2 100.8 94.0 92.7 93.1 92.5 92.8 92.5 93.1 89.3 81.9 73.6 75.8 82.9 85.5 87.0 85.9 84.2 83.8 83.5 81.7 80.5 79.6 78.1 76.2 74.5 73.0 71.5 69.6 68.0 66.1 63.5 58.1 52.5 54.0 59.5 61.7 62.8 63.2 64.9 67.1 66.6 65.9 65.1 64.0 60.9 56.7 53.2 51.2 50.5 51.4 53.3 -9999.0 -9999.0 -9999.0 -9999.0 -9999.0 -9999.0 -9999.0 -9999.0 -9999.0 -9999.0 -9999.0 -9999.0 -9999.0 -9999.0 -9999.0 -9999.0 -9999.0 -9999.0 -9999.0 -9999.0 -9999.0 -9999.0 -9999.0 -9999.0 -9999.0 -9999.0 -9999.0 -9999.0 -9999.0 -9999.0 -9999.0 -9999.0 -9999.0 -9999.0
-9999.0 1080.1 1089.1 1292.7 1410.1 1372.4 1164.5 1040.0 1020.2 1024.6 1073.8 1155.9 1188.4 1240.0 1306.6 1366.3 1269.3 1153.8 1100.4 1084.5 947.6 718.9 600.2 569.2 646.1 706.1 732.6 743.4 783.5 765.3 731.4 678.5 645.2 629.0 597.6 554.7 491.4 412.2 408.0 478.1 548.2 597.4 653.9 728.3 801.5 815.1 744.6 684.1 616.6 541.3 499.5 427.7 417.5 467.6 516.9 580.7 629.2 612.2 591.8 628.1 714.0 746.3 763.8 822.5 894.0 900.4 855.8 801.6 761.0 727.4 728.5 724.9 674.5 565.0 576.6 641.1 687.4 741.4 728.9 645.5 581.5 501.6 539.0 621.3 681.6 758.6 827.9 896.8 964.5 992.9 1040.7 1053.8 1067.1 1123.1 1179.7 1198.3 1130.3 1041.0 942.5 937.3 990.5 1053.2 1131.8 1178.5 1122.3 1061.6 986.4 938.8 896.5 852.4 808.8 753.5 758.0 781.2 798.1 841.5 827.7 817.3 845.0 839.7 757.6 714.8 691.1 728.1 623.0 511.2 497.7 564.8 592.7 727.6 716.8 591.1 462.5 398.1 354.3 428.3 498.7 557.2 558.9 524.6 634.9 753.2 636.5 605.2 619.3 744.5 884.3 922.7 841.8 764.3 673.9 652.0 614.2 583.2 563.7 557.2 561.6 544.6 458.3 366.1 460.4 571.9 667.7 636.4 586.6 541.1 591.9 636.4 702.9 688.2 712.7 630.9 601.8 568.4 534.5 480.4 494.8 461.7 343.0 261.8 402.2 503.6 600.1 623.3 517.8 457.7 521.8 585.6 585.6 585.7 580.3 541.7 524.4 462.4 430.2 374.4 297.0 275.2 235.1 237.0 215.9 242.1 314.6 307.1 338.2 425.2 438.5 372.3 399.9 374.2 395.2 454.5 440.6 405.4 341.7 271.3 308.5 378.3 390.1 325.9 253.1 251.6 231.3 206.4 201.7 231.7 209.3 173.8 154.7 119.0 141.6 218.1 298.0 272.1 209.5 170.9 173.6 173.4 173.2 157.0 144.3 132.3 111.2 108.8 152.5 209.9 202.8 203.8 184.0 168.9 145.5 140.3 133.5 127.0 117.0 99.9 95.0 91.3 75.6 68.5 79.4 86.2 90.9 113.0 142.8 108.0 131.4 155.9 136.0 148.8 150.4 125.6 100.1 98.6 105.8 107.3 97.1 103.2 109.5 99.2 96.2 94.4 94.3 95.8 96.2 94.0 89.5 80.3 72.9 79.2 85.6 87.3 88.7 88.0 86.7 85.6 84.5 82.4 82.1 79.4 76.0 73.9 72.8 71.4 68.9 67.0 64.3 59.7 56.4 61.1 64.0 65.0 65.6 67.3 68.0 69.0 69.0 68.4 68.3 67.1 65.4 62.9 59.4 56.1 51.8 51.8 53.3 55.1 57.8 56.9 55.2 -9999.0 -9999.0 -9999.0 -9999.0 -9999.0 -9999.0 -9999.0 -9999.0 -9999.0 -9999.0 -9999.0 -9999.0 -9999.0 -9999.0 -9999.0 -9999.0 -9999.0 -9999.0 -9999.0 -9999.0 -9999.0 -9999.0 -9999.0 -9999.0 -9999.0 -9999.0 -9999.0 -9999.0 -9999.0 -9999.0 -9999.0 -9999.0
-9999.0 1145.4 1193.3 1364.0 1457.9 1259.5 1089.8 1177.1 1258.4 1181.1 1135.0 1122.4 1178.7 1262.2 1373.7 1460.3 1409.5 1299.6 1232.6 1183.8 1014.9 812.1 619.2 636.4 714.4 747.7 773.4 807.6 840.0 785.1 716.8 654.0 593.3 550.8 529.5 484.8 462.6 453.6 405.1 439.1 494.0 549.6 618.4 711.0 780.5 794.3 735.8 681.6 614.2 537.0 465.2 416.5 444.7 499.7 559.8 611.1 664.8 698.2 700.0 701.7 724.5 782.6 827.1 862.9 898.5 848.3 780.7 735.1 697.4 656.7 631.2 615.0 612.9 582.6 586.4 623.3 697.1 754.9 705.4 635.0 565.5 489.4 542.3 598.7 659.3 733.7 805.7 890.6 973.9 1000.4 986.8 978.7 1015.8 1072.0 1139.3 1136.9 1071.9 1011.3 943.5 1028.3 1115.4 1182.3 1277.6 1250.0 1170.0 1184.9 1055.0 936.9 876.0 827.2 785.8 741.5 694.4 692.6 741.4 772.6 727.3 719.9 776.5 795.4 731.6 666.7 594.1 642.9 547.6 496.0 457.2 444.2 476.5 563.5 645.8 492.6 370.4 341.0 426.8 520.8 592.9 648.2 710.2 693.8 676.7 735.0 758.0 759.2 835.6 878.8 983.0 880.2 788.0 785.9 774.0 791.5 769.0 738.1 739.1 687.3 634.7 512.5 407.6 412.2 528.3 579.1 676.3 678.6 639.6 560.3 656.2 665.9 695.9 743.8 653.1 583.5 497.9 468.2 454.6 406.6 406.4 386.8 387.3 267.5 309.6 439.1 554.0 590.9 521.8 511.8 549.3 650.4 593.1 524.7 508.3 446.5 488.7 449.2 387.7 325.2 261.6 309.8 320.2 247.2 247.5 255.9 372.7 416.2 379.6 431.0 486.1 429.1 420.2 503.5 422.5 467.6 426.5 335.1 307.1 312.4 410.4 445.5 374.4 286.1 253.5 246.6 226.7 194.9 179.5 172.1 165.1 155.0 132.9 145.1 232.1 289.4 241.7 205.8 197.9 224.4 241.1 214.6 203.0 159.5 141.6 124.9 109.4 159.8 236.3 259.5 235.6 213.6 186.4 178.5 155.9 137.8 128.7 125.5 117.1 102.5 97.1 91.7 83.0 64.0 83.8 92.0 99.5 148.3 169.4 122.6 137.3 188.6 202.1 210.1 170.8 134.1 109.9 112.6 148.8 135.0 103.8 121.2 127.1 104.5 98.2 97.6 98.0 97.4 98.0 94.0 86.5 77.3 73.9 82.8 88.0 90.0 91.3 90.2 89.0 86.1 84.7 84.0 80.7 77.6 74.1 71.9 69.6 65.7 61.0 61.1 64.1 66.4 66.6 68.0 68.8 69.2 69.9 70.7 70.8 70.5 69.1 68.8 68.6 66.9 65.3 61.9 58.7 54.8 53.1 54.5 56.0 58.7 56.5 52.9 52.0 51.2 -9999.0 -9999.0 -9999.0 -9999.0 -9999.0 -9999.0 -9999.0 -9999.0 -9999.0 -9999.0 -9999.0 -9999.0 -9999.0 -9999.0 -9999.0 -9999.0 -9999.0 -9999.0 -9999.0 -9999.0 -9999.0 -9999.0 -9999.0 -9999.0 -9999.0 -9999.0 -9999.0 -9999.0 -9999.0 -9999.0 -9999.0
-9999.0 1257.8 1297.6 1388.2 1469.9 1234.9 1176.1 1273.2 1378.7 1375.4 1371.0 1275.2 1300.8 1320.8 1367.8 1415.1 1404.9 1203.1 1102.2 943.6 850.2 755.5 615.0 710.8 840.3 906.9 899.9 899.6 857.8 802.4 740.8 666.6 596.9 537.5 500.5 515.6 499.3 552.4 540.1 415.1 482.8 570.9 656.3 678.8 677.8 722.8 686.7 622.3 569.0 510.3 440.2 432.0 483.2 534.3 593.1 634.9 672.7 705.2 745.7 775.3 793.0 821.0 869.4 900.3 847.5 792.6 745.0 694.3 666.9 673.0 659.6 634.0 629.4 645.8 657.1 671.4 725.2 719.5 684.0 643.7 574.0 509.0 581.9 618.7 671.7 734.2 796.5 864.0 872.8 885.5 873.9 909.7 981.6 1056.3 1118.4 1153.9 1103.6 1018.7 969.5 1058.4 1130.1 1211.4 1192.8 1159.2 1114.0 1127.0 1060.1 963.6 893.7 820.0 746.8 701.3 663.7 626.8 663.0 694.3 639.9 653.0 710.4 731.7 710.3 574.3 526.5 511.9 545.9 580.0 602.7 560.4 474.8 428.4 496.9 502.3 378.3 378.0 463.7 479.6 519.7 578.5 668.8 783.6 851.5 898.1 839.2 901.3 982.8 1011.7 1021.3 939.5 844.5 760.3 690.3 660.0 692.6 692.7 656.3 657.1 558.2 466.6 391.6 443.1 499.6 575.6 694.4 689.1 624.1 568.1 640.5 688.1 743.8 707.5 614.0 542.0 555.5 502.0 458.6 455.3 453.4 426.4 354.4 287.7 253.3 375.4 491.6 567.8 588.8 584.4 576.9 592.1 510.4 467.7 453.8 410.8 432.3 387.4 298.4 278.0 362.6 431.5 289.1 268.6 375.6 285.4 307.9 409.9 457.8 514.9 466.5 473.0 511.7 523.9 449.6 510.4 421.6 420.9 351.4 306.6 434.4 425.6 348.4 334.4 372.8 361.7 330.7 275.8 213.7 170.2 150.6 128.3 148.9 229.2 272.1 272.1 217.8 214.8 235.4 300.5 262.1 212.7 166.6 139.8 122.3 115.0 145.2 223.4 282.1 267.5 265.8 226.9 199.0 169.9 141.1 141.9 128.5 116.3 107.7 101.9 96.2 79.4 72.9 67.6 87.1 96.0 114.6 156.5 203.0 164.1 145.2 228.4 272.0 219.8 177.8 142.8 119.2 133.4 166.5 130.7 110.9 127.3 123.8 100.3 99.2 98.8 99.7 99.9 97.1 94.2 84.2 75.8 76.7 86.4 89.9 93.7 93.4 91.9 89.4 87.1 85.6 84.0 79.4 74.9 70.0 63.9 64.6 68.4 69.9 70.5 71.1 71.3 72.2 72.7 73.3 73.4 73.4 72.4 71.2 70.3 69.3 68.9 68.6 67.5 66.1 62.0 57.3 55.3 54.3 56.0 58.4 60.4 55.4 51.5 51.0 51.8 54.4 -9999.0 -9999.0 -9999.0 -9999.0 -9999.0 -9999.0 -9999.0 -9999.0 -9999.0 -9999.0 -9999.0 -9999.0 -9999.0 -9999.0 -9999.0 -9999.0 -9999.0 -9999.0 -9999.0 -9999.0 -9999.0 -9999.0 -9999.0 -9999.0 -9999.0 -9999.0 -9999.0 -9999.0 -9999.0 -9999.0
-9999.0 1368.0 1433.9 1476.0 1405.1 1212.7 1328.4 1439.8 1517.6 1580.5 1571.8 1484.6 1537.5 1374.6 1231.5 1117.4 1154.7 1071.0 925.3 821.2 685.7 738.6 705.7 832.9 904.0 969.8 1068.6 1081.3 983.0 899.7 814.2 724.3 614.7 565.3 599.1 624.9 595.2 616.0 578.3 488.5 413.2 476.4 540.9 573.3 648.7 700.8 645.1 576.8 529.3 484.3 431.4 450.6 469.3 505.1 530.9 562.9 601.1 643.7 696.0 756.4 824.7 878.5 923.9 887.3 818.1 856.0 827.6 756.7 846.0 895.0 867.7 795.8 739.9 729.9 750.0 744.5 773.1 712.0 646.1 561.8 560.6 546.6 612.2 676.7 715.6 751.2 790.8 829.0 790.4 803.8 791.4 845.2 891.4 943.5 1018.2 1083.1 1058.5 1026.5 1010.5 1036.8 1122.1 1131.4 1059.8 1001.7 992.4 985.2 957.1 929.0 877.4 816.3 752.0 698.4 644.5 604.1 590.3 611.2 582.7 601.0 629.7 579.5 566.9 590.1 725.4 697.3 725.4 757.4 658.5 543.0 577.1 543.6 461.8 389.4 370.3 491.7 599.6 624.9 556.0 671.5 709.4 727.3 833.3 947.8 901.2 913.0 906.9 878.9 964.8 947.3 913.2 821.5 781.0 704.2 626.2 577.4 531.4 493.2 478.1 408.6 462.5 523.2 547.0 636.2 732.9 685.2 675.6 601.2 631.3 666.7 721.1 708.4 640.5 612.7 570.4 536.9 578.6 561.3 551.3 430.2 356.1 265.6 304.1 371.0 413.7 458.9 514.4 590.6 656.4 616.3 560.4 578.4 543.9 481.8 365.3 312.1 296.0 405.6 481.9 391.9 261.2 349.5 398.4 317.3 287.6 349.8 434.6 507.1 532.1 508.6 593.6 549.0 511.9 556.5 507.7 420.1 335.1 393.5 433.0 425.2 447.3 406.0 325.1 268.5 240.4 213.6 161.1 140.6 142.9 151.9 180.4 248.0 254.2 249.7 238.8 280.9 271.2 321.4 283.1 205.6 141.1 116.4 130.6 180.2 217.0 247.8 253.4 225.6 260.2 244.2 200.3 157.9 167.7 151.0 135.9 117.6 105.1 96.5 94.0 72.5 83.1 98.1 111.4 105.4 136.9 201.3 231.3 213.9 147.1 184.7 272.1 306.3 241.5 178.0 133.0 164.1 159.5 124.8 155.4 162.5 115.7 102.1 101.3 100.7 100.4 99.5 97.6 95.6 88.9 80.3 77.0 87.0 95.7 98.7 98.8 92.9 89.5 88.0 86.0 83.4 80.6 76.9 70.1 73.3 74.4 75.7 75.6 75.8 75.9 76.2 77.5 77.1 76.6 75.3 73.5 72.5 72.5 71.0 70.6 70.0 68.9 69.3 66.1 61.7 58.2 54.8 56.0 58.8 61.0 59.2 55.7 52.2 51.6 54.5 53.2 51.3 -9999.0 -9999.0 -9999.0 -9999.0 -9999.0 -9999.0 -9999.0 -9999.0 -9999.0 -9999.0 -9999.0 -9999.0 -9999.0 -9999.0 -9999.0 -9999.0 -9999.0 -9999.0 -9999.0 -9999.0 -9999.0 -9999.0 -9999.0 -9999.0 -9999.0 -9999.0 -9999.0 -9999.0 -9999.0
-9999.0 1473.2 1546.4 1577.9 1418.6 1281.0 1385.3 1498.2 1600.0 1704.3 1755.7 1686.0 1661.4 1469.9 1287.2 1050.7 918.1 872.1 751.4 768.2 860.5 839.5 799.8 944.1 1041.9 1040.2 1069.1 1143.1 1183.4 1094.7 952.7 809.6 664.7 667.4 696.4 693.9 685.1 660.4 604.1 531.6 447.9 427.4 499.8 578.2 665.1 702.3 673.9 624.0 578.5 529.9 448.0 503.1 533.3 518.9 524.9 551.0 595.0 651.9 712.7 770.7 828.4 891.1 960.2 921.1 894.8 912.2 820.2 951.7 1028.3 1081.1 1051.2 950.2 924.4 910.9 876.6 846.2 811.2 747.8 659.7 657.1 710.5 700.7 624.5 585.1 643.0 678.7 741.7 718.4 713.1 740.9 738.9 790.1 833.9 882.3 930.4 985.9 1057.3 1130.5 1129.7 1082.9 1128.0 1177.8 1064.1 953.2 906.6 879.4 861.5 851.0 840.1 805.9 767.2 745.9 713.0 657.5 606.5 579.1 560.5 558.4 565.7 630.4 726.9 808.5 894.5 918.3 910.0 852.5 728.3 657.8 730.8 658.4 543.6 413.5 421.9 500.3 618.7 733.7 675.4 628.1 731.3 842.2 894.1 916.2 835.9 766.7 782.2 860.9 860.0 811.8 899.1 855.1 753.2 649.3 578.0 502.1 458.9 455.6 483.1 475.3 572.4 655.7 642.0 660.3 760.1 736.7 679.3 621.6 666.5 728.4 771.4 782.0 774.2 718.6 645.0 640.7 562.7 486.6 413.4 400.1 314.1 276.0 381.9 440.6 460.3 476.1 477.9 546.2 616.4 540.2 545.9 548.2 456.8 398.4 319.9 307.3 354.3 482.7 470.4 377.4 273.7 342.1 420.8 305.5 365.3 395.1 378.2 486.5 552.2 579.1 620.0 595.4 559.1 487.7 418.6 370.9 448.0 479.5 435.7 342.2 388.2 408.8 365.9 297.4 219.5 154.5 144.3 176.7 203.3 168.2 218.5 299.5 349.2 348.4 295.1 279.9 333.9 286.4 240.8 170.9 127.4 130.7 162.3 216.4 275.9 239.7 197.2 184.3 176.6 170.9 177.2 200.9 177.4 156.2 148.2 114.9 97.5 73.5 73.6 73.0 83.8 122.3 141.8 122.6 117.5 132.7 154.2 199.6 171.3 150.9 194.2 246.3 257.9 192.6 172.0 176.9 149.9 151.8 188.4 181.4 126.5 105.7 103.6 103.6 102.7 101.0 98.5 94.9 90.2 82.2 80.6 98.1 103.6 105.5 109.7 98.3 93.6 90.2 88.2 87.2 84.1 80.2 78.8 78.6 80.1 81.3 81.5 81.9 81.9 81.5 80.1 79.7 78.2 75.7 74.3 72.7 71.7 71.9 72.1 71.3 72.1 70.9 65.7 61.4 58.9 56.1 58.2 61.5 63.5 60.4 57.1 53.4 53.9 55.1 52.6 50.7 53.0 56.6 -9999.0 -9999.0 -9999.0 -9999.0 -9999.0 -9999.0 -9999.0 -9999.0 -9999.0 -9999.0 -9999.0 -9999.0 -9999.0 -9999.0 -9999.0 -9999.0 -9999.0 -9999.0 -9999.0 -9999.0 -9999.0 -9999.0 -9999.0 -9999.0 -9999.0 -9999.0 -9999.0
-9999.0 1586.5 1649.0 1609.1 1439.4 1480.0 1537.1 1549.8 1660.9 1750.7 1730.3 1661.4 1516.2 1379.1 1247.8 1166.8 1060.4 840.1 831.3 997.2 1049.4 853.1 897.5 1027.0 1164.5 1204.1 1167.7 1163.2 1156.5 1186.8 1014.9 817.3 773.4 884.9 865.9 831.7 755.3 670.7 603.7 549.6 464.2 423.6 497.4 557.3 600.5 655.2 712.0 677.5 612.4 552.1 485.8 514.6 586.2 660.4 637.6 601.5 611.5 645.6 703.3 775.9 855.6 929.5 982.8 985.9 968.1 912.8 931.6 1079.4 1163.6 1188.3 1132.9 1075.8 1109.0 1093.8 1071.9 987.4 838.7 721.8 628.3 651.5 727.9 735.9 681.0 657.7 612.3 603.7 635.1 681.1 660.3 671.2 736.3 785.5 836.0 878.8 927.8 983.4 1087.8 1201.4 1215.1 1174.7 1180.0 1176.8 1049.2 933.1 856.7 824.6 783.3 759.5 752.9 738.0 697.9 669.4 674.0 666.2 638.1 626.5 630.0 615.2 619.5 637.5 676.1 756.0 796.8 813.7 838.8 765.7 677.4 667.2 675.5 557.6 447.6 394.4 499.7 602.5 567.4 699.8 790.8 763.6 736.7 824.7 939.1 856.2 760.9 721.5 747.4 734.8 729.7 844.5 838.4 814.2 830.2 723.6 616.9 481.2 539.0 644.2 646.5 565.4 583.8 705.3 781.3 770.5 786.9 746.7 735.1 638.6 694.8 730.8 735.7 676.4 721.4 747.5 704.0 671.4 654.6 592.8 473.4 367.5 276.7 327.3 380.0 389.9 406.8 433.2 503.3 573.9 597.3 503.4 441.8 425.4 354.2 326.7 360.5 474.6 507.3 491.2 486.5 391.9 277.0 399.3 420.1 351.1 476.9 492.8 428.6 455.5 506.0 609.9 590.6 538.7 520.0 428.0 437.3 458.5 505.5 410.8 340.0 289.6 306.6 344.9 294.0 217.2 160.1 159.4 201.3 257.9 241.8 186.5 199.5 288.7 375.1 371.9 321.2 308.3 262.3 224.8 189.7 133.3 149.3 214.5 225.6 253.4 302.4 262.4 208.1 223.7 205.7 222.5 238.9 217.8 185.0 166.7 156.0 116.2 83.7 76.1 90.7 105.2 126.3 153.1 183.6 150.1 113.1 146.7 171.4 204.7 232.0 190.4 167.2 186.1 210.0 243.9 222.5 196.7 193.1 196.7 171.1 139.7 122.9 109.1 106.8 105.7 104.8 102.6 99.1 97.4 93.0 84.7 87.7 111.5 103.3 121.8 152.8 113.8 97.3 93.1 90.2 89.6 88.9 86.1 85.0 84.9 85.4 86.5 85.7 84.8 84.6 84.1 83.1 81.0 78.7 76.9 74.7 74.1 74.6 73.8 72.7 72.7 73.2 69.9 65.4 61.7 59.1 58.8 60.7 63.9 65.0 61.1 58.2 55.1 56.6 56.9 53.4 53.9 56.5 60.0 61.1 -9999.0 -9999.0 -9999.0 -9999.0 -9999.0 -9999.0 -9999.0 -9999.0 -9999.0 -9999.0 -9999.0 -9999.0 -9999.0 -9999.0 -9999.0 -9999.0 -9999.0 -9999.0 -9999.0 -9999.0 -9999.0 -9999.0 -9999.0 -9999.0 -9999.0 -9999.0
-9999.0 1772.1 1735.8 1628.6 1577.6 1560.3 1678.7 1732.2 1685.5 1679.3 1476.6 1381.6 1295.8 1200.2 1095.1 1028.9 919.2 832.9 971.3 1171.5 1088.2 889.2 941.9 1104.6 1250.5 1374.2 1379.9 1225.7 1101.3 1021.6 896.0 845.0 983.9 1155.2 1146.5 1046.8 909.0 728.6 601.4 494.6 450.3 460.1 464.9 495.3 550.5 617.8 676.9 640.0 569.0 512.8 487.6 520.0 575.1 638.1 697.9 700.1 680.9 717.4 731.2 803.4 934.5 981.0 977.7 969.0 923.7 889.5 939.1 1028.7 1096.2 1109.9 1077.0 1092.3 1114.8 1090.7 1068.9 1016.9 894.3 705.0 733.2 803.3 830.0 816.0 752.1 687.0 665.1 639.6 610.7 685.1 753.7 719.3 739.9 791.9 852.9 928.7 994.5 1063.1 1145.6 1207.6 1177.1 1135.3 1213.6 1155.1 1010.2 919.5 849.0 789.0 725.9 698.6 668.1 675.3 648.9 604.4 580.5 591.6 556.6 568.4 593.0 536.0 546.5 573.1 628.8 652.1 689.7 689.1 745.4 816.2 714.1 606.4 506.5 447.6 402.1 460.7 592.9 742.4 707.2 659.9 733.9 861.1 916.0 890.5 913.1 899.5 842.4 756.9 694.1 648.7 684.8 735.9 699.0 799.3 823.2 750.0 631.8 483.7 584.0 711.2 737.7 668.7 581.4 632.6 687.8 718.6 811.0 778.7 679.8 671.0 705.0 707.1 631.5 636.4 664.8 608.7 592.9 540.4 548.0 579.2 530.9 367.7 291.0 392.3 427.9 487.9 502.2 488.5 515.2 588.4 511.4 454.1 409.9 362.9 329.7 445.7 480.3 527.1 598.1 518.8 429.4 344.5 300.8 450.1 375.5 377.1 428.4 474.2 536.0 566.4 585.1 575.4 509.4 476.3 464.9 484.7 547.7 569.9 530.3 480.5 437.1 365.8 265.2 229.5 191.9 169.8 187.6 204.6 301.9 357.1 314.0 261.0 203.3 285.7 356.6 410.0 341.1 274.9 295.2 262.1 172.3 135.7 185.8 262.0 279.6 317.9 311.1 244.1 227.5 284.9 280.9 286.6 270.2 224.7 196.5 174.6 154.1 121.9 85.4 80.0 83.4 128.6 155.6 195.1 178.0 154.2 128.0 132.3 143.7 183.8 240.6 269.8 217.6 220.4 265.3 242.2 186.6 162.4 171.8 193.6 178.1 147.1 123.3 113.5 110.3 109.1 107.9 103.5 98.7 96.2 90.4 83.4 133.1 124.0 109.0 136.8 146.5 122.3 119.2 94.9 94.2 93.7 92.2 91.2 91.1 89.9 89.5 89.7 87.9 87.6 87.0 86.3 84.2 82.4 78.4 77.0 76.9 76.6 75.6 75.3 74.4 73.4 73.1 70.4 66.2 62.6 59.3 61.0 64.1 66.2 64.7 61.7 58.5 57.4 59.3 56.7 57.5 58.2 61.2 64.2 64.7 63.4 -9999.0 -9999.0 -9999.0 -9999.0 -9999.0 -9999.0 -9999.0 -9999.0 -9999.0 -9999.0 -9999.0 -9999.0 -9999.0 -9999.0 -9999.0 -9999.0 -9999.0 -9999.0 -9999.0 -9999.0 -9999.0 -9999.0 -9999.0 -9999.0 -9999.0
-9999.0 1669.5 1749.2 1754.9 1712.7 1670.5 1695.5 1819.9 1907.8 1735.1 1482.6 1276.5 1170.2 1075.5 1038.1 1065.3 951.5 1034.1 1163.2 1122.7 974.8 976.5 1057.9 1092.6 1203.1 1352.9 1407.4 1303.9 1143.9 985.3 941.1 1081.0 1154.4 1168.7 1115.1 972.8 787.5 621.8 491.3 588.4 667.3 627.3 561.2 483.8 540.1 610.6 690.8 677.3 615.9 562.5 495.3 506.8 580.3 645.5 715.3 774.6 780.9 816.8 828.2 857.2 912.6 1002.6 992.8 911.6 899.0 884.2 924.6 986.6 1026.3 991.4 962.4 991.9 1026.3 1031.9 950.2 866.4 799.3 701.6 861.4 997.9 1022.2 965.4 854.1 819.3 733.5 663.3 609.4 632.0 694.6 732.2 767.9 811.2 869.5 946.9 1023.0 1098.7 1179.4 1182.2 1105.7 1029.9 1059.2 978.3 949.0 888.8 833.1 768.9 699.6 645.8 613.0 611.6 621.3 564.6 536.8 526.6 516.1 556.1 550.2 509.7 501.3 537.3 549.2 529.8 531.7 521.7 620.1 712.9 667.2 626.8 515.6 404.8 401.2 531.4 621.2 696.2 817.0 827.9 742.0 889.0 993.2 928.0 810.6 770.2 805.2 796.4 774.7 703.2 645.9 601.5 641.1 664.9 728.3 697.8 585.6 486.0 589.1 721.6 735.0 660.1 653.0 659.1 671.5 747.5 787.5 717.9 728.3 720.1 642.4 586.4 588.8 651.0 541.3 497.9 542.1 437.0 431.7 438.8 421.9 298.5 333.3 458.9 513.4 568.6 631.5 650.9 650.0 659.8 573.2 477.3 360.2 351.3 429.3 477.5 587.2 617.4 568.8 491.2 407.3 306.3 336.6 469.2 384.9 449.9 511.9 546.2 529.3 508.1 549.0 484.0 450.9 417.2 478.9 493.8 509.2 497.5 463.4 465.0 421.6 321.5 197.1 175.3 202.5 275.6 321.9 261.2 245.3 338.2 345.2 287.6 224.0 244.7 334.0 411.3 403.4 374.4 357.9 283.1 169.1 144.6 204.5 273.8 349.3 355.5 306.0 278.7 283.8 315.0 283.4 231.7 201.1 193.3 194.6 189.9 173.6 109.2 85.1 99.7 137.8 181.1 201.4 222.2 219.8 204.6 144.7 129.7 156.6 173.0 202.1 269.3 265.4 222.9 283.2 263.5 198.4 173.0 160.5 145.1 151.3 149.9 130.3 117.9 113.5 111.5 109.2 106.4 91.8 85.8 88.2 91.9 144.1 114.0 120.2 146.0 166.4 148.9 123.3 99.8 99.4 95.5 94.8 94.6 93.6 92.6 92.5 92.1 90.8 89.8 88.9 86.9 85.7 85.8 82.3 81.9 80.3 78.4 77.6 76.3 74.3 73.5 73.9 72.1 67.7 65.1 59.9 62.7 66.9 68.0 64.7 61.1 59.4 60.0 60.9 58.4 60.6 63.6 65.8 66.1 66.6 65.6 63.5 -9999.0 -9999.0 -9999.0 -9999.0 -9999.0 -9999.0 -9999.0 -9999.0 -9999.0 -9999.0 -9999.0 -9999.0 -9999.0 -9999.0 -9999.0 -9999.0 -9999.0 -9999.0 -9999.0 -9999.0 -9999.0 -9999.0 -9999.0 -9999.0
-9999.0 1569.6 1685.9 1760.3 1816.1 1773.9 1740.0 1788.6 1888.1 1751.9 1541.6 1387.5 1271.7 1296.9 1320.2 1140.4 1137.9 1305.2 1327.1 1131.3 1013.6 1076.8 1195.5 1301.6 1356.1 1405.1 1354.5 1264.1 1176.8 1185.5 1185.0 1158.8 1050.4 927.5 875.6 808.2 626.6 518.3 637.0 845.6 931.1 829.0 684.5 537.8 589.5 684.0 747.7 750.6 690.6 630.1 529.2 529.1 649.5 755.2 858.6 933.2 984.7 1048.7 1067.3 1077.1 1034.9 965.9 964.1 961.2 980.1 927.1 957.2 978.2 1017.6 926.8 862.5 838.4 849.9 893.1 916.4 839.1 730.4 874.1 1009.7 1137.3 1171.8 1024.0 960.6 910.4 757.6 735.1 647.9 611.6 660.7 699.3 748.8 797.5 838.6 895.8 956.9 1039.8 1128.1 1128.8 1029.9 954.2 903.6 867.0 862.5 855.4 793.3 737.5 699.8 654.5 589.1 582.3 626.8 603.9 577.9 548.9 504.7 491.8 479.5 477.1 472.4 465.4 462.2 503.2 605.2 608.3 516.2 486.4 520.1 464.7 429.5 456.9 520.9 552.0 673.0 808.7 852.0 867.4 821.4 927.3 891.9 882.1 813.2 698.8 666.7 657.2 683.1 698.0 681.0 642.3 574.5 562.0 575.6 589.4 497.7 560.6 691.6 772.4 778.4 691.9 754.3 742.7 742.2 797.5 752.2 774.5 765.7 690.1 571.3 510.7 572.6 614.6 512.5 435.9 439.4 381.0 366.3 337.8 310.9 293.2 390.4 488.3 553.7 591.4 649.6 639.4 593.3 625.4 556.6 442.1 344.8 427.4 504.7 598.6 635.1 576.4 498.1 436.3 360.1 334.8 441.5 501.8 397.2 502.8 586.2 538.4 460.5 456.9 508.5 438.8 387.7 400.9 434.6 418.3 404.6 380.2 338.4 336.6 311.8 212.8 188.5 250.6 290.0 320.1 381.7 338.4 263.3 342.8 388.3 335.7 290.6 233.0 330.1 346.9 338.2 286.3 238.5 212.2 187.4 149.4 203.5 271.2 345.4 398.7 381.0 352.6 353.7 321.0 280.3 262.1 210.9 173.1 169.7 155.5 138.1 104.9 88.7 130.1 189.9 224.0 247.8 246.0 198.0 179.0 149.7 133.6 179.6 223.9 276.3 292.9 305.1 287.3 300.9 279.3 284.0 243.3 189.6 186.7 194.3 169.8 136.3 121.9 114.7 112.2 110.9 105.1 93.2 88.9 87.2 125.4 157.1 117.7 128.9 136.4 171.3 146.5 111.5 120.4 110.6 99.8 102.3 97.8 98.0 95.9 95.1 94.4 93.7 93.7 91.7 90.5 89.8 88.7 85.1 82.6 81.4 79.4 77.8 77.0 75.3 74.3 74.8 73.1 69.3 66.0 63.3 66.0 69.5 68.4 64.2 61.5 62.0 63.6 64.3 60.8 61.5 63.7 67.6 67.8 67.7 67.3 67.2 64.1 -9999.0 -9999.0 -9999.0 -9999.0 -9999.0 -9999.0 -9999.0 -9999.0 -9999.0 -9999.0 -9999.0 -9999.0 -9999.0 -9999.0 -9999.0 -9999.0 -9999.0 -9999.0 -9999.0 -9999.0 -9999.0 -9999.0 -9999.0
-9999.0 1491.6 1541.0 1496.9 1612.4 1725.3 1847.2 1820.3 1716.0 1677.7 1655.4 1567.5 1501.7 1342.4 1228.9 1192.2 1313.3 1371.7 1276.3 1134.8 1180.7 1285.5 1335.0 1362.4 1285.4 1172.2 1115.3 1173.4 1299.1 1308.1 1328.3 1149.1 962.6 841.3 783.5 680.7 516.6 636.8 767.9 932.2 1036.9 861.9 670.3 583.0 676.4 745.7 840.8 949.4 886.5 817.9 633.8 538.5 690.1 813.3 951.5 1057.1 1126.3 1181.8 1175.1 1145.8 1040.1 983.4 1091.0 1074.5 1076.5 977.9 1002.0 1099.2 1080.8 1006.1 975.6 942.0 844.2 784.6 767.4 736.5 857.2 964.2 1030.4 1108.7 1159.6 1155.4 1051.0 871.4 827.7 887.2 770.1 639.9 649.7 665.0 712.3 758.0 825.4 878.8 929.0 983.6 1078.7 1114.4 987.4 910.7 865.9 807.1 779.8 772.4 736.3 677.3 626.7 610.1 581.4 551.4 574.3 547.0 532.8 499.4 481.7 508.5 524.8 511.5 479.3 504.5 541.1 511.1 553.2 684.6 639.8 536.0 505.8 447.8 474.6 579.9 722.5 765.7 773.0 882.8 1017.7 969.3 941.0 904.1 841.0 765.2 768.6 750.4 733.2 709.9 657.1 611.4 591.4 602.1 615.9 570.1 502.4 492.4 527.1 650.9 653.7 710.5 793.9 786.5 833.0 817.4 813.3 808.4 801.8 761.3 705.2 647.3 597.5 526.7 474.9 472.1 444.9 419.6 412.8 438.1 393.5 304.1 290.8 326.5 374.6 448.7 484.2 546.6 627.3 633.3 518.6 536.2 500.6 393.5 410.6 523.3 555.5 624.4 601.9 490.3 428.6 366.2 337.5 388.4 491.1 482.1 448.8 547.3 614.4 519.2 465.7 427.0 401.5 375.5 332.5 326.6 304.8 292.7 303.5 325.6 343.2 287.4 237.7 188.0 250.4 324.8 334.7 373.5 439.1 378.9 298.3 377.5 443.0 400.3 343.6 253.8 336.0 330.5 313.6 284.8 281.0 308.4 252.7 164.3 178.2 238.9 317.8 355.7 391.2 413.4 410.0 356.7 296.2 254.4 234.2 226.8 213.4 182.1 141.1 124.2 93.2 124.0 193.7 247.9 289.6 299.0 274.0 224.3 166.2 142.2 147.6 181.5 220.6 220.5 265.6 322.4 300.8 309.1 292.6 258.4 249.5 249.3 240.0 188.4 145.0 127.1 116.3 115.8 111.3 107.4 96.1 94.0 110.9 161.3 131.5 147.4 170.4 193.5 161.1 129.5 143.3 141.9 112.6 117.0 135.1 106.1 99.9 99.3 98.3 98.2 97.3 95.5 93.7 91.3 91.6 89.2 86.6 83.8 82.0 80.5 80.0 79.4 77.9 77.9 78.6 74.4 70.5 67.7 65.7 68.6 72.0 70.4 66.0 63.5 66.6 68.2 67.8 64.5 62.4 64.5 66.5 70.2 70.4 69.7 69.5 67.7 63.6 -9999.0 -9999.0 -9999.0 -9999.0 -9999.0 -9999.0 -9999.0 -9999.0 -9999.0 -9999.0 -9999.0 -9999.0 -9999.0 -9999.0 -9999.0 -9999.0 -9999.0 -9999.0 -9999.0 -9999.0 -9999.0 -9999.0
-9999.0 1325.3 1294.7 1297.2 1428.2 1552.1 1616.9 1636.8 1497.7 1497.4 1599.1 1692.5 1616.4 1509.6 1273.8 1346.9 1517.9 1466.9 1371.4 1385.4 1372.0 1347.3 1260.7 1191.1 1157.3 1168.1 990.4 1007.8 1113.7 1089.7 1203.0 1131.8 996.3 847.9 746.3 635.3 535.7 688.2 891.5 1020.0 959.5 786.4 629.9 614.3 778.9 902.4 1013.9 1053.0 942.9 863.4 753.2 571.0 648.4 787.7 931.9 1090.0 1234.9 1225.5 1125.4 1043.8 1000.4 1056.8 1137.4 1187.5 1151.9 1030.4 1101.7 1171.3 1189.9 1189.0 1168.4 1073.4 956.4 906.7 809.7 735.5 814.3 876.2 937.9 998.7 1057.8 1115.6 1113.9 1033.8 969.8 887.1 793.1 690.6 675.8 681.1 714.4 755.8 799.3 856.4 903.2 959.1 1028.6 1057.4 965.2 899.8 843.7 763.8 724.6 715.3 668.8 643.0 590.3 546.4 536.7 519.4 509.8 503.2 504.9 499.8 540.4 591.3 602.8 530.7 492.8 539.8 593.8 569.7 535.4 605.7 697.0 789.0 715.0 549.4 489.4 662.9 773.6 674.9 683.2 810.1 1008.5 1085.2 985.1 891.6 869.2 843.4 815.4 812.6 824.9 802.8 759.5 666.2 637.0 613.9 523.4 521.5 596.4 563.1 535.0 571.3 694.7 777.9 768.5 742.1 811.2 821.1 776.0 748.1 701.5 666.4 690.0 677.6 611.7 560.1 580.2 526.4 503.0 495.5 429.2 364.0 302.4 322.4 382.9 426.9 457.1 434.1 450.0 562.4 632.0 568.8 476.4 456.4 415.9 366.3 437.7 465.8 553.8 631.9 586.0 491.0 396.2 341.1 430.7 511.2 576.6 471.1 504.0 588.9 583.2 550.3 564.0 460.2 389.8 436.7 443.9 366.4 392.1 333.4 313.7 288.7 251.9 240.1 200.7 239.9 342.9 412.6 396.4 420.4 477.7 390.4 376.2 407.3 437.3 390.8 326.2 258.9 355.4 384.7 412.2 403.6 392.6 388.7 311.2 203.6 167.2 202.8 236.6 282.7 326.2 378.6 394.2 328.5 300.9 274.1 260.9 245.9 215.6 164.8 136.7 126.9 109.7 98.3 164.3 218.0 248.1 279.4 300.8 271.6 229.1 213.5 171.0 147.0 177.7 222.2 241.6 305.2 283.0 243.2 228.3 208.6 190.0 185.1 204.7 204.7 155.9 129.2 119.8 115.8 110.7 105.6 97.5 104.6 151.0 172.0 130.3 157.1 195.7 157.7 149.5 161.9 158.3 121.4 142.6 167.6 147.0 116.9 114.8 102.8 101.6 101.0 99.9 98.7 96.8 94.8 94.2 90.4 86.7 84.5 83.4 83.7 83.5 83.2 82.7 81.6 82.3 77.1 72.1 68.7 68.1 72.1 73.6 71.3 67.6 65.7 69.6 72.8 72.0 68.2 63.6 65.3 68.3 71.7 73.5 72.4 70.2 67.9 65.7 64.1 -9999.0 -9999.0 -9999.0 -9999.0 -9999.0 -9999.0 -9999.0 -9999.0 -9999.0 -9999.0 -9999.0 -9999.0 -9999.0 -9999.0 -9999.0 -9999.0 -9999.0 -9999.0 -9999.0 -9999.0 -9999.0
-9999.0 1116.4 1152.0 1330.5 1429.6 1396.7 1347.3 1407.0 1338.3 1438.5 1567.4 1725.6 1716.5 1522.1 1391.3 1488.8 1534.3 1489.6 1464.9 1437.2 1226.4 1076.5 1020.7 1021.3 963.3 1020.6 902.3 916.6 917.7 953.2 1034.9 1048.0 949.3 816.8 661.4 554.1 634.7 753.4 897.6 1021.1 863.7 696.5 599.5 709.7 798.0 947.8 1073.0 1085.4 970.2 877.3 765.5 638.4 567.1 686.9 835.6 1036.7 1238.0 1238.0 1111.3 1037.3 1065.6 1096.4 1162.0 1213.8 1133.6 1053.9 1033.7 1039.4 1047.7 1071.0 1047.5 1043.0 1039.0 961.6 820.7 757.9 824.3 880.4 928.8 972.8 1017.6 1032.0 1038.7 1046.5 1023.0 881.5 735.0 755.3 822.0 726.7 698.6 758.8 789.9 844.7 891.0 948.7 1012.0 971.4 903.3 832.1 774.7 713.2 644.0 622.1 594.8 572.1 548.2 562.4 575.5 547.6 545.2 607.0 594.4 534.6 571.2 629.6 593.2 525.7 499.4 548.2 609.2 636.0 596.9 594.5 657.9 809.9 831.9 632.1 505.5 556.5 585.6 590.7 669.5 800.7 1005.3 1048.0 950.2 891.2 870.5 841.9 791.5 818.2 807.2 787.4 737.9 712.3 652.5 552.0 543.9 645.9 679.1 585.2 624.9 596.4 608.9 671.6 684.1 781.6 855.1 819.7 695.5 622.6 642.8 576.6 578.5 659.2 662.7 630.7 563.0 533.9 436.5 364.7 311.0 313.6 336.0 393.8 467.2 461.1 499.0 525.9 534.1 584.4 584.0 544.2 564.2 500.4 378.1 424.9 532.5 583.3 600.5 616.6 589.6 461.9 344.6 437.7 545.3 611.0 560.7 497.8 593.4 617.5 655.4 676.4 586.9 478.9 461.4 498.6 442.8 427.2 468.3 405.5 410.7 305.0 214.4 217.0 246.8 277.1 277.7 324.2 358.5 381.3 444.1 463.0 432.3 434.0 355.3 307.5 283.8 310.0 353.7 419.8 435.0 389.7 310.1 270.8 252.0 207.5 171.9 204.9 260.5 294.0 336.3 389.2 343.5 273.8 236.6 220.0 201.2 225.9 213.0 152.6 138.3 126.7 106.8 103.3 114.5 162.0 233.2 264.2 292.5 325.0 277.6 229.2 175.7 155.6 194.4 213.2 236.1 296.9 313.1 262.6 277.3 328.5 244.2 229.2 209.7 182.0 153.4 133.9 120.6 112.0 106.0 101.1 102.8 155.5 209.3 184.7 145.7 174.9 202.3 180.8 209.5 192.2 141.3 141.6 173.6 156.1 148.5 159.6 131.0 107.6 106.3 103.2 102.0 101.5 99.4 97.7 94.1 90.0 87.0 86.6 86.8 88.3 87.9 88.0 86.1 86.1 84.1 79.3 74.8 70.9 73.0 76.0 73.0 69.9 67.9 68.6 72.8 76.3 74.9 69.9 65.4 66.3 69.8 73.6 74.6 74.0 73.5 70.9 67.9 65.8 64.9 63.8 -9999.0 -9999.0 -9999.0 -9999.0 -9999.0 -9999.0 -9999.0 -9999.0 -9999.0 -9999.0 -9999.0 -9999.0 -9999.0 -9999.0 -9999.0 -9999.0 -9999.0 -9999.0 -9999.0
-9999.0 1082.1 1228.5 1370.3 1404.7 1406.7 1231.7 1201.5 1327.9 1464.8 1549.6 1612.3 1689.6 1597.7 1560.3 1445.1 1421.2 1448.9 1505.2 1507.9 1336.9 1162.6 1019.6 932.4 844.3 829.2 788.3 775.2 760.1 804.6 813.9 821.4 826.5 704.9 568.9 644.6 776.8 900.1 982.3 902.6 778.0 628.7 716.8 776.2 892.9 976.7 1101.1 1109.2 1011.2 906.7 812.3 699.5 572.8 739.7 882.7 963.9 1081.9 1200.8 1126.6 1093.9 1166.9 1189.0 1236.0 1208.8 1183.2 1081.6 991.7 931.5 915.2 926.1 900.6 898.5 910.4 937.8 868.4 776.2 905.8 963.3 1016.0 1039.0 1051.0 1082.0 1038.1 1006.3 958.9 888.5 805.4 769.0 825.9 792.2 727.8 722.8 756.7 811.9 851.1 919.0 976.6 944.7 875.1 786.2 736.7 713.9 702.1 709.0 637.1 650.4 650.9 641.9 621.8 608.1 616.7 674.3 597.1 616.0 659.0 646.0 584.9 551.8 520.9 521.1 572.3 640.4 671.9 688.2 705.4 766.6 849.9 777.0 604.5 553.0 676.2 768.3 818.0 872.3 942.9 1010.6 1011.4 889.3 796.7 740.9 704.5 683.0 676.5 674.9 655.5 587.8 582.5 616.4 588.2 686.6 733.1 634.9 632.5 681.6 634.2 625.2 693.2 771.4 829.2 847.2 773.7 702.6 611.8 532.4 506.9 529.5 542.9 527.8 482.0 386.5 323.5 328.3 368.3 414.8 400.6 387.2 414.7 469.3 549.4 585.2 602.0 634.5 608.7 622.3 603.2 452.0 384.2 462.2 540.7 632.7 610.5 541.5 485.6 385.0 381.0 499.3 592.2 664.7 599.8 536.7 638.7 705.4 693.4 650.0 671.1 625.0 627.2 601.2 538.5 569.5 483.0 429.0 341.3 235.0 249.1 287.8 353.7 399.7 312.6 338.3 365.2 353.1 406.2 478.3 425.0 339.7 325.8 357.7 380.2 410.6 414.2 382.4 328.5 295.7 275.2 279.6 320.6 234.0 179.1 226.0 309.2 357.8 404.2 384.8 318.8 281.5 260.3 235.2 206.2 175.2 179.6 145.8 133.7 109.1 102.0 161.2 182.4 114.9 186.4 266.7 273.9 327.4 274.1 205.2 206.1 164.9 199.0 246.5 288.5 343.9 353.6 318.3 344.7 347.3 300.4 310.9 256.2 203.7 176.0 137.0 121.8 107.8 101.4 102.9 111.5 147.9 202.9 165.2 176.2 230.7 268.8 240.9 189.1 160.9 140.9 193.9 200.4 169.5 154.3 164.6 123.0 108.6 107.4 108.6 106.9 104.0 102.5 106.3 93.8 92.9 89.9 90.0 90.9 91.9 93.2 92.2 90.7 88.1 84.5 81.5 76.9 74.0 77.8 73.7 72.1 71.3 72.2 72.9 76.2 79.0 76.7 71.8 66.3 68.2 71.8 74.6 77.1 76.4 74.6 72.6 69.4 67.4 66.7 65.8 64.2 -9999.0 -9999.0 -9999.0 -9999.0 -9999.0 -9999.0 -9999.0 -9999.0 -9999.0 -9999.0 -9999.0 -9999.0 -9999.0 -9999.0 -9999.0 -9999.0 -9999.0 -9999.0
-9999.0 1177.3 1274.5 1342.0 1256.3 1225.6 1096.0 1127.9 1245.4 1319.8 1378.5 1475.6 1625.2 1488.8 1412.0 1299.9 1199.5 1244.2 1313.3 1377.9 1388.4 1352.6 1177.3 1046.5 1031.0 979.1 975.3 884.5 831.7 764.6 707.2 683.6 653.4 608.0 647.3 750.1 852.0 979.7 943.0 789.8 650.1 683.5 835.8 919.4 956.9 1063.2 1129.7 1072.0 1015.5 942.2 840.6 709.3 585.8 689.3 760.9 850.8 981.9 1154.3 1172.2 1181.8 1209.4 1126.3 1043.2 1056.7 1038.4 1005.1 955.5 894.8 854.7 827.3 809.6 797.1 782.8 782.1 754.6 769.0 866.5 939.8 992.6 1035.7 1086.3 1116.1 1098.5 1051.5 982.7 906.0 848.0 812.2 807.3 853.0 810.5 825.4 832.5 838.3 874.5 925.0 937.7 925.1 951.8 965.1 905.9 840.3 819.7 815.4 757.6 768.3 700.1 728.4 684.9 712.2 714.8 644.8 619.4 687.4 756.8 702.6 658.2 628.9 573.7 524.6 552.9 606.6 635.1 680.4 738.7 761.1 763.6 764.7 618.2 573.5 600.8 619.9 684.6 724.9 768.4 872.9 997.5 1006.3 863.8 786.4 709.3 735.4 710.1 691.3 622.8 651.9 726.6 648.5 634.2 746.6 775.1 701.8 656.0 740.2 742.0 692.9 729.7 720.5 737.4 809.8 712.6 651.8 689.0 635.6 596.1 523.8 458.7 409.7 416.0 334.2 357.8 428.7 463.2 491.2 428.6 466.7 452.8 485.6 525.9 578.6 627.5 648.7 591.7 529.7 498.6 434.9 407.2 486.7 587.6 636.3 560.4 453.9 373.3 372.0 441.3 488.9 591.6 600.0 654.5 595.7 633.4 697.8 634.5 585.7 677.6 653.8 608.0 627.4 645.9 566.5 441.3 342.0 247.9 250.6 358.3 375.8 355.0 388.4 327.3 329.1 372.7 415.7 412.3 446.8 413.1 331.4 388.7 437.6 451.9 418.1 368.6 338.6 361.9 354.0 302.8 291.0 302.9 219.8 191.2 246.2 322.4 429.6 456.5 394.2 344.8 321.7 286.5 256.0 245.4 208.4 158.7 142.3 127.8 103.7 151.2 238.6 239.4 141.0 127.0 180.2 254.2 315.0 294.9 253.7 242.0 190.5 179.1 199.9 236.1 287.0 365.1 374.8 342.9 280.2 260.6 284.3 248.7 223.6 174.4 136.7 119.7 105.3 103.1 129.3 137.8 182.9 226.1 197.0 165.2 211.9 267.8 264.6 212.8 166.0 191.4 210.1 171.6 138.0 129.2 130.2 113.3 111.4 117.7 146.9 119.9 108.4 111.1 133.1 120.4 120.3 101.9 92.2 92.2 93.4 96.2 95.6 92.0 89.5 87.1 84.3 81.4 80.8 78.2 74.2 74.9 78.1 78.4 79.8 81.3 81.4 77.1 72.6 67.9 70.7 74.0 76.7 77.9 78.0 75.9 75.0 73.6 70.1 68.4 68.0 67.1 64.7 -9999.0 -9999.0 -9999.0 -9999.0 -9999.0 -9999.0 -9999.0 -9999.0 -9999.0 -9999.0 -9999.0 -9999.0 -9999.0 -9999.0 -9999.0 -9999.0 -9999.0
-9999.0 1167.0 1210.2 1268.5 1264.0 1086.3 990.3 1090.4 1198.3 1315.9 1409.8 1500.8 1623.3 1466.7 1279.8 1186.8 1071.0 1047.6 1128.9 1154.9 1208.0 1268.9 1339.9 1317.6 1234.4 1130.7 1054.6 1029.2 909.8 934.3 882.6 746.9 596.2 653.0 808.7 856.0 1006.4 1043.1 901.6 746.8 664.2 795.8 808.9 881.2 1050.9 1133.0 1027.2 957.3 903.6 833.1 749.3 656.3 610.9 769.9 856.8 887.5 869.9 986.0 1164.9 1117.2 1105.1 1052.8 893.7 882.6 912.8 1033.8 955.7 898.8 898.2 903.7 889.1 865.4 798.1 718.8 720.1 784.4 795.1 818.9 846.7 896.7 922.8 974.1 1041.4 1042.7 989.3 928.7 871.4 852.6 837.5 891.1 898.7 862.7 830.2 841.3 871.8 856.5 832.7 834.8 928.3 1010.6 1051.6 1019.5 998.7 973.6 952.4 861.1 793.6 861.5 849.7 813.3 718.8 637.6 675.2 739.0 797.9 814.3 717.6 635.4 587.6 569.1 542.2 548.6 576.7 621.0 692.2 751.7 748.8 751.2 611.2 706.5 758.1 620.8 771.1 863.9 905.2 888.6 980.5 1035.7 910.6 831.0 797.0 768.4 693.0 649.6 670.0 779.1 783.5 686.5 680.5 793.4 838.9 743.0 728.8 788.2 829.7 774.1 716.9 659.8 751.2 735.9 726.9 597.4 584.7 548.4 580.2 561.4 441.2 361.6 343.9 365.1 453.6 417.7 489.4 544.4 472.2 538.0 518.7 574.0 572.7 632.4 623.7 576.8 549.6 529.6 517.8 425.3 439.2 514.2 566.0 590.9 461.7 370.4 427.6 455.1 438.8 499.9 522.8 573.1 672.0 630.8 663.5 679.9 560.7 538.0 555.3 518.8 539.1 637.6 586.3 474.8 387.9 286.7 242.1 342.4 404.0 407.3 441.5 392.8 411.6 386.1 397.5 456.8 471.5 451.1 363.8 397.4 433.5 499.6 448.8 388.0 392.3 405.1 444.1 371.2 305.4 267.6 240.1 200.2 215.0 309.7 350.8 444.5 466.6 423.5 395.4 340.2 263.1 217.3 189.1 163.6 130.4 110.5 113.9 159.2 221.8 234.3 195.6 187.8 123.2 174.5 221.2 275.1 327.8 316.5 247.8 244.6 211.9 196.3 228.3 284.9 294.7 297.0 269.2 214.5 228.0 212.0 214.0 214.7 186.4 137.8 122.3 109.3 117.0 151.9 227.7 271.9 287.5 222.1 182.5 182.0 240.3 283.9 280.7 250.1 234.5 217.8 171.4 181.3 172.5 135.6 115.3 129.8 165.3 170.0 117.1 117.0 113.6 123.1 138.5 157.9 124.8 98.8 95.2 94.5 95.1 94.1 91.3 89.0 86.1 84.3 97.3 83.5 76.8 77.2 79.8 83.0 85.4 86.2 84.7 82.4 79.1 71.9 71.2 76.4 77.8 80.1 80.1 78.8 78.3 76.8 76.0 74.8 73.3 70.2 69.7 67.3 65.1 64.6 -9999.0 -9999.0 -9999.0 -9999.0 -9999.0 -9999.0 -9999.0 -9999.0 -9999.0 -9999.0 -9999.0 -9999.0 -9999.0 -9999.0 -9999.0
-9999.0 1088.0 1120.6 1168.7 1193.9 1008.7 963.1 1130.7 1294.1 1397.3 1475.9 1492.4 1533.5 1457.0 1394.4 1289.0 1165.5 1037.0 946.0 967.0 1021.6 1101.6 1199.6 1272.7 1125.3 979.8 862.8 835.8 844.1 739.5 706.4 611.9 701.8 867.5 983.0 1062.6 1098.5 971.4 846.1 700.9 734.6 884.0 1014.1 1067.5 1018.5 994.3 901.7 786.2 766.1 708.7 643.1 650.1 609.2 704.3 722.0 743.0 822.5 931.8 1058.9 1058.0 963.9 953.7 873.9 746.6 902.3 1088.5 1096.0 1022.6 922.2 836.2 792.7 758.9 710.3 659.0 701.5 772.9 838.1 826.8 837.2 889.5 895.3 950.0 959.9 857.0 862.1 885.3 915.1 892.7 774.4 732.3 766.1 745.8 730.9 706.1 728.7 704.5 740.9 871.9 896.3 885.8 953.7 1038.8 1081.0 1081.6 1104.3 988.3 951.0 953.1 874.0 759.6 693.6 703.3 674.3 723.6 797.5 854.8 766.9 684.9 648.3 618.2 606.5 579.6 579.0 639.5 702.0 731.2 763.5 721.8 655.2 827.0 906.8 714.8 683.6 754.9 913.3 951.5 993.5 1084.6 999.5 876.7 817.2 725.6 702.6 786.1 766.9 762.4 725.6 669.4 763.0 882.1 872.7 818.4 878.2 864.9 864.4 735.0 658.6 605.9 699.6 711.7 637.3 639.2 616.7 524.6 452.7 455.3 370.1 397.3 535.9 531.0 555.8 457.4 512.6 575.0 569.0 552.3 618.6 630.5 667.4 614.5 565.1 508.6 476.2 459.9 433.5 420.8 491.0 577.5 590.0 528.1 413.4 409.5 439.3 452.5 509.8 521.9 540.3 627.1 660.8 640.8 715.9 661.4 533.5 484.2 449.8 520.5 584.3 614.9 532.9 427.9 326.4 246.0 293.0 423.7 502.6 497.1 499.3 422.3 443.9 459.9 497.9 503.8 426.1 413.8 412.7 479.7 483.7 514.9 442.6 440.1 455.2 425.3 471.6 385.7 308.7 268.4 223.4 202.8 281.4 336.5 389.1 385.5 351.0 381.9 367.8 309.5 241.8 199.0 166.5 127.7 110.3 132.0 172.8 233.7 294.8 332.9 284.2 237.3 132.9 188.9 250.8 272.7 340.3 351.4 287.0 282.1 286.9 236.0 246.6 293.2 240.8 228.2 219.9 218.5 232.4 213.2 187.2 176.4 164.1 129.3 119.3 108.1 155.3 164.9 212.2 262.3 327.0 246.9 221.9 226.7 197.4 252.1 309.7 291.8 285.2 253.2 220.2 217.1 163.4 122.7 129.3 168.5 199.9 146.9 118.6 148.7 153.7 138.7 164.4 142.2 118.5 123.1 108.2 111.9 96.9 94.1 90.9 87.7 84.9 89.8 87.3 78.9 79.6 82.1 83.8 87.2 89.1 88.0 83.6 81.8 79.2 74.4 75.9 79.2 80.9 83.2 82.3 81.3 80.9 79.3 78.2 77.1 75.9 74.0 70.9 68.0 67.1 67.2 64.8 -9999.0 -9999.0 -9999.0 -9999.0 -9999.0 -9999.0 -9999.0 -9999.0 -9999.0 -9999.0 -9999.0 -9999.0 -9999.0 -9999.0
-9999.0 961.5 985.5 1042.9 1006.6 879.5 1005.2 1141.2 1287.5 1414.2 1452.6 1338.4 1341.9 1329.7 1362.9 1362.1 1171.8 1062.9 969.3 883.4 881.2 992.6 1028.0 1162.5 1071.6 887.4 836.8 733.3 665.5 640.5 684.0 707.7 809.6 968.2 1094.4 1092.1 1031.5 912.0 840.6 703.7 786.3 938.6 1106.6 1056.0 941.1 818.4 766.7 692.5 700.1 708.1 801.0 770.0 627.2 612.3 732.8 839.6 920.7 991.7 1017.5 1020.3 965.6 809.4 696.4 691.1 807.8 939.0 924.0 913.0 899.3 837.2 758.8 665.2 600.1 721.6 749.4 777.8 850.7 902.5 854.1 924.4 934.3 936.0 891.1 769.3 736.0 802.4 771.5 812.6 716.0 630.9 640.9 663.4 652.3 601.1 608.5 685.9 796.6 862.0 828.1 783.4 879.3 904.7 939.6 1006.1 1066.2 1052.9 999.8 993.4 921.8 835.2 831.1 852.3 756.8 793.4 882.3 885.7 876.7 785.1 744.5 693.4 686.8 637.6 609.9 668.2 726.2 681.8 647.6 703.6 788.9 908.1 978.6 933.8 851.0 698.5 757.3 842.1 963.6 1045.4 892.9 837.4 791.8 838.3 851.3 812.6 762.3 763.2 734.6 740.5 808.7 885.5 948.8 917.5 832.3 825.2 821.1 728.3 704.2 582.2 603.5 671.0 620.6 653.1 611.5 532.2 394.9 375.9 419.1 507.8 518.0 569.8 608.8 500.6 607.6 678.1 681.5 637.8 666.7 636.8 580.6 539.9 486.1 464.5 495.8 473.9 494.7 529.7 597.0 559.4 480.6 423.2 394.2 482.2 517.9 510.6 487.7 547.6 619.0 634.5 658.1 682.3 671.0 642.5 630.5 578.8 442.2 451.1 471.6 517.2 465.2 378.5 290.6 244.9 324.3 416.8 515.4 594.0 555.7 534.7 552.2 560.1 572.1 488.5 525.5 529.7 469.7 572.1 621.7 566.6 547.5 545.0 516.2 495.3 481.0 442.6 380.4 299.0 220.9 218.7 342.8 406.3 354.7 285.3 248.4 270.3 262.5 264.7 257.7 178.3 141.5 115.7 146.2 175.6 190.0 234.8 298.0 348.9 267.5 208.7 156.5 167.1 247.4 307.3 312.7 360.3 363.7 356.2 362.8 330.7 303.1 311.3 277.6 300.9 311.7 323.2 321.5 293.9 263.3 208.8 164.3 128.0 118.0 129.2 228.9 214.2 206.0 246.2 324.6 265.1 314.0 289.0 247.0 281.9 275.7 213.3 212.7 248.7 201.0 173.7 156.1 124.7 158.6 208.7 209.3 142.4 121.3 143.6 168.4 205.8 183.2 155.4 174.2 144.0 144.0 127.0 97.5 93.8 91.4 89.4 93.4 92.4 85.1 81.0 82.9 86.6 89.0 91.3 90.3 87.3 85.2 81.8 78.3 77.1 79.6 80.8 84.1 87.0 86.9 84.7 84.0 80.9 79.3 76.9 75.6 74.0 72.4 70.8 68.0 67.8 67.0 64.4 62.6 -9999.0 -9999.0 -9999.0 -9999.0 -9999.0 -9999.0 -9999.0 -9999.0 -9999.0 -9999.0 -9999.0 -9999.0
-9999.0 805.2 839.3 822.4 845.0 951.0 1149.2 1282.6 1393.7 1465.2 1368.3 1215.8 1184.9 1259.6 1340.4 1441.4 1312.5 1118.9 973.5 896.2 814.9 836.5 940.9 992.6 1060.6 964.6 796.1 646.3 720.3 837.0 912.6 925.7 927.0 1054.1 1109.4 943.7 837.9 768.3 720.4 789.9 907.8 1018.8 1065.0 1006.9 862.8 736.3 710.3 831.6 922.7 928.2 900.0 776.1 671.8 619.5 742.7 868.0 975.7 1065.9 1024.0 941.4 877.8 802.2 696.3 615.4 725.3 840.6 791.1 716.8 787.4 894.8 803.2 651.6 591.9 725.6 825.1 860.6 885.0 861.4 814.6 869.0 802.0 769.0 767.2 750.9 667.2 734.9 674.5 721.2 644.2 573.4 550.9 576.6 566.3 542.0 592.6 666.9 738.7 733.0 705.5 687.1 742.1 787.7 892.5 946.1 970.9 892.4 879.2 948.2 1005.4 996.0 978.8 997.7 883.4 935.9 1027.7 975.3 968.5 910.4 827.2 767.2 744.9 701.2 687.3 718.3 709.1 634.4 651.3 682.6 721.8 834.8 936.9 1042.1 911.0 750.2 851.2 980.3 1062.7 1116.1 1058.8 1084.9 1020.3 972.5 894.6 855.6 863.7 825.9 775.7 803.1 854.7 869.9 851.6 848.6 775.5 689.2 765.1 786.0 660.4 629.4 542.5 530.0 528.7 545.7 488.1 395.4 427.1 432.4 454.1 494.4 569.9 542.5 566.4 603.6 563.8 629.0 695.6 750.9 720.2 670.8 598.4 493.5 521.2 590.6 531.5 569.1 623.1 637.3 580.0 459.4 424.0 455.6 473.4 453.6 527.9 565.3 525.9 553.4 582.8 614.9 653.5 574.5 556.3 595.1 589.2 603.0 536.3 466.3 392.4 434.9 502.3 461.1 318.9 275.6 377.6 467.6 552.8 635.2 681.1 652.3 593.5 591.2 622.1 627.7 612.6 541.3 535.9 569.7 544.0 511.7 477.3 507.7 525.0 478.8 458.5 409.1 346.1 256.4 212.5 263.3 328.0 389.6 354.0 282.2 232.6 211.4 195.3 177.4 144.2 131.6 133.5 146.1 178.9 208.9 255.8 279.0 328.9 324.4 259.4 277.6 228.7 146.6 201.8 223.8 264.4 294.3 370.2 445.0 448.7 461.0 425.7 363.7 329.8 287.6 241.9 259.6 278.7 242.5 209.8 186.9 145.5 123.1 113.7 210.7 258.4 277.6 309.4 248.9 338.6 343.6 366.7 338.6 339.5 340.2 287.9 277.0 199.4 205.3 198.8 157.7 134.5 164.1 204.3 230.1 191.3 158.5 127.7 164.8 191.4 186.5 219.9 191.2 186.2 188.5 160.3 126.5 97.2 98.0 99.8 108.2 115.8 96.1 87.5 85.3 86.1 88.8 92.4 93.5 90.4 87.4 84.8 82.5 83.9 85.4 85.4 86.5 88.7 89.9 89.0 87.4 85.8 82.4 79.0 78.5 76.7 76.3 75.0 72.5 70.4 67.9 66.4 64.7 63.9 63.0 53.8 -9999.0 -9999.0 -9999.0 -9999.0 -9999.0 -9999.0 -9999.0 -9999.0 -9999.0 -9999.0
-9999.0 755.5 741.8 851.3 997.3 1119.1 1211.3 1258.4 1325.0 1396.2 1310.9 1159.3 1121.9 1223.3 1321.5 1412.9 1336.2 1224.7 1127.0 983.2 860.8 760.4 777.0 822.3 852.2 856.0 690.4 726.8 858.3 948.3 1048.6 1121.2 1143.6 1154.5 1067.0 949.1 816.2 748.7 868.0 979.0 1055.7 1131.8 1019.2 873.7 762.4 776.9 834.4 912.1 1065.0 1071.6 945.8 851.0 704.8 658.1 735.6 817.1 902.2 1032.3 1116.0 998.9 900.7 793.7 700.0 598.6 582.1 685.8 770.9 671.8 741.0 706.1 607.6 520.5 527.4 653.8 694.9 698.2 739.7 680.6 696.8 800.7 733.2 649.0 655.0 716.6 628.1 626.0 629.4 694.3 660.7 589.7 527.4 499.9 497.6 547.2 602.9 666.9 676.0 642.8 609.4 603.1 671.7 752.2 820.2 894.9 937.1 836.2 768.6 886.4 983.6 994.9 900.8 942.8 1001.6 1018.7 1057.4 1055.7 914.8 851.1 795.4 777.2 739.1 706.7 699.2 704.8 691.1 697.5 710.9 777.6 735.4 753.8 824.6 945.0 970.3 800.8 934.5 1040.9 1081.8 1084.6 1074.8 1152.2 1144.4 1101.1 994.1 927.9 872.9 852.9 836.1 751.5 729.3 726.9 759.0 718.3 744.0 624.4 657.5 738.7 691.0 682.1 622.7 517.5 474.2 481.9 398.4 471.0 602.1 572.3 522.2 606.9 711.3 665.4 553.2 646.6 627.7 669.7 751.6 736.6 673.0 611.7 535.2 536.3 644.5 615.6 576.0 675.1 686.5 603.7 495.0 443.3 523.9 543.5 540.5 496.0 487.0 541.6 605.5 575.2 580.3 656.4 638.2 569.4 531.6 485.6 492.0 541.3 575.6 543.5 417.2 348.9 406.3 395.9 278.9 306.5 392.9 484.8 569.1 616.7 600.7 585.7 528.3 577.1 651.7 677.5 608.0 602.0 596.0 490.7 416.0 400.3 439.4 474.8 413.2 420.5 417.1 397.2 309.2 221.2 283.2 386.8 453.9 435.7 379.5 332.3 288.1 281.1 259.0 205.5 135.2 164.0 190.6 221.2 252.0 258.1 275.6 332.7 372.9 333.2 336.5 312.5 222.5 156.3 236.9 246.7 316.6 364.1 379.6 452.9 445.5 452.3 463.4 439.8 368.8 303.9 255.7 209.6 196.9 196.4 204.6 162.9 136.9 118.3 121.1 181.6 270.2 339.9 360.4 299.2 363.2 420.7 334.5 261.3 258.1 251.2 269.7 269.3 193.7 161.7 146.0 165.5 166.1 183.1 249.5 214.3 166.0 143.6 142.7 150.3 165.5 202.4 214.2 161.8 144.7 143.8 120.9 105.6 101.8 106.3 112.1 131.8 114.5 111.1 98.2 90.6 91.1 93.8 96.1 96.1 91.5 88.9 85.7 87.6 91.9 94.0 93.9 93.0 92.9 91.7 89.5 88.5 86.6 83.2 82.3 77.6 65.0 61.9 61.4 64.0 69.3 71.7 68.9 65.9 61.0 51.3 47.8 61.6 63.7 63.8 64.2 -9999.0 -9999.0 -9999.0 -9999.0 -9999.0 -9999.0
-9999.0 844.3 873.5 949.0 998.0 1060.0 1054.2 1070.7 1174.9 1273.5 1191.7 1083.9 1010.7 1102.3 1224.0 1268.0 1313.5 1318.9 1232.3 1092.1 965.2 892.2 800.7 754.0 718.6 686.9 681.1 821.8 931.8 1005.7 1096.5 1239.7 1180.2 1003.2 925.4 806.3 765.1 847.7 968.4 1074.0 1156.1 1116.8 961.4 836.1 780.8 912.5 1035.9 1083.3 1104.9 1030.1 918.6 782.7 650.4 721.9 773.4 839.3 922.6 993.6 1044.3 953.0 877.9 798.0 694.2 606.0 522.9 565.6 697.1 672.2 593.1 570.7 553.1 478.9 423.5 513.0 516.6 577.6 574.5 536.8 663.1 802.0 752.1 648.4 599.3 673.4 630.3 556.1 582.5 635.7 644.3 628.7 584.1 513.8 481.1 554.7 616.1 639.0 609.4 570.7 548.0 602.6 678.4 688.2 767.4 813.2 804.9 715.6 752.6 878.9 935.1 819.0 732.7 831.3 941.0 952.8 876.3 952.7 986.3 898.2 893.2 904.2 803.3 767.7 719.1 701.1 770.0 831.2 760.3 840.5 884.3 884.4 924.8 929.2 937.1 849.6 879.1 923.4 958.7 1006.7 1073.9 1063.4 1103.5 1133.7 943.5 848.1 773.1 737.4 694.6 642.0 629.7 619.3 605.7 590.3 635.7 551.2 516.8 527.8 511.7 499.2 485.4 446.4 424.3 427.1 412.6 527.4 649.5 687.2 655.0 670.1 742.6 691.9 578.8 642.5 697.4 730.9 767.9 709.5 645.7 583.2 535.5 627.4 702.3 633.1 685.7 718.9 620.7 542.0 464.6 519.8 575.8 673.0 658.6 595.7 540.6 573.6 618.0 692.4 689.0 689.4 611.1 597.7 607.0 541.9 455.3 424.2 439.9 504.8 487.6 395.6 338.8 312.2 259.9 308.0 397.6 461.5 514.2 542.7 511.7 474.3 491.4 558.0 652.2 621.4 507.1 481.4 521.2 454.7 353.0 395.0 401.1 352.7 361.8 348.0 322.6 265.1 237.1 253.3 317.4 372.4 464.3 530.3 442.4 366.4 306.6 249.2 208.7 169.2 138.1 185.0 218.9 245.9 284.3 332.6 349.9 368.0 347.1 270.9 267.4 292.7 209.7 167.5 263.2 324.5 324.4 402.5 464.8 456.4 389.3 341.1 337.8 380.6 414.3 380.0 317.9 286.0 244.2 199.6 183.8 156.0 128.9 114.5 154.3 229.2 199.0 301.2 375.0 403.0 376.6 409.4 389.4 334.4 278.9 221.0 192.0 215.0 169.5 155.0 168.7 236.3 235.9 246.3 270.4 205.1 158.6 175.0 209.9 164.1 169.2 215.4 241.9 219.6 190.4 166.9 136.6 109.4 106.6 134.9 155.0 139.7 105.9 97.9 104.8 93.7 95.9 98.9 102.3 98.6 93.7 88.8 89.4 109.0 98.8 99.6 98.5 96.8 95.3 92.6 89.5 86.2 84.3 83.4 83.0 64.7 67.3 75.7 72.3 63.8 54.1 53.2 55.2 50.1 46.2 56.3 63.1 64.2 66.6 65.3 64.1 64.6 -9999.0 -9999.0 -9999.0 -9999.0 -9999.0
-9999.0 706.2 733.7 778.3 833.5 891.2 883.6 931.6 999.4 1054.9 1063.0 960.0 908.6 984.9 1057.1 1089.0 1138.6 1181.5 1113.9 1107.1 1126.6 1049.9 900.5 750.1 662.9 714.6 824.1 843.1 826.3 926.7 1067.1 1213.9 1160.0 981.1 804.7 875.4 949.4 931.0 1081.7 1222.1 1244.1 1086.5 946.2 808.9 842.4 977.0 1120.1 1042.9 926.5 888.5 871.7 715.8 668.8 809.1 881.2 896.8 934.5 968.9 984.5 900.6 821.2 729.6 628.4 535.9 505.7 630.2 740.0 690.5 638.8 641.9 651.1 553.3 423.5 384.8 409.3 445.4 476.9 579.3 645.7 751.1 769.0 678.4 577.1 632.2 637.9 566.7 542.3 590.8 552.7 579.2 548.5 488.7 470.9 536.3 592.0 586.9 544.1 510.3 548.4 618.7 685.1 651.7 630.9 705.2 645.6 693.7 818.6 867.1 781.1 701.6 668.7 795.0 832.3 761.5 749.1 857.6 957.5 1003.0 1013.5 951.8 882.1 806.7 759.7 744.5 808.8 903.3 851.4 900.8 943.6 941.3 997.4 1078.9 977.3 993.8 951.8 967.7 997.0 1019.0 1010.6 1034.6 1106.7 1153.2 1023.2 922.9 853.2 775.0 729.9 796.0 775.3 728.2 695.6 639.8 534.6 541.3 561.3 608.0 574.5 554.0 510.0 525.0 587.1 520.4 435.4 499.2 550.1 617.1 689.0 792.4 699.1 621.2 638.8 715.9 745.1 761.7 707.4 657.4 608.5 565.4 653.1 717.9 786.8 745.3 793.4 744.1 637.6 546.1 518.6 647.5 657.1 632.1 649.1 649.5 614.4 649.8 693.9 736.5 715.8 611.3 559.9 514.8 499.6 506.6 490.3 436.3 367.4 425.7 479.9 426.2 377.8 299.0 274.2 326.8 327.9 369.9 409.3 441.4 435.0 458.9 559.4 631.3 645.8 584.1 507.9 406.4 399.5 369.1 308.1 286.0 274.9 263.3 264.5 252.0 242.6 274.8 345.9 373.5 382.0 466.2 487.6 470.3 389.2 364.5 325.7 282.5 192.7 140.7 160.5 217.0 265.9 303.5 324.0 357.1 365.1 307.6 243.9 215.7 192.2 201.6 197.0 171.9 271.3 329.8 369.3 418.9 465.4 466.9 432.9 367.2 298.0 265.1 297.6 319.6 329.4 315.0 268.3 218.8 173.7 144.5 124.2 114.7 180.3 286.5 238.8 240.0 332.0 379.2 340.0 355.1 388.5 295.7 293.3 223.2 178.2 180.1 192.0 217.2 218.7 246.4 313.4 312.1 235.0 178.7 162.3 162.4 199.0 211.2 221.5 257.2 214.4 189.4 179.8 141.8 119.5 112.8 116.4 144.4 174.7 137.2 108.8 100.4 95.3 97.4 101.0 103.5 103.6 100.3 95.2 88.1 91.2 98.0 98.6 100.9 99.9 96.6 96.0 93.1 91.1 88.5 86.7 85.8 80.1 64.1 81.5 79.8 78.8 76.6 75.1 71.5 65.2 65.8 56.4 68.9 67.5 66.5 67.9 67.2 64.9 64.3 63.7 -9999.0 -9999.0 -9999.0 -9999.0
-9999.0 640.2 655.2 687.2 752.6 785.1 808.3 839.7 876.2 895.7 935.8 894.7 848.0 867.8 901.4 938.0 968.9 1051.2 1077.0 954.2 976.5 997.9 831.7 685.6 757.1 844.9 887.1 948.2 886.9 925.7 1027.1 1139.6 1031.2 906.2 831.9 955.5 1099.3 1009.4 1098.3 1258.4 1194.6 1037.2 909.3 846.6 938.8 1061.0 1158.1 1088.5 945.9 816.2 751.9 665.5 720.9 787.2 879.7 951.7 1001.2 886.9 860.6 858.7 792.5 684.6 593.7 506.1 517.5 650.4 655.5 617.7 524.7 499.3 496.1 515.0 430.6 339.7 392.6 455.2 550.5 665.3 765.3 740.0 665.4 627.4 550.0 583.1 599.7 646.1 634.4 579.3 514.3 518.6 509.0 451.5 462.2 524.1 570.9 551.4 493.1 508.9 569.2 620.7 659.7 629.4 561.4 591.5 607.5 744.5 835.2 853.5 726.6 606.5 670.6 798.3 745.7 665.0 705.2 774.0 848.1 937.7 1034.5 991.1 868.4 836.0 830.7 811.6 849.9 950.1 987.7 983.5 1040.1 1056.5 1028.9 1050.6 1094.7 1096.4 1067.6 1073.1 1023.6 1067.4 1043.8 1060.0 1092.3 1123.3 1158.8 1091.6 992.2 911.8 887.3 830.1 759.0 682.6 626.0 564.7 560.3 698.9 668.2 748.1 689.1 679.9 742.7 721.1 610.1 516.6 461.5 523.1 636.2 747.2 821.9 792.1 676.1 671.2 692.3 761.0 836.9 769.5 716.4 654.9 608.9 635.0 761.1 760.0 814.9 834.5 763.5 679.1 614.5 563.4 519.0 609.7 588.0 636.0 655.1 691.5 721.3 762.6 775.3 767.0 759.8 693.4 652.2 590.5 519.9 450.6 414.3 391.5 371.1 340.6 368.0 334.9 286.0 282.4 343.6 402.3 359.5 394.1 432.2 433.1 478.9 552.0 582.7 569.0 585.1 529.8 429.2 405.7 308.9 282.6 344.2 387.7 382.6 379.9 401.9 372.4 331.9 343.7 404.8 463.2 478.0 540.5 529.4 472.9 366.0 267.0 270.4 208.5 144.9 174.0 210.1 251.8 305.4 369.0 391.8 350.7 255.1 203.2 218.7 246.2 245.8 204.0 192.5 224.2 224.2 238.5 297.2 341.8 386.5 453.1 459.4 402.5 338.6 280.1 239.2 222.8 236.4 263.9 264.6 190.2 142.5 128.5 118.2 137.3 237.7 310.8 302.8 259.1 323.0 358.0 289.5 299.6 356.9 301.2 227.5 195.7 282.3 270.1 234.6 294.9 313.4 341.1 339.2 264.3 196.4 175.0 238.8 213.7 188.4 241.7 283.1 239.1 213.6 176.5 146.9 125.8 119.8 128.0 166.9 197.8 170.1 129.9 142.7 129.4 112.9 107.7 106.7 106.1 103.2 99.7 93.1 93.2 97.7 100.7 101.5 102.1 100.1 90.2 79.5 75.4 74.8 74.2 70.3 71.0 65.3 67.0 80.7 82.5 79.7 77.3 75.2 72.6 70.3 67.9 53.5 63.5 69.3 68.4 69.3 68.1 64.8 63.8 63.7 63.5 -9999.0 -9999.0 -9999.0
-9999.0 840.2 816.3 742.0 684.0 703.2 737.8 761.9 781.4 820.1 877.6 883.5 871.4 822.1 825.5 851.7 874.1 902.1 970.6 931.2 819.8 806.3 710.6 770.7 907.7 994.5 1070.5 1045.5 960.6 1006.7 1065.4 1083.9 988.2 844.5 912.6 951.7 1001.9 1113.1 1144.9 1234.3 1134.5 1022.7 894.9 940.1 1088.6 1155.3 1156.5 1008.2 906.4 881.7 741.1 746.5 882.3 921.1 947.5 995.3 892.0 779.6 749.2 758.8 837.7 837.4 738.3 606.9 456.3 494.7 509.0 537.4 525.6 435.4 387.5 397.7 354.2 325.0 407.1 490.9 573.8 679.2 770.6 718.1 628.4 560.8 547.5 503.5 511.2 572.3 622.0 626.2 554.8 478.5 506.1 452.7 459.4 527.7 565.7 515.3 463.7 518.2 560.3 596.5 591.8 560.4 511.9 537.6 623.8 723.9 787.0 799.2 733.4 596.8 598.3 693.2 704.0 615.7 722.4 799.6 856.7 917.2 944.6 937.7 914.2 931.4 948.1 938.8 931.0 936.7 962.1 1010.2 971.7 1006.5 1013.8 970.2 1006.0 995.2 1063.3 1072.5 1075.7 1096.8 1097.1 1077.0 1117.1 1140.9 1094.8 1008.0 992.7 940.7 927.1 866.7 815.8 777.8 685.9 575.2 627.3 769.6 819.2 845.9 853.1 784.0 718.6 607.3 586.3 581.7 476.2 548.0 640.5 741.5 833.5 746.6 719.6 788.3 810.5 822.6 850.1 774.3 710.3 650.5 602.2 641.3 652.7 696.7 733.4 820.0 774.9 714.5 665.8 545.4 571.1 615.9 634.2 652.9 692.3 758.0 794.5 742.1 691.5 683.3 700.9 682.2 664.8 623.9 545.9 471.3 446.7 434.1 373.9 302.3 282.6 284.8 320.3 336.7 369.3 432.2 435.0 417.5 459.4 499.9 544.1 604.1 606.8 510.2 444.3 424.5 371.1 298.6 323.3 409.5 470.1 532.8 501.5 491.5 516.7 475.5 389.8 321.3 418.3 510.2 466.4 427.5 404.1 408.7 358.8 247.4 180.2 151.6 161.0 211.5 258.4 314.4 370.6 401.5 359.9 257.9 217.6 287.1 342.5 365.7 298.4 223.3 216.8 273.3 293.1 240.6 248.3 300.6 363.6 363.0 395.6 418.5 384.2 341.1 296.3 251.0 217.8 190.1 173.0 146.9 143.4 150.4 132.6 134.0 196.4 295.5 364.7 364.6 404.9 352.8 336.9 259.0 252.3 235.2 215.4 201.2 290.0 347.0 345.9 349.6 392.0 372.4 291.2 223.9 196.6 210.5 223.8 252.3 247.5 284.5 277.3 199.4 178.4 173.5 137.2 127.3 162.5 156.9 155.8 206.7 185.7 193.6 183.4 158.4 135.9 118.4 111.5 106.8 102.5 96.9 96.9 102.8 103.0 104.9 105.4 94.0 83.1 84.6 92.1 92.3 93.7 92.5 89.7 87.2 84.2 74.6 100.4 94.3 76.2 74.3 74.0 71.8 70.5 69.9 65.6 54.2 64.1 71.1 70.9 68.6 66.9 65.0 64.8 63.6 63.5 -9999.0 -9999.0
-9999.0 987.2 967.0 862.0 790.7 773.9 802.9 823.0 833.5 858.8 854.4 819.5 827.6 816.9 774.9 782.8 812.0 792.4 810.4 771.3 708.8 720.8 805.5 837.7 893.7 972.1 992.3 1000.0 1056.0 1028.5 934.0 944.7 883.9 866.3 938.8 1024.2 1123.5 1138.1 1253.1 1204.5 1079.4 962.6 908.3 987.1 1136.2 1205.2 1063.2 951.5 838.3 741.9 721.9 860.2 959.4 1041.0 1135.7 1141.4 963.3 826.8 678.4 663.1 736.6 757.5 735.3 647.3 572.8 531.0 467.5 429.9 391.0 365.4 397.2 356.4 314.3 349.8 477.6 518.9 574.3 639.9 693.6 649.0 581.1 531.4 523.5 558.2 501.0 466.9 494.3 523.0 547.1 487.0 457.6 434.8 444.3 513.2 541.3 488.8 439.7 491.2 526.0 557.7 534.3 486.0 491.3 571.6 687.8 784.9 764.4 678.6 651.3 602.9 538.6 572.2 596.2 551.0 635.3 752.9 809.3 825.1 784.9 843.2 912.8 839.4 929.4 924.6 872.3 866.7 904.3 881.9 863.2 932.4 919.8 828.4 842.5 843.1 943.0 1001.4 962.5 980.2 1029.0 1093.3 1085.5 998.4 994.0 934.7 894.2 846.3 804.0 771.9 763.5 784.6 734.0 610.1 646.1 736.8 863.7 920.9 842.7 745.5 700.3 746.4 643.7 527.1 490.7 563.2 625.2 726.0 741.8 765.3 864.3 928.9 950.6 945.7 862.9 781.8 700.4 630.2 698.1 779.3 695.8 769.2 832.3 776.9 691.7 647.6 583.8 584.9 592.4 671.2 713.9 766.3 794.5 817.2 821.9 764.5 659.5 587.3 587.5 588.9 580.2 550.4 521.7 451.4 376.2 346.8 298.5 314.9 337.6 389.5 447.7 419.9 393.1 431.7 477.2 520.1 534.7 491.5 541.3 610.7 526.7 497.8 442.1 361.7 297.9 327.1 434.7 525.3 583.0 560.7 514.3 476.3 442.8 414.0 371.8 358.5 440.7 446.6 383.9 352.7 301.8 269.6 224.6 174.3 159.5 193.5 221.6 252.5 322.7 389.3 439.0 371.7 276.4 243.9 329.1 380.9 431.8 406.3 296.9 220.6 249.0 298.8 345.6 283.8 286.4 313.8 317.3 271.6 315.3 330.4 365.6 382.0 354.0 291.8 249.5 199.2 154.1 186.5 232.3 179.1 141.9 140.6 192.0 250.9 311.9 351.2 384.6 421.6 365.2 300.4 269.0 275.9 315.4 239.0 230.2 273.7 306.9 295.0 352.2 377.0 298.9 251.7 278.3 311.8 301.2 327.1 343.9 307.0 242.4 200.1 174.8 135.0 134.4 153.2 202.3 237.0 204.9 218.3 210.4 200.0 200.2 170.6 133.8 119.4 112.6 107.7 101.4 98.2 106.5 108.2 109.6 106.9 91.6 86.5 101.5 103.5 100.6 98.5 96.1 95.4 94.5 89.3 76.0 97.6 101.6 78.6 74.7 74.5 77.3 80.9 78.0 91.1 86.6 89.5 56.8 66.4 71.9 72.0 70.0 67.6 64.7 64.0 63.6 -9999.0 -9999.0
-9999.0 1123.9 1052.0 939.7 1009.6 905.8 940.8 948.7 970.4 929.0 882.2 834.3 788.4 769.4 784.9 766.3 748.4 742.3 716.9 717.4 785.9 880.7 936.9 929.0 918.7 878.3 844.1 887.9 983.1 1049.2 947.0 858.2 868.5 971.0 1041.8 1093.1 1156.5 1213.2 1215.2 1081.0 1021.2 973.1 969.6 1041.3 1110.3 1048.0 998.0 894.1 809.8 810.8 758.1 885.4 988.7 1072.2 1145.3 1084.1 977.5 837.1 744.1 629.4 563.1 579.6 602.6 603.7 578.3 552.1 518.1 428.6 400.1 471.5 512.3 469.5 385.3 300.1 408.2 442.1 545.9 570.8 574.6 650.8 616.0 570.2 521.0 492.0 507.7 505.9 441.8 470.2 476.8 465.2 426.6 411.7 481.8 527.5 544.0 488.6 426.2 446.0 492.7 536.1 490.5 448.7 515.1 571.4 634.8 662.7 682.4 645.5 557.3 586.7 524.1 516.7 573.2 517.3 563.4 644.1 660.0 694.3 630.4 676.2 735.9 688.1 809.5 845.9 767.2 794.4 811.8 785.9 882.5 948.6 874.7 822.3 748.1 809.6 858.2 865.4 820.2 866.0 963.2 947.3 897.3 848.3 832.2 836.0 790.1 780.1 803.9 787.6 711.1 696.2 642.1 605.2 675.2 776.7 858.2 927.7 864.9 834.2 762.9 670.0 570.6 557.7 668.2 584.4 571.8 637.2 686.5 774.7 849.0 901.5 1002.5 965.4 867.1 719.9 670.2 739.3 704.7 768.3 786.3 757.3 832.5 850.6 739.1 606.9 699.9 714.6 610.7 643.5 680.6 761.7 837.1 900.4 821.2 759.0 683.3 582.7 502.9 515.2 505.3 468.3 432.1 392.8 317.6 316.6 356.2 420.9 391.5 442.1 530.7 519.4 540.3 487.8 517.8 563.8 579.3 560.7 628.5 591.8 495.7 427.4 374.4 305.7 329.3 429.5 490.0 563.5 590.5 569.4 626.5 596.0 509.3 447.7 470.3 496.6 447.9 391.8 366.2 298.3 250.3 188.1 178.6 192.1 215.5 285.9 289.4 320.8 350.0 354.2 339.6 273.4 264.9 346.6 406.7 460.7 469.2 392.9 309.2 231.9 289.1 372.9 410.1 382.9 385.0 380.5 296.9 232.2 227.8 240.8 292.1 288.9 281.7 241.5 178.2 155.9 181.8 250.0 260.0 208.5 159.9 135.8 156.4 205.2 246.3 270.3 320.4 378.3 399.7 347.2 329.0 370.3 396.2 339.8 246.6 263.7 283.6 275.5 322.9 372.2 319.5 318.1 303.9 300.0 302.5 323.2 302.0 229.7 215.8 171.9 139.7 162.0 188.9 199.0 219.8 286.1 269.7 206.3 172.2 159.1 168.8 146.8 121.7 115.2 113.9 110.8 113.5 125.4 115.0 113.7 108.0 92.7 95.3 102.6 104.4 105.0 103.2 101.3 99.4 93.7 87.4 80.8 101.4 104.3 83.1 80.6 83.6 75.1 79.1 94.6 100.3 106.8 135.6 109.9 71.1 56.3 72.9 73.2 71.4 71.5 66.7 64.3 63.4 -9999.0 -9999.0
-9999.0 1138.2 1106.0 1049.0 1138.5 1070.5 1112.6 1145.2 1091.1 1003.2 996.6 890.9 828.6 814.9 888.9 877.1 782.4 726.0 770.5 877.5 859.8 904.9 804.9 773.3 772.0 702.5 715.0 839.6 988.9 987.3 897.9 900.3 920.3 964.3 1011.3 1053.6 1135.5 1221.7 1212.8 1220.4 1197.7 1148.7 1097.9 1145.5 1145.4 974.0 919.4 887.3 925.6 885.4 749.4 812.6 910.0 1028.7 1047.9 928.9 831.9 790.5 684.5 685.8 625.8 537.5 486.8 466.6 439.6 430.1 400.0 377.3 465.2 518.4 461.3 432.7 365.0 293.8 353.7 381.5 456.9 480.9 598.7 648.6 684.4 639.5 594.5 552.1 482.2 526.0 430.3 466.6 425.4 419.2 394.6 459.6 517.3 504.3 518.7 482.1 425.9 411.2 462.2 497.7 461.0 421.3 500.3 527.1 534.9 523.3 549.0 552.0 507.9 512.5 468.3 507.9 489.6 483.5 541.0 556.3 593.2 648.0 561.1 572.6 590.9 619.1 645.7 713.0 631.2 689.9 655.4 758.2 890.0 958.0 841.5 718.4 755.5 843.3 766.6 719.2 760.3 846.0 949.2 1004.6 940.7 874.6 803.1 788.6 770.1 728.6 703.6 703.5 679.4 689.7 614.6 710.7 828.6 931.1 1008.2 902.6 824.9 751.6 688.3 610.0 562.5 702.3 809.7 680.1 633.5 732.6 779.5 837.2 862.2 903.4 985.1 967.9 826.5 723.4 808.1 858.4 810.5 809.3 872.7 878.5 824.2 764.1 662.9 674.1 804.0 692.5 691.8 773.4 793.8 799.0 875.0 832.6 742.1 636.7 665.9 579.5 483.7 445.2 429.8 373.8 334.5 322.6 344.6 389.5 403.6 460.1 483.3 463.9 498.2 576.5 646.2 594.2 515.5 511.0 532.9 578.3 549.8 522.6 514.6 458.5 346.6 315.1 404.1 402.0 453.5 543.5 609.8 643.3 690.9 625.0 588.3 548.4 509.7 449.4 380.5 312.4 315.7 243.6 185.9 221.7 280.1 334.0 385.1 382.1 385.6 348.8 324.3 333.4 294.5 264.3 324.1 381.6 456.9 493.9 428.1 365.8 309.6 242.8 289.2 353.9 423.1 428.1 390.4 374.5 327.4 290.8 235.9 196.5 222.5 196.8 197.5 171.4 187.0 232.0 233.7 271.9 294.9 247.1 201.0 148.2 143.5 155.5 197.0 255.5 275.6 307.1 352.1 356.9 390.6 442.6 423.1 387.6 280.0 258.9 342.9 365.3 373.1 431.3 388.0 341.1 295.9 250.5 219.3 238.8 228.0 196.4 154.1 166.8 185.7 222.0 242.5 270.5 284.6 260.5 245.3 225.1 223.5 186.2 147.3 126.6 119.6 130.6 156.8 151.3 134.7 122.8 117.2 107.7 96.4 107.0 114.2 113.4 111.5 109.2 107.0 101.8 87.0 89.2 99.5 123.9 121.0 95.1 94.9 107.3 102.7 81.0 94.4 114.9 125.5 158.2 149.6 95.1 78.0 63.9 63.8 75.9 73.5 72.3 70.1 66.1 64.1 -9999.0 -9999.0
-9999.0 1133.1 1141.3 1120.4 1165.7 1209.4 1191.9 1192.3 1131.3 1108.9 1056.3 939.5 846.0 883.4 898.2 823.6 740.0 736.3 745.5 729.3 748.1 717.6 650.5 617.0 613.2 568.0 701.5 808.3 903.4 1027.2 934.2 940.4 1018.6 1095.6 1176.8 1198.9 1237.8 1159.5 1145.3 1198.0 1265.4 1291.9 1286.1 1284.8 1266.7 1167.3 1121.1 995.4 873.5 780.4 797.6 891.7 899.5 996.9 865.3 768.2 737.1 734.8 703.0 655.3 560.4 512.6 496.0 445.0 420.0 397.7 382.6 474.8 553.0 460.5 339.2 290.4 304.6 392.2 498.1 469.8 404.8 488.9 502.4 577.4 665.1 619.8 628.0 598.3 502.4 492.1 471.3 425.2 400.1 389.6 403.8 496.1 463.1 477.4 511.3 507.7 444.6 394.0 436.3 428.0 423.9 401.1 452.3 459.5 441.7 433.9 434.1 466.6 449.5 442.9 442.1 439.3 455.4 483.9 486.6 495.4 544.4 583.2 533.7 500.2 513.6 594.7 569.7 587.8 530.5 552.0 650.6 788.5 837.2 890.2 756.4 647.5 755.5 709.8 694.9 799.1 855.1 918.7 951.4 953.1 903.9 908.5 944.2 897.4 859.5 831.7 804.0 804.7 820.5 788.5 671.8 779.1 811.5 853.4 971.8 1017.9 877.0 771.2 740.7 592.9 662.4 804.0 854.8 777.0 699.2 714.9 787.2 824.7 864.8 872.4 931.9 938.5 823.0 801.1 854.1 975.4 928.0 865.4 943.4 916.8 785.9 713.5 750.3 735.3 857.2 742.1 714.3 801.7 903.0 882.3 807.3 717.7 631.5 554.6 534.7 531.5 478.5 396.2 359.7 361.4 395.5 427.5 445.9 471.8 459.9 483.2 526.6 567.4 557.9 585.4 580.3 490.5 457.7 515.4 480.2 502.0 474.0 464.6 435.7 403.1 313.0 357.8 431.7 460.8 455.8 519.4 559.6 573.7 613.2 599.5 492.6 435.1 386.2 415.0 368.4 272.3 196.0 204.2 247.7 317.3 395.1 477.1 519.8 501.0 378.1 342.5 373.0 382.6 324.9 275.2 337.8 400.7 441.7 481.2 424.1 376.1 311.6 250.7 301.7 362.5 426.5 385.3 315.5 283.5 254.1 267.6 239.7 189.1 176.3 177.8 178.1 206.8 216.6 276.1 307.0 287.0 240.9 209.9 168.2 162.9 156.3 139.6 157.0 189.7 238.4 306.6 286.0 265.8 332.8 415.7 407.0 323.5 267.0 315.2 401.2 460.5 461.5 414.0 351.4 298.3 265.2 255.3 236.0 182.4 173.7 213.9 207.9 250.1 287.8 284.0 287.5 234.7 218.3 212.6 175.9 165.9 175.7 171.2 137.6 125.4 134.3 152.4 188.2 178.1 136.6 120.8 104.7 107.0 117.9 121.5 119.8 117.6 115.8 114.0 112.9 98.2 98.1 112.1 121.4 138.4 119.3 105.1 109.7 129.5 109.7 90.4 112.3 144.8 173.3 179.5 125.8 86.5 79.6 65.2 63.9 77.7 77.5 74.0 70.3 68.1 65.0 -9999.0 -9999.0
-9999.0 1013.4 1110.7 1166.4 1163.8 1162.7 1151.4 1049.9 1023.5 1069.8 1095.1 1017.2 916.9 874.9 845.9 765.8 767.6 819.0 662.9 550.1 544.3 537.4 627.8 488.5 464.2 527.0 662.9 788.7 928.2 1031.7 1008.2 1079.1 1025.1 1002.7 1060.6 1100.2 1137.1 1092.5 1151.4 1148.2 1201.0 1137.8 1189.5 1161.7 1233.1 1150.8 1032.1 960.7 862.8 784.5 896.3 996.0 994.9 1000.7 878.2 796.3 691.7 609.9 610.9 613.7 570.5 488.9 487.7 557.7 522.4 436.9 466.7 577.4 515.0 412.2 278.1 352.8 458.1 496.3 601.8 555.4 449.9 482.0 559.2 640.7 659.0 598.6 536.2 561.0 524.5 449.3 497.7 400.4 373.5 362.4 421.4 462.7 419.9 463.4 497.7 532.7 496.6 385.1 436.0 389.7 382.4 379.5 398.4 413.0 393.2 390.1 408.3 419.5 405.7 403.9 399.8 390.5 413.7 459.8 420.8 457.0 471.5 490.6 490.2 467.6 512.1 513.6 552.7 512.9 481.1 544.2 601.7 681.7 708.8 801.9 656.2 604.9 609.9 660.9 816.9 875.3 950.6 953.9 954.7 926.5 847.0 804.0 898.1 986.1 1004.5 1014.4 992.9 938.3 840.7 781.7 765.2 839.6 940.9 989.4 1036.0 974.4 853.5 811.2 756.1 610.1 679.1 778.6 890.2 931.0 862.7 803.5 852.6 877.6 935.4 915.7 949.4 907.6 868.5 939.5 946.3 1022.0 1074.1 1050.3 1038.2 931.3 814.4 798.9 895.3 808.4 860.2 818.2 778.8 811.0 880.7 831.3 721.7 604.1 542.7 528.0 454.9 402.8 376.6 392.2 438.7 485.2 498.7 567.9 545.3 567.8 540.5 567.4 587.7 613.3 569.1 485.4 440.5 401.1 394.7 398.3 409.4 408.6 387.4 347.4 332.0 323.5 346.8 444.1 448.1 484.2 429.6 411.2 440.6 473.2 541.3 548.3 534.9 440.6 386.5 316.5 263.2 195.7 242.1 312.2 343.6 384.6 476.5 528.3 489.7 412.1 377.4 400.1 429.6 398.3 349.3 284.8 333.6 374.2 418.0 432.5 373.8 333.5 288.4 262.0 308.2 357.9 409.6 355.0 285.6 244.1 225.9 209.7 188.3 187.4 220.2 217.0 251.8 256.5 284.6 281.5 233.3 222.0 199.0 182.8 215.0 197.3 147.1 144.4 155.0 191.5 251.0 272.0 210.9 251.3 310.5 338.8 359.3 352.0 301.0 324.6 407.9 475.4 454.8 395.4 334.0 281.0 231.8 196.7 188.5 196.0 217.5 268.5 323.2 330.2 305.9 257.9 205.2 195.2 198.3 181.8 191.3 196.1 188.9 165.4 134.5 130.8 179.6 198.4 174.8 141.2 130.3 107.7 119.6 127.3 127.4 125.7 124.8 123.2 123.8 127.7 118.0 100.8 141.4 153.5 144.9 163.2 141.8 144.7 147.4 143.1 122.9 108.6 128.5 112.4 127.7 128.2 96.3 83.3 68.6 63.5 75.2 80.2 95.9 99.9 77.2 69.6 68.1 -9999.0 -9999.0
-9999.0 1002.3 1043.7 1116.4 1111.0 1010.0 953.3 923.7 891.6 894.3 954.7 1024.3 938.2 838.6 777.6 750.6 811.7 845.6 702.5 560.7 447.3 446.4 518.4 392.7 447.8 580.0 678.3 765.8 861.8 970.4 1057.6 1138.8 1132.3 1034.0 1060.6 1025.4 1063.8 1076.0 1087.6 1103.4 1076.5 1057.7 1072.8 1150.0 1205.9 1165.4 1027.4 890.7 818.5 896.4 1012.6 1119.0 1207.9 1147.3 1021.0 909.2 781.7 662.9 566.2 584.9 523.8 516.8 672.4 677.4 536.3 528.0 609.6 562.4 476.8 423.8 318.7 300.7 390.6 493.6 604.6 608.2 536.2 566.1 659.6 689.7 624.5 562.3 550.0 486.3 462.6 420.2 455.4 402.5 358.1 355.0 402.9 431.1 404.4 441.8 421.7 468.4 496.1 387.4 400.3 369.6 359.6 367.7 356.4 359.2 357.2 366.4 376.4 395.3 375.1 387.7 366.8 369.4 383.4 411.0 411.5 402.9 425.8 424.1 442.5 458.4 458.3 456.4 489.2 447.0 523.2 608.3 632.4 600.2 651.9 622.4 558.0 532.3 638.4 788.7 898.0 971.8 921.4 851.6 873.8 965.3 822.0 753.8 860.9 865.2 881.0 940.5 1029.9 1011.1 928.2 813.2 899.5 948.1 1021.7 1088.0 975.6 925.0 910.6 812.3 718.5 649.3 691.5 777.4 866.0 960.9 1004.3 984.2 1050.0 1051.4 1049.8 1020.0 1047.8 1027.2 954.3 970.2 942.0 967.4 1001.6 1016.6 1006.9 984.0 911.2 931.0 963.8 904.0 946.7 902.1 863.8 888.2 830.8 718.6 668.4 584.8 476.7 419.2 396.9 443.5 448.0 560.2 627.1 609.7 644.2 731.4 739.5 676.2 692.7 692.4 597.6 491.2 446.0 403.3 401.2 379.0 416.4 399.9 363.9 367.8 367.8 386.1 410.2 413.1 461.2 457.1 456.3 421.4 467.1 372.6 348.7 416.3 435.7 398.8 420.3 359.6 300.9 259.9 203.8 226.9 307.7 389.4 480.6 514.1 536.3 464.2 422.7 474.0 505.7 509.6 419.7 351.0 355.6 306.7 336.1 419.6 447.2 405.4 333.2 284.8 271.9 293.4 319.4 368.3 408.4 363.6 330.5 308.8 274.7 214.2 189.7 221.3 272.1 250.9 291.9 270.5 256.1 250.5 190.8 190.6 203.2 249.5 267.1 224.2 175.4 148.7 147.7 163.4 180.1 186.8 183.7 229.9 258.1 232.9 266.7 320.5 313.2 297.2 380.2 443.1 392.5 360.2 303.1 250.1 213.1 195.6 260.0 271.7 278.1 298.9 336.2 294.6 236.8 225.0 220.0 253.9 287.0 254.4 261.2 234.0 208.2 179.2 137.5 156.7 219.7 191.1 147.9 138.5 118.1 120.2 135.5 134.9 133.0 130.8 129.5 131.3 140.4 121.2 116.4 118.4 146.8 175.3 186.4 177.1 174.3 144.4 126.2 125.7 141.2 134.7 131.6 102.6 97.9 94.5 71.9 66.0 65.8 79.8 81.4 90.1 100.2 106.5 84.8 74.4 71.1 -9999.0 -9999.0
