ncols   348
nrows   40
xllcorner    8.1125
yllcorner    39.703348
cellsize    0.005002
NODATA_value -9999
-9999.0 -9999.0 -9999.0 -9999.0 -9999.0 -9999.0 -9999.0 -9999.0 -9999.0 -9999.0 -9999.0 -9999.0 -9999.0 -9999.0 -9999.0 -9999.0 -9999.0 -9999.0 -9999.0 -9999.0 -9999.0 -9999.0 -9999.0 -9999.0 -9999.0 -9999.0 -9999.0 -9999.0 -9999.0 -9999.0 -9999.0 -9999.0 -9999.0 -9999.0 -9999.0 -9999.0 -9999.0 -9999.0 -9999.0 -9999.0 -9999.0 -9999.0 -9999.0 -9999.0 -9999.0 -9999.0 -9999.0 -9999.0 -9999.0 -9999.0 -9999.0 -9999.0 -9999.0 -9999.0 -9999.0 -9999.0 -9999.0 -9999.0 -9999.0 -9999.0 -9999.0 -9999.0 79.1 73.8 46.9 41.1 41.1 41.1 41.0 -9999.0 -9999.0 -9999.0 -9999.0 -9999.0 -9999.0 -9999.0 -9999.0 -9999.0 -9999.0 -9999.0 -9999.0 -9999.0 -9999.0 -9999.0 -9999.0 29.8 20.7 21.9 30.4 31.5 32.6 33.3 33.8 34.9 39.9 43.2 44.7 45.1 44.8 44.5 44.5 45.3 45.2 45.3 45.3 46.9 48.6 49.1 50.5 52.0 52.3 51.9 50.7 51.2 52.7 55.9 56.3 58.2 60.8 63.3 67.0 77.9 85.7 134.7 155.4 158.5 186.3 235.4 197.4 131.0 87.2 102.4 111.5 121.4 133.7 143.3 156.3 174.3 186.5 212.9 279.9 326.7 320.0 340.2 391.8 428.1 430.0 430.7 399.7 356.0 320.4 303.5 343.3 413.7 388.8 360.0 370.6 333.7 345.3 354.3 311.0 245.1 150.3 179.8 160.0 222.9 341.7 403.1 437.6 392.6 308.4 192.5 282.7 427.7 370.2 348.7 377.4 426.6 454.2 483.7 449.4 444.3 431.4 471.4 501.6 493.9 539.5 485.1 483.9 509.6 611.6 667.7 717.1 711.8 716.1 759.8 784.4 817.8 830.0 837.3 851.5 822.8 791.5 840.6 809.5 805.4 918.6 978.2 1004.2 1078.5 984.9 851.5 708.2 562.0 509.7 544.0 510.9 608.3 687.3 635.2 631.0 704.3 718.0 806.2 915.0 970.3 1078.3 1170.5 1209.9 1200.1 1113.4 1143.9 1137.0 1119.6 1037.2 964.9 1084.1 1084.4 1012.8 925.6 915.2 772.7 847.9 933.8 956.1 895.9 900.3 848.7 823.6 852.7 780.3 838.1 931.8 1000.3 992.1 1031.2 1050.8 1027.3 1094.0 1023.0 1023.9 978.6 935.6 987.3 1003.5 1016.2 963.2 934.8 915.6 936.7 1066.0 1166.0 1059.5 965.9 929.9 923.6 900.5 898.0 909.2 887.2 801.6 668.2 544.8 478.6 426.9 397.0 386.0 345.1 289.2 262.2 226.6 223.7 193.1 153.6 180.7 174.6 187.6 203.6 208.9 199.5 143.8 171.5 257.3 287.2 213.7 127.2 82.3 86.8 87.5 127.2 118.0 65.8 -9999.0 -9999.0 -9999.0 -9999.0 -9999.0 -9999.0 -9999.0 -9999.0 -9999.0 -9999.0 -9999.0 -9999.0 -9999.0 -9999.0 -9999.0 -9999.0 -9999.0 -9999.0 -9999.0 -9999.0 -9999.0 -9999.0 -9999.0 -9999.0 -9999.0 -9999.0 -9999.0 -9999.0 -9999.0 -9999.0 -9999.0 -9999.0 -9999.0 -9999.0 -9999.0 -9999.0
-9999.0 -9999.0 -9999.0 -9999.0 -9999.0 -9999.0 -9999.0 -9999.0 -9999.0 -9999.0 -9999.0 -9999.0 -9999.0 -9999.0 -9999.0 -9999.0 -9999.0 -9999.0 -9999.0 -9999.0 -9999.0 -9999.0 -9999.0 -9999.0 -9999.0 -9999.0 -9999.0 -9999.0 -9999.0 -9999.0 -9999.0 -9999.0 -9999.0 -9999.0 -9999.0 -9999.0 -9999.0 -9999.0 -9999.0 -9999.0 -9999.0 -9999.0 -9999.0 -9999.0 -9999.0 -9999.0 -9999.0 -9999.0 -9999.0 -9999.0 -9999.0 -9999.0 -9999.0 -9999.0 -9999.0 -9999.0 -9999.0 -9999.0 -9999.0 -9999.0 -9999.0 -9999.0 -9999.0 -9999.0 44.8 41.1 41.1 41.1 -9999.0 -9999.0 -9999.0 -9999.0 -9999.0 -9999.0 -9999.0 -9999.0 -9999.0 -9999.0 -9999.0 -9999.0 -9999.0 -9999.0 -9999.0 -9999.0 -9999.0 -9999.0 26.4 19.6 26.2 31.1 32.4 33.9 35.3 36.1 41.3 44.2 44.4 46.4 46.3 45.0 45.0 45.3 45.4 46.5 46.7 48.0 49.8 51.1 52.1 50.6 50.1 49.6 53.9 59.0 60.0 59.8 61.9 61.5 67.7 71.4 74.2 76.3 105.8 148.8 150.7 172.9 214.4 254.4 253.1 197.1 111.2 91.5 100.8 111.3 120.2 131.8 140.4 156.4 221.4 271.9 291.2 282.7 285.7 301.9 336.8 352.5 374.4 427.2 436.3 402.4 351.9 327.5 353.9 403.3 343.1 305.0 332.2 297.7 341.8 334.5 295.8 287.9 184.8 170.2 159.3 164.6 185.6 320.5 284.1 219.4 250.9 332.1 317.0 402.9 487.1 450.0 427.8 442.6 460.2 485.2 458.1 428.3 420.0 460.2 432.1 438.0 463.2 515.5 559.4 557.4 539.3 592.9 630.5 660.9 679.5 695.2 719.7 773.7 811.8 843.3 867.0 845.6 791.5 763.5 752.3 736.3 790.3 915.7 940.8 1005.5 994.9 904.2 775.1 636.7 509.1 446.5 547.1 719.7 886.4 883.6 818.1 773.4 863.6 973.3 1076.3 1054.5 993.2 1017.8 1113.9 1160.7 1276.3 1259.6 1213.6 1136.6 1102.6 1111.0 1105.7 1098.9 1031.9 998.5 910.6 814.6 824.3 943.3 988.0 963.8 977.9 952.5 895.1 928.3 911.8 958.5 1093.4 1260.9 1225.4 1179.5 1049.8 968.3 999.6 1067.2 1011.4 912.9 958.2 1013.9 1004.2 911.1 918.8 919.7 889.9 930.8 1036.3 1125.6 1173.8 1109.6 1008.3 956.2 945.4 929.0 947.8 906.2 828.2 707.7 587.7 511.8 473.3 437.7 402.1 381.1 323.7 285.0 303.1 302.3 246.8 163.8 204.4 197.9 210.1 225.9 221.3 251.5 212.7 173.4 185.0 215.9 246.3 156.6 91.3 81.3 107.9 162.4 128.1 90.5 -9999.0 -9999.0 -9999.0 -9999.0 -9999.0 -9999.0 -9999.0 -9999.0 -9999.0 -9999.0 -9999.0 -9999.0 -9999.0 -9999.0 -9999.0 -9999.0 -9999.0 -9999.0 -9999.0 -9999.0 -9999.0 -9999.0 -9999.0 -9999.0 -9999.0 -9999.0 -9999.0 -9999.0 -9999.0 -9999.0 -9999.0 -9999.0 -9999.0 -9999.0 -9999.0 -9999.0
-9999.0 -9999.0 -9999.0 -9999.0 -9999.0 -9999.0 -9999.0 -9999.0 -9999.0 -9999.0 -9999.0 -9999.0 -9999.0 -9999.0 -9999.0 -9999.0 -9999.0 -9999.0 -9999.0 -9999.0 -9999.0 -9999.0 -9999.0 -9999.0 -9999.0 -9999.0 -9999.0 -9999.0 -9999.0 -9999.0 -9999.0 -9999.0 -9999.0 -9999.0 -9999.0 -9999.0 -9999.0 -9999.0 -9999.0 -9999.0 -9999.0 -9999.0 -9999.0 -9999.0 -9999.0 -9999.0 -9999.0 -9999.0 -9999.0 -9999.0 -9999.0 -9999.0 -9999.0 -9999.0 -9999.0 -9999.0 -9999.0 -9999.0 -9999.0 -9999.0 -9999.0 -9999.0 -9999.0 -9999.0 -9999.0 40.6 -9999.0 -9999.0 -9999.0 -9999.0 -9999.0 -9999.0 -9999.0 -9999.0 -9999.0 -9999.0 -9999.0 -9999.0 -9999.0 -9999.0 -9999.0 -9999.0 -9999.0 -9999.0 -9999.0 -9999.0 19.9 20.9 27.9 31.0 32.0 34.1 35.9 36.5 39.1 41.7 42.2 44.1 43.9 43.4 42.5 44.8 46.5 48.2 48.3 49.8 51.7 52.4 50.7 46.6 47.5 51.8 55.2 56.8 57.9 60.6 64.9 68.8 72.6 79.6 84.0 87.6 103.9 131.5 141.0 163.5 192.9 226.2 218.3 194.8 148.1 114.3 99.6 103.1 112.2 125.3 138.8 174.1 235.4 248.6 257.3 262.6 263.1 281.8 329.1 351.2 347.5 367.3 370.5 400.5 374.6 358.0 381.6 365.9 323.7 287.6 285.9 256.0 285.9 310.2 237.2 173.9 189.2 265.3 198.3 247.9 270.3 205.7 176.4 271.5 408.9 505.3 483.2 458.3 471.5 430.2 383.7 408.3 410.8 488.3 472.2 407.8 387.6 413.8 489.6 488.8 493.3 544.0 559.8 574.7 613.9 650.4 684.4 692.8 692.7 714.8 753.3 770.5 774.6 816.2 864.9 885.5 847.0 797.2 797.1 733.5 731.6 771.0 807.9 882.1 867.1 852.2 770.7 626.6 467.6 480.2 598.5 696.5 839.2 1001.2 1028.2 970.2 946.5 1009.2 1058.3 1039.0 954.7 898.6 992.3 1141.0 1300.2 1317.5 1258.5 1189.8 1137.4 1026.3 972.7 947.9 940.5 955.3 860.2 890.7 984.0 993.0 1050.5 1078.2 1055.5 1014.7 1019.8 1087.2 1111.3 1195.7 1269.7 1233.3 1197.6 1101.4 1150.3 1056.7 926.9 958.0 940.5 889.2 973.5 1008.4 1082.7 992.3 850.5 813.7 795.2 840.2 973.2 1085.0 1142.7 1202.0 1110.0 1077.3 972.1 930.4 945.7 937.2 868.7 769.4 677.1 603.7 521.4 468.0 443.7 416.1 405.0 362.1 302.1 251.5 217.1 189.1 232.2 232.8 242.5 231.2 250.7 279.1 267.0 213.6 152.9 158.7 200.2 137.6 89.0 73.5 118.4 129.2 111.5 78.4 -9999.0 -9999.0 -9999.0 -9999.0 -9999.0 -9999.0 -9999.0 -9999.0 -9999.0 -9999.0 -9999.0 -9999.0 -9999.0 -9999.0 -9999.0 -9999.0 -9999.0 -9999.0 -9999.0 -9999.0 -9999.0 -9999.0 -9999.0 -9999.0 -9999.0 -9999.0 -9999.0 -9999.0 -9999.0 -9999.0 -9999.0 -9999.0 -9999.0 -9999.0 -9999.0 -9999.0
-9999.0 -9999.0 -9999.0 -9999.0 -9999.0 -9999.0 -9999.0 -9999.0 -9999.0 -9999.0 -9999.0 -9999.0 -9999.0 -9999.0 -9999.0 -9999.0 -9999.0 -9999.0 -9999.0 -9999.0 -9999.0 -9999.0 -9999.0 -9999.0 -9999.0 -9999.0 -9999.0 -9999.0 -9999.0 -9999.0 -9999.0 -9999.0 -9999.0 -9999.0 -9999.0 -9999.0 -9999.0 -9999.0 -9999.0 -9999.0 -9999.0 -9999.0 -9999.0 -9999.0 -9999.0 -9999.0 -9999.0 -9999.0 -9999.0 -9999.0 -9999.0 -9999.0 -9999.0 -9999.0 -9999.0 -9999.0 -9999.0 -9999.0 -9999.0 -9999.0 -9999.0 -9999.0 -9999.0 -9999.0 -9999.0 -9999.0 -9999.0 -9999.0 -9999.0 -9999.0 -9999.0 -9999.0 -9999.0 -9999.0 -9999.0 -9999.0 -9999.0 -9999.0 -9999.0 -9999.0 -9999.0 -9999.0 -9999.0 -9999.0 -9999.0 -9999.0 -9999.0 21.0 30.3 30.9 32.3 34.2 34.0 31.8 29.7 29.0 30.6 34.4 40.2 42.4 43.8 46.1 46.4 46.6 47.4 50.0 51.9 51.2 44.9 44.8 47.3 50.8 52.5 55.3 56.7 60.4 65.1 70.7 75.4 82.3 88.9 92.5 99.3 113.3 140.7 172.9 165.1 160.5 173.0 168.7 157.9 141.8 134.6 123.3 108.0 120.3 144.2 172.6 200.0 212.2 225.1 228.8 226.1 247.1 288.3 305.3 322.5 332.7 351.7 380.0 388.1 392.5 386.8 337.0 314.9 325.3 321.5 301.1 254.5 222.4 192.7 157.5 271.7 283.8 226.6 230.1 279.7 273.3 186.7 298.9 436.1 535.6 530.0 543.8 479.3 385.8 337.3 383.1 382.4 427.7 373.9 355.4 426.5 473.6 553.0 596.2 531.4 526.7 589.7 550.4 594.4 624.9 672.8 740.3 768.6 766.7 757.6 795.4 819.5 848.2 867.4 875.2 868.2 852.4 826.6 782.4 689.7 660.3 704.7 788.1 762.9 705.7 735.4 625.7 486.1 461.4 585.3 660.3 753.5 901.9 1005.5 999.4 994.6 990.3 1002.3 1017.2 958.0 850.6 948.8 1114.6 1231.9 1235.8 1206.6 1090.3 1025.9 1000.9 990.8 1003.5 1059.5 975.7 987.1 1054.0 1080.5 1040.3 1022.5 1031.9 1082.3 1134.9 1187.2 1189.1 1143.8 1224.9 1222.9 1152.2 1129.1 1064.5 1081.6 1074.7 959.3 900.5 854.6 946.6 1022.5 1021.3 1064.6 1070.0 964.2 814.4 719.4 743.0 882.9 940.5 1009.1 1122.4 1190.8 1187.9 1057.1 975.0 970.9 990.7 959.8 874.4 753.6 632.3 544.0 501.9 474.8 431.1 391.8 369.7 355.2 306.4 330.2 281.9 295.7 272.7 267.4 276.3 269.7 298.7 280.7 240.4 199.6 158.7 137.6 106.9 78.8 64.6 76.1 73.7 95.5 86.9 -9999.0 -9999.0 -9999.0 -9999.0 -9999.0 -9999.0 -9999.0 -9999.0 -9999.0 -9999.0 -9999.0 -9999.0 -9999.0 -9999.0 -9999.0 -9999.0 -9999.0 -9999.0 -9999.0 -9999.0 -9999.0 -9999.0 -9999.0 -9999.0 -9999.0 -9999.0 -9999.0 -9999.0 -9999.0 -9999.0 -9999.0 -9999.0 -9999.0 -9999.0 -9999.0 -9999.0
-9999.0 -9999.0 -9999.0 -9999.0 -9999.0 -9999.0 -9999.0 -9999.0 -9999.0 -9999.0 -9999.0 -9999.0 -9999.0 -9999.0 -9999.0 -9999.0 -9999.0 -9999.0 -9999.0 -9999.0 -9999.0 -9999.0 -9999.0 -9999.0 -9999.0 -9999.0 -9999.0 -9999.0 -9999.0 -9999.0 -9999.0 -9999.0 -9999.0 -9999.0 -9999.0 -9999.0 -9999.0 -9999.0 -9999.0 -9999.0 -9999.0 -9999.0 -9999.0 -9999.0 -9999.0 -9999.0 -9999.0 -9999.0 -9999.0 -9999.0 -9999.0 -9999.0 -9999.0 -9999.0 -9999.0 -9999.0 -9999.0 -9999.0 -9999.0 -9999.0 -9999.0 -9999.0 -9999.0 -9999.0 -9999.0 -9999.0 -9999.0 -9999.0 -9999.0 -9999.0 -9999.0 -9999.0 -9999.0 -9999.0 -9999.0 -9999.0 -9999.0 -9999.0 -9999.0 -9999.0 -9999.0 -9999.0 -9999.0 -9999.0 -9999.0 -9999.0 -9999.0 28.6 30.7 30.7 32.7 33.2 28.5 27.1 18.7 16.5 16.3 20.3 34.8 42.5 43.3 40.6 37.7 41.3 47.5 50.6 51.6 45.6 43.9 47.5 51.9 52.2 51.2 54.3 58.1 58.9 61.9 66.3 71.7 79.0 87.8 96.7 106.9 127.8 201.6 238.6 243.5 196.7 213.5 239.3 204.8 211.1 173.6 179.1 153.2 117.7 135.4 151.5 169.1 172.8 188.5 202.5 194.6 217.1 255.0 323.1 315.5 317.3 346.7 366.2 338.5 356.0 393.7 360.0 332.0 323.8 328.5 316.2 309.5 284.9 240.5 174.6 261.9 304.9 265.2 253.7 255.0 228.8 185.4 237.7 348.4 371.1 341.0 373.4 378.1 334.2 295.6 306.7 328.5 381.7 449.8 421.2 457.7 478.4 556.5 599.9 604.6 629.2 679.6 625.2 629.1 712.7 750.2 710.0 759.0 783.4 785.2 805.6 827.5 843.6 857.5 860.4 862.3 861.1 827.8 772.1 758.2 744.8 645.0 608.4 556.7 538.5 606.9 580.8 430.0 417.1 499.7 641.2 724.5 851.7 926.2 978.3 925.7 870.5 898.0 929.8 901.2 822.7 912.6 1043.6 1064.9 1014.1 1076.4 1111.9 1084.3 1093.9 1026.3 1012.3 1127.2 1164.6 1129.7 1111.0 1085.3 1036.0 992.2 1029.9 1072.6 1160.1 1184.4 1156.7 1124.4 1175.5 1151.5 1083.9 1045.4 1054.1 1021.9 1040.4 999.2 1034.1 884.7 891.9 975.8 1021.7 1020.1 1044.8 1025.2 903.3 778.7 675.0 704.1 867.1 1016.1 1004.1 1104.7 1198.0 1154.0 1061.2 992.8 1011.8 1008.9 958.6 829.3 727.6 643.0 570.5 520.4 450.2 456.4 426.7 433.1 391.3 480.0 411.4 432.9 347.5 306.8 331.1 307.6 275.8 245.6 252.5 206.6 152.0 149.3 153.4 91.5 69.0 58.3 53.5 60.5 77.5 -9999.0 -9999.0 -9999.0 -9999.0 -9999.0 -9999.0 -9999.0 -9999.0 -9999.0 -9999.0 -9999.0 -9999.0 -9999.0 -9999.0 -9999.0 -9999.0 -9999.0 -9999.0 -9999.0 -9999.0 -9999.0 -9999.0 -9999.0 -9999.0 -9999.0 -9999.0 -9999.0 -9999.0 -9999.0 -9999.0 -9999.0 -9999.0 -9999.0 -9999.0 -9999.0 -9999.0
-9999.0 -9999.0 -9999.0 -9999.0 -9999.0 -9999.0 -9999.0 -9999.0 -9999.0 -9999.0 -9999.0 -9999.0 -9999.0 -9999.0 -9999.0 -9999.0 -9999.0 -9999.0 -9999.0 -9999.0 -9999.0 -9999.0 -9999.0 -9999.0 -9999.0 -9999.0 -9999.0 -9999.0 -9999.0 -9999.0 -9999.0 -9999.0 -9999.0 -9999.0 -9999.0 -9999.0 -9999.0 -9999.0 -9999.0 -9999.0 -9999.0 -9999.0 -9999.0 -9999.0 -9999.0 -9999.0 -9999.0 -9999.0 -9999.0 -9999.0 -9999.0 -9999.0 -9999.0 -9999.0 -9999.0 -9999.0 -9999.0 -9999.0 -9999.0 -9999.0 -9999.0 -9999.0 -9999.0 -9999.0 -9999.0 -9999.0 -9999.0 -9999.0 -9999.0 -9999.0 -9999.0 -9999.0 -9999.0 -9999.0 -9999.0 -9999.0 -9999.0 -9999.0 -9999.0 -9999.0 -9999.0 -9999.0 -9999.0 -9999.0 -9999.0 -9999.0 -9999.0 33.5 33.5 31.1 29.0 27.3 24.6 17.8 16.0 16.0 16.0 16.2 21.7 35.9 33.4 30.2 29.8 35.0 40.4 43.8 44.8 42.9 45.3 48.6 52.6 56.8 58.7 54.9 56.0 60.2 62.4 66.9 72.3 78.7 87.0 94.9 126.8 133.4 179.9 242.1 260.3 258.0 244.2 269.0 299.2 267.8 248.5 291.8 257.1 164.9 127.5 143.5 140.7 162.1 168.0 181.2 220.3 202.1 224.3 272.3 268.5 305.8 342.5 333.3 321.9 369.3 396.0 346.2 327.2 311.2 307.2 311.4 316.9 309.5 274.3 177.1 239.4 301.9 302.4 282.2 269.0 228.3 224.1 235.0 200.8 237.8 259.5 307.6 362.7 320.7 328.0 369.6 410.4 481.0 513.9 488.2 492.4 502.2 529.6 550.0 596.9 670.9 713.0 756.9 744.8 737.0 790.7 799.3 743.9 759.6 772.4 791.4 807.7 823.4 836.9 845.1 847.7 855.9 855.2 826.8 809.3 838.6 810.3 714.2 613.1 596.9 485.9 518.5 523.0 412.6 514.5 695.3 804.3 786.1 824.5 885.2 843.6 781.6 874.5 896.0 902.2 788.8 853.0 976.2 943.6 915.2 999.9 1112.2 1166.3 1133.8 1066.4 1049.6 1119.4 1148.6 1133.5 1090.1 1029.8 982.6 956.9 973.0 1057.5 1095.1 1118.9 1093.0 1125.1 1124.9 1154.1 1113.4 1007.3 1007.6 979.5 970.3 967.6 1018.0 859.9 904.6 960.6 959.5 988.0 1008.5 987.3 901.0 825.0 745.9 669.4 758.2 829.3 954.9 1037.9 1114.0 1061.0 1075.8 1006.2 957.0 939.3 950.6 827.5 746.7 729.8 668.9 602.2 534.0 547.9 500.8 466.1 431.8 382.5 366.5 395.4 349.3 305.7 296.9 284.0 259.2 217.2 202.5 187.4 160.5 129.6 115.9 83.1 80.0 71.6 59.3 45.2 45.8 -9999.0 -9999.0 -9999.0 -9999.0 -9999.0 -9999.0 -9999.0 -9999.0 -9999.0 -9999.0 -9999.0 -9999.0 -9999.0 -9999.0 -9999.0 -9999.0 -9999.0 -9999.0 -9999.0 -9999.0 -9999.0 -9999.0 -9999.0 -9999.0 -9999.0 -9999.0 -9999.0 -9999.0 -9999.0 -9999.0 -9999.0 -9999.0 -9999.0 -9999.0 -9999.0 -9999.0
-9999.0 -9999.0 -9999.0 -9999.0 -9999.0 -9999.0 -9999.0 -9999.0 -9999.0 -9999.0 -9999.0 -9999.0 -9999.0 -9999.0 -9999.0 -9999.0 -9999.0 -9999.0 -9999.0 -9999.0 -9999.0 -9999.0 -9999.0 -9999.0 -9999.0 -9999.0 -9999.0 -9999.0 -9999.0 -9999.0 -9999.0 -9999.0 -9999.0 -9999.0 -9999.0 -9999.0 -9999.0 -9999.0 -9999.0 -9999.0 -9999.0 -9999.0 -9999.0 -9999.0 -9999.0 -9999.0 -9999.0 -9999.0 -9999.0 -9999.0 -9999.0 -9999.0 -9999.0 -9999.0 -9999.0 -9999.0 -9999.0 -9999.0 -9999.0 -9999.0 -9999.0 -9999.0 -9999.0 -9999.0 -9999.0 -9999.0 -9999.0 -9999.0 -9999.0 -9999.0 -9999.0 -9999.0 -9999.0 -9999.0 -9999.0 -9999.0 -9999.0 -9999.0 -9999.0 -9999.0 -9999.0 -9999.0 -9999.0 -9999.0 -9999.0 -9999.0 -9999.0 -9999.0 -9999.0 32.4 29.2 19.9 14.0 12.1 11.5 11.6 11.7 11.4 15.5 24.2 22.9 19.1 20.8 30.5 39.2 41.4 44.8 48.7 54.3 49.4 52.9 56.4 59.7 59.6 57.6 61.0 66.4 70.8 76.7 79.9 82.1 96.1 163.1 205.1 159.6 201.5 234.4 216.4 226.7 237.1 301.1 287.0 317.5 341.7 275.8 174.0 146.0 228.2 219.1 214.2 203.8 223.3 251.4 252.5 244.2 238.2 255.4 270.2 283.5 300.1 341.7 367.4 369.0 335.1 303.0 289.1 285.7 286.2 298.2 293.6 249.1 179.3 200.6 266.0 302.6 277.2 259.0 258.4 254.7 280.0 233.8 289.4 327.0 333.7 413.6 430.4 314.2 435.1 446.1 493.6 509.7 441.1 452.5 461.8 469.1 499.2 546.2 616.9 716.9 767.8 777.8 781.6 792.5 825.8 832.4 786.2 791.5 783.3 787.6 798.1 808.1 820.8 837.8 846.2 848.8 860.4 851.4 852.9 850.5 817.7 781.3 741.4 617.0 482.2 436.6 408.3 485.2 615.9 688.9 681.7 728.7 806.2 773.3 720.7 789.4 783.5 775.5 718.5 781.3 859.7 888.5 952.2 1015.2 1075.7 1107.1 1107.8 1161.2 1102.9 1101.9 1094.0 1059.5 1068.0 1013.3 993.1 976.8 935.5 961.5 955.9 1034.2 1050.0 1036.6 1085.1 1109.2 1166.0 1041.7 931.3 898.6 890.2 984.2 920.3 832.0 953.7 968.2 1011.4 1013.8 988.5 1008.9 1029.6 995.0 883.2 733.6 639.1 723.4 822.2 942.8 956.5 967.2 986.3 986.2 1027.5 872.1 762.7 746.2 613.0 636.4 712.2 729.8 703.7 676.8 570.4 496.6 396.2 306.5 255.9 263.5 259.6 249.4 256.2 254.6 250.5 243.2 211.1 162.3 147.7 148.7 124.4 99.6 121.2 137.0 87.5 72.0 52.8 -9999.0 -9999.0 -9999.0 -9999.0 -9999.0 -9999.0 -9999.0 -9999.0 -9999.0 -9999.0 -9999.0 -9999.0 -9999.0 -9999.0 -9999.0 -9999.0 -9999.0 -9999.0 -9999.0 -9999.0 -9999.0 -9999.0 -9999.0 -9999.0 -9999.0 -9999.0 -9999.0 -9999.0 -9999.0 -9999.0 -9999.0 -9999.0 -9999.0 -9999.0 -9999.0 -9999.0
-9999.0 -9999.0 -9999.0 -9999.0 -9999.0 -9999.0 -9999.0 -9999.0 -9999.0 -9999.0 -9999.0 -9999.0 -9999.0 -9999.0 -9999.0 -9999.0 -9999.0 -9999.0 -9999.0 -9999.0 -9999.0 -9999.0 -9999.0 -9999.0 -9999.0 -9999.0 -9999.0 -9999.0 -9999.0 -9999.0 -9999.0 -9999.0 -9999.0 -9999.0 -9999.0 -9999.0 -9999.0 -9999.0 -9999.0 -9999.0 -9999.0 -9999.0 -9999.0 -9999.0 -9999.0 -9999.0 -9999.0 -9999.0 -9999.0 -9999.0 -9999.0 -9999.0 -9999.0 -9999.0 -9999.0 -9999.0 -9999.0 -9999.0 -9999.0 -9999.0 -9999.0 -9999.0 -9999.0 -9999.0 -9999.0 -9999.0 -9999.0 -9999.0 -9999.0 -9999.0 -9999.0 -9999.0 -9999.0 -9999.0 -9999.0 -9999.0 -9999.0 -9999.0 -9999.0 -9999.0 -9999.0 -9999.0 -9999.0 -9999.0 -9999.0 -9999.0 -9999.0 -9999.0 -9999.0 21.5 19.0 16.7 15.0 15.0 15.7 15.7 15.7 16.0 20.4 29.6 28.6 25.5 28.3 39.6 45.6 48.2 45.7 51.9 51.5 53.8 55.0 57.2 60.1 62.1 63.5 64.0 69.1 72.1 77.9 85.2 89.5 97.3 163.7 247.0 234.6 184.8 164.8 173.9 198.4 257.6 302.2 321.2 335.8 342.6 267.5 184.1 177.2 175.5 243.5 239.3 243.6 238.8 240.6 244.9 266.3 285.3 291.7 304.0 311.8 333.9 342.2 341.3 345.2 338.3 326.8 305.8 278.0 268.9 267.2 290.1 252.7 194.0 228.9 257.3 262.7 246.2 269.7 263.1 265.3 254.4 240.1 287.8 354.7 386.3 413.4 372.3 305.5 347.0 417.8 445.3 451.0 401.4 423.6 424.8 464.4 511.0 565.3 640.3 712.8 727.1 745.8 770.8 784.2 792.7 818.7 840.3 815.3 805.2 793.2 791.0 794.8 803.5 822.3 832.2 835.4 852.2 862.9 845.2 833.0 819.7 772.5 763.4 690.0 554.9 414.7 474.9 503.3 534.1 620.6 763.5 809.7 808.4 779.9 691.2 678.5 691.6 683.4 760.0 803.4 837.7 904.2 987.7 956.3 1008.4 1098.9 1023.4 1060.5 1009.0 1014.5 1042.3 1029.4 1007.8 1016.4 1003.7 969.6 945.0 892.9 908.2 994.3 1006.4 974.5 1066.5 1134.4 1132.5 1103.5 1033.0 912.5 835.1 844.9 805.0 874.2 919.1 933.9 1010.5 972.9 992.7 980.0 966.5 1027.3 951.0 794.1 670.9 624.3 691.8 852.1 967.2 1042.2 1066.4 1059.6 1097.0 1019.1 751.8 629.0 607.0 502.6 575.5 692.0 755.0 661.6 484.5 420.6 380.3 303.4 239.8 226.7 228.3 195.8 204.9 208.3 216.6 215.2 171.6 136.6 119.2 115.2 124.1 146.7 169.1 145.7 102.9 65.9 54.5 -9999.0 -9999.0 -9999.0 -9999.0 -9999.0 -9999.0 -9999.0 -9999.0 -9999.0 -9999.0 -9999.0 -9999.0 -9999.0 -9999.0 -9999.0 -9999.0 -9999.0 -9999.0 -9999.0 -9999.0 -9999.0 -9999.0 -9999.0 -9999.0 -9999.0 -9999.0 -9999.0 -9999.0 -9999.0 -9999.0 -9999.0 -9999.0 -9999.0 -9999.0 -9999.0 -9999.0
-9999.0 -9999.0 -9999.0 -9999.0 -9999.0 -9999.0 -9999.0 -9999.0 -9999.0 -9999.0 -9999.0 -9999.0 -9999.0 -9999.0 -9999.0 -9999.0 -9999.0 -9999.0 -9999.0 -9999.0 -9999.0 -9999.0 -9999.0 -9999.0 -9999.0 -9999.0 -9999.0 -9999.0 -9999.0 -9999.0 -9999.0 -9999.0 -9999.0 -9999.0 -9999.0 -9999.0 -9999.0 -9999.0 -9999.0 -9999.0 -9999.0 -9999.0 -9999.0 -9999.0 -9999.0 -9999.0 -9999.0 -9999.0 -9999.0 -9999.0 -9999.0 -9999.0 -9999.0 -9999.0 -9999.0 -9999.0 -9999.0 -9999.0 -9999.0 -9999.0 -9999.0 -9999.0 -9999.0 -9999.0 -9999.0 -9999.0 -9999.0 -9999.0 -9999.0 -9999.0 -9999.0 -9999.0 -9999.0 -9999.0 -9999.0 -9999.0 -9999.0 -9999.0 -9999.0 -9999.0 -9999.0 -9999.0 -9999.0 -9999.0 -9999.0 -9999.0 -9999.0 -9999.0 -9999.0 28.8 30.8 30.9 20.4 16.2 16.1 16.0 16.0 21.6 32.3 29.3 35.8 38.6 40.0 42.8 47.4 51.1 51.3 48.6 53.4 58.1 61.9 63.1 66.7 67.7 69.7 69.0 75.6 82.8 88.1 91.1 96.0 105.1 145.8 244.3 265.3 243.4 206.0 236.3 212.7 233.3 256.3 295.0 318.4 338.1 281.0 215.8 227.9 176.6 189.0 215.1 214.2 243.1 276.5 300.3 285.1 303.6 306.6 320.6 327.3 318.2 313.0 318.0 324.2 312.4 316.7 312.7 299.7 274.9 250.9 251.5 230.6 216.5 225.8 221.9 229.9 249.3 270.0 274.4 258.3 252.9 273.9 315.0 348.6 410.5 406.6 371.2 367.5 319.8 338.1 377.5 390.1 407.1 401.8 430.8 468.6 496.5 553.7 614.7 679.1 717.4 734.9 753.7 772.3 777.8 788.2 809.6 833.5 839.2 812.6 801.8 801.0 802.9 803.9 811.2 829.0 843.9 858.2 850.0 829.1 810.7 764.8 734.1 631.0 467.4 476.0 660.7 658.7 652.7 664.6 776.6 823.8 826.3 775.8 686.7 639.8 677.6 788.9 843.6 800.5 838.4 836.0 877.4 874.5 963.8 1061.9 1073.7 992.8 935.5 909.4 935.3 974.4 926.8 958.0 992.5 1014.5 1018.8 942.1 861.0 961.7 978.5 930.3 1029.5 1091.6 1013.1 997.9 1056.2 962.2 794.2 752.3 848.3 915.8 963.3 984.0 937.9 947.1 959.8 962.4 1006.5 1013.9 893.4 844.0 831.7 719.7 597.6 640.8 795.1 925.9 1050.1 1153.7 1135.4 1126.6 822.7 569.3 509.2 443.2 462.9 573.3 658.0 643.6 479.1 370.1 317.9 289.2 239.5 212.2 195.1 178.9 173.7 179.9 180.4 201.4 152.3 121.4 96.2 90.4 106.2 162.1 175.8 130.3 98.4 115.8 111.9 92.3 57.2 -9999.0 -9999.0 -9999.0 -9999.0 -9999.0 -9999.0 -9999.0 -9999.0 -9999.0 -9999.0 -9999.0 -9999.0 -9999.0 -9999.0 -9999.0 -9999.0 -9999.0 -9999.0 -9999.0 -9999.0 -9999.0 -9999.0 -9999.0 -9999.0 -9999.0 -9999.0 -9999.0 -9999.0 -9999.0 -9999.0 -9999.0 -9999.0 -9999.0 -9999.0
-9999.0 -9999.0 -9999.0 -9999.0 -9999.0 -9999.0 -9999.0 -9999.0 -9999.0 -9999.0 -9999.0 -9999.0 -9999.0 -9999.0 -9999.0 -9999.0 -9999.0 -9999.0 -9999.0 -9999.0 -9999.0 -9999.0 -9999.0 -9999.0 -9999.0 -9999.0 -9999.0 -9999.0 -9999.0 -9999.0 -9999.0 -9999.0 -9999.0 -9999.0 -9999.0 -9999.0 -9999.0 -9999.0 -9999.0 -9999.0 -9999.0 -9999.0 -9999.0 -9999.0 -9999.0 -9999.0 -9999.0 -9999.0 -9999.0 -9999.0 -9999.0 -9999.0 -9999.0 -9999.0 -9999.0 -9999.0 -9999.0 -9999.0 -9999.0 -9999.0 -9999.0 -9999.0 -9999.0 -9999.0 -9999.0 -9999.0 -9999.0 -9999.0 -9999.0 -9999.0 -9999.0 -9999.0 -9999.0 -9999.0 -9999.0 -9999.0 -9999.0 -9999.0 -9999.0 -9999.0 -9999.0 -9999.0 -9999.0 -9999.0 -9999.0 -9999.0 -9999.0 -9999.0 -9999.0 34.9 35.3 36.1 33.7 20.7 18.0 16.9 19.1 35.2 42.0 38.5 38.6 41.6 41.9 44.0 47.3 50.5 55.0 55.9 55.3 58.1 61.4 64.7 68.8 73.5 75.8 75.7 81.9 89.2 98.4 103.5 108.6 112.3 185.5 272.5 289.1 279.3 273.8 287.8 294.8 299.5 330.8 337.7 315.2 316.4 266.8 237.4 235.8 210.0 190.6 187.1 214.2 272.8 255.3 263.0 258.8 295.3 295.9 327.7 328.0 313.5 299.3 300.6 304.2 292.9 288.8 295.2 289.8 282.0 269.5 232.1 225.4 271.5 268.0 253.6 269.1 250.4 259.3 274.3 277.4 266.3 270.2 307.6 368.2 426.1 407.2 430.3 409.5 334.4 343.7 419.3 410.3 423.0 417.0 444.8 490.8 511.9 535.6 570.1 619.3 692.1 706.0 724.7 740.5 761.0 765.5 765.8 777.5 798.7 805.4 812.9 812.2 800.4 795.7 806.4 821.4 839.4 855.8 863.3 851.9 818.0 802.2 779.7 651.3 460.1 525.6 687.9 700.1 758.7 776.6 796.8 806.8 769.7 699.5 616.6 747.1 806.2 826.1 856.5 803.1 798.5 832.4 810.2 855.6 958.8 1046.6 1094.4 1044.0 968.2 965.3 913.5 890.1 870.4 850.1 902.3 1019.7 1025.4 954.5 845.5 879.2 971.7 911.4 971.9 969.5 923.2 892.5 929.2 836.0 701.3 746.4 883.6 936.0 989.6 960.3 914.8 919.1 948.8 974.5 1010.8 934.0 846.4 984.8 988.4 816.8 661.9 532.7 559.0 698.6 871.2 1034.5 1095.4 1076.7 909.2 695.3 495.7 382.4 367.7 433.7 547.0 655.9 556.4 432.0 353.4 282.1 257.4 243.5 215.0 192.6 178.4 156.2 149.9 147.0 124.3 107.6 86.6 75.9 99.5 171.5 181.2 156.9 141.2 128.7 116.4 99.7 82.7 67.0 -9999.0 -9999.0 -9999.0 -9999.0 -9999.0 -9999.0 -9999.0 -9999.0 -9999.0 -9999.0 -9999.0 -9999.0 -9999.0 -9999.0 -9999.0 -9999.0 -9999.0 -9999.0 -9999.0 -9999.0 -9999.0 -9999.0 -9999.0 -9999.0 -9999.0 -9999.0 -9999.0 -9999.0 -9999.0 -9999.0 -9999.0 -9999.0 -9999.0
-9999.0 -9999.0 -9999.0 -9999.0 -9999.0 -9999.0 -9999.0 -9999.0 -9999.0 -9999.0 -9999.0 -9999.0 -9999.0 -9999.0 -9999.0 -9999.0 -9999.0 -9999.0 -9999.0 -9999.0 -9999.0 -9999.0 -9999.0 -9999.0 -9999.0 -9999.0 -9999.0 -9999.0 -9999.0 -9999.0 -9999.0 -9999.0 -9999.0 -9999.0 -9999.0 -9999.0 -9999.0 -9999.0 -9999.0 -9999.0 -9999.0 -9999.0 -9999.0 -9999.0 -9999.0 -9999.0 -9999.0 -9999.0 -9999.0 -9999.0 -9999.0 -9999.0 -9999.0 -9999.0 -9999.0 -9999.0 -9999.0 -9999.0 -9999.0 -9999.0 -9999.0 -9999.0 -9999.0 -9999.0 -9999.0 -9999.0 -9999.0 -9999.0 -9999.0 -9999.0 -9999.0 -9999.0 -9999.0 -9999.0 -9999.0 -9999.0 -9999.0 -9999.0 -9999.0 -9999.0 -9999.0 -9999.0 -9999.0 -9999.0 -9999.0 -9999.0 -9999.0 -9999.0 -9999.0 38.6 39.6 40.2 38.3 35.9 32.0 29.8 34.5 37.4 43.2 44.6 44.5 46.5 47.5 49.0 48.3 51.3 54.1 56.5 60.0 61.4 64.6 68.2 71.9 78.8 82.8 86.2 90.4 100.0 108.6 117.2 123.3 125.6 145.6 244.6 329.8 333.2 339.4 343.0 378.7 387.1 396.0 371.8 363.0 346.4 323.2 343.0 305.5 260.1 228.4 258.2 249.7 222.2 264.4 302.7 302.4 332.4 315.0 355.2 346.5 315.7 292.8 289.4 300.2 291.2 274.2 273.8 270.3 276.3 258.4 251.7 224.4 248.5 276.8 290.7 278.9 300.7 286.5 291.6 294.8 284.3 291.8 314.9 384.7 412.8 379.5 412.5 392.4 351.3 346.5 420.4 380.9 391.3 401.7 423.6 445.4 473.5 518.1 531.1 526.8 611.0 664.5 684.3 706.9 732.4 742.7 746.6 751.9 765.5 776.1 790.4 804.3 795.3 794.4 809.7 820.0 833.0 851.2 866.5 869.6 853.0 836.3 807.1 690.3 482.6 431.4 499.1 492.1 636.2 772.1 782.0 790.9 725.5 580.8 662.6 764.3 784.8 815.0 788.8 749.0 783.0 821.3 823.7 873.3 937.8 1026.3 1089.1 990.9 944.1 930.4 1000.6 978.5 930.0 860.8 812.5 858.1 953.6 933.2 816.5 897.6 924.6 893.6 923.3 849.6 816.4 774.8 781.1 745.4 649.1 709.6 858.0 951.3 898.1 895.4 931.2 970.6 999.9 1015.2 999.7 854.3 935.9 970.3 1014.7 864.7 688.6 539.9 435.0 556.8 700.7 810.9 882.1 952.0 862.7 649.7 497.6 384.1 332.0 399.2 509.7 584.4 610.7 536.9 437.0 358.4 321.9 279.7 251.9 194.3 172.0 160.1 149.8 155.5 134.4 107.1 79.4 72.5 71.7 98.2 136.9 138.3 115.2 108.9 102.4 87.2 73.3 -9999.0 -9999.0 -9999.0 -9999.0 -9999.0 -9999.0 -9999.0 -9999.0 -9999.0 -9999.0 -9999.0 -9999.0 -9999.0 -9999.0 -9999.0 -9999.0 -9999.0 -9999.0 -9999.0 -9999.0 -9999.0 -9999.0 -9999.0 -9999.0 -9999.0 -9999.0 -9999.0 -9999.0 -9999.0 -9999.0 -9999.0 -9999.0 -9999.0 -9999.0
-9999.0 -9999.0 -9999.0 -9999.0 -9999.0 -9999.0 -9999.0 -9999.0 -9999.0 -9999.0 -9999.0 -9999.0 -9999.0 -9999.0 -9999.0 -9999.0 -9999.0 -9999.0 -9999.0 -9999.0 -9999.0 -9999.0 -9999.0 -9999.0 -9999.0 -9999.0 -9999.0 -9999.0 -9999.0 -9999.0 -9999.0 -9999.0 -9999.0 -9999.0 -9999.0 -9999.0 -9999.0 -9999.0 -9999.0 -9999.0 -9999.0 -9999.0 -9999.0 -9999.0 -9999.0 -9999.0 -9999.0 -9999.0 -9999.0 -9999.0 -9999.0 -9999.0 -9999.0 -9999.0 -9999.0 -9999.0 -9999.0 -9999.0 -9999.0 -9999.0 -9999.0 -9999.0 -9999.0 -9999.0 -9999.0 -9999.0 -9999.0 -9999.0 -9999.0 -9999.0 -9999.0 -9999.0 -9999.0 -9999.0 -9999.0 -9999.0 -9999.0 -9999.0 -9999.0 -9999.0 -9999.0 -9999.0 -9999.0 -9999.0 -9999.0 -9999.0 -9999.0 -9999.0 -9999.0 40.1 42.4 42.1 42.1 40.9 40.8 42.1 41.6 42.4 44.2 45.8 45.7 46.7 48.3 50.1 52.1 51.9 54.3 57.3 61.7 65.7 68.9 73.0 76.4 81.1 88.1 95.9 103.1 111.2 122.9 130.0 141.8 146.7 148.6 222.5 363.4 386.6 407.0 419.2 448.5 460.6 444.0 402.9 394.1 392.8 411.2 438.8 403.8 355.1 310.7 264.5 272.2 289.0 299.1 308.4 343.0 339.0 329.8 378.8 352.2 313.2 290.6 279.1 291.3 292.9 286.8 288.2 271.3 256.7 258.2 247.9 222.1 253.7 275.4 282.6 296.5 328.8 362.4 378.5 346.8 346.2 317.2 305.2 310.1 333.3 370.7 399.6 394.9 352.3 337.7 407.5 370.0 371.9 381.8 400.4 429.5 461.9 466.8 509.8 557.5 647.7 692.0 683.4 685.5 697.2 710.0 730.9 747.0 766.6 761.6 762.8 769.5 778.7 788.7 812.3 841.1 835.5 855.6 865.3 864.1 856.3 843.5 832.4 778.8 629.3 538.1 474.8 390.5 581.5 706.5 762.5 740.3 620.3 527.5 582.0 607.7 618.4 648.6 690.1 791.5 845.4 843.2 841.3 846.8 901.9 979.2 1056.5 1009.2 904.9 851.2 858.9 920.2 966.9 962.5 888.2 805.2 799.3 864.6 796.7 860.0 907.0 837.8 880.2 788.5 718.2 682.7 647.6 598.4 646.4 711.4 758.3 804.5 873.1 958.4 928.5 967.5 994.0 991.2 859.8 912.4 934.3 933.2 991.9 876.4 676.5 501.3 376.3 473.2 598.0 670.5 763.7 834.4 886.5 712.2 544.8 422.3 310.6 324.6 385.5 492.9 624.9 552.8 462.5 365.3 257.7 251.6 272.7 257.2 200.8 177.3 171.7 183.8 194.8 145.4 114.1 99.6 78.3 69.9 83.1 80.2 74.2 52.3 45.2 46.9 -9999.0 -9999.0 -9999.0 -9999.0 -9999.0 -9999.0 -9999.0 -9999.0 -9999.0 -9999.0 -9999.0 -9999.0 -9999.0 -9999.0 -9999.0 -9999.0 -9999.0 -9999.0 -9999.0 -9999.0 -9999.0 -9999.0 -9999.0 -9999.0 -9999.0 -9999.0 -9999.0 -9999.0 -9999.0 -9999.0 -9999.0 -9999.0 -9999.0 -9999.0 -9999.0
-9999.0 -9999.0 -9999.0 -9999.0 -9999.0 -9999.0 -9999.0 -9999.0 -9999.0 -9999.0 -9999.0 -9999.0 -9999.0 -9999.0 -9999.0 -9999.0 -9999.0 -9999.0 -9999.0 -9999.0 -9999.0 -9999.0 -9999.0 -9999.0 -9999.0 -9999.0 -9999.0 -9999.0 -9999.0 -9999.0 -9999.0 -9999.0 -9999.0 -9999.0 -9999.0 -9999.0 -9999.0 -9999.0 -9999.0 -9999.0 -9999.0 -9999.0 -9999.0 -9999.0 -9999.0 -9999.0 -9999.0 -9999.0 -9999.0 -9999.0 -9999.0 -9999.0 -9999.0 -9999.0 -9999.0 -9999.0 -9999.0 -9999.0 -9999.0 -9999.0 -9999.0 -9999.0 -9999.0 -9999.0 -9999.0 -9999.0 -9999.0 -9999.0 -9999.0 -9999.0 -9999.0 -9999.0 -9999.0 -9999.0 -9999.0 -9999.0 -9999.0 -9999.0 -9999.0 -9999.0 -9999.0 -9999.0 -9999.0 -9999.0 -9999.0 -9999.0 -9999.0 -9999.0 -9999.0 32.6 38.2 40.5 42.4 42.9 43.5 44.5 46.4 47.1 45.0 46.5 47.4 45.7 48.7 51.7 52.3 54.9 57.0 60.0 63.1 66.5 71.5 75.8 80.4 86.0 91.5 100.7 111.5 121.4 133.1 148.2 161.1 171.2 178.9 230.1 373.0 428.3 454.7 498.0 536.6 535.5 504.3 448.3 435.2 448.5 453.2 471.8 465.5 419.7 364.0 320.0 331.9 355.3 356.9 353.1 359.6 346.0 351.7 357.8 331.3 308.1 288.2 274.7 283.4 279.1 284.3 285.6 289.4 271.6 250.9 238.2 226.1 230.5 257.3 294.7 337.0 353.4 373.3 398.5 380.4 405.2 393.0 352.3 334.2 330.9 392.8 430.5 388.1 341.5 332.1 368.5 348.4 355.3 383.3 401.2 412.0 420.2 455.4 505.6 571.3 601.9 652.8 659.4 662.5 670.7 689.3 699.4 718.9 734.0 745.7 733.4 753.9 764.7 775.8 799.4 822.2 821.5 835.1 889.3 856.6 832.1 840.7 842.3 814.5 776.8 718.5 598.5 412.1 510.6 680.7 735.5 638.4 503.0 531.8 646.4 704.0 723.7 765.8 817.1 833.1 835.8 848.6 858.7 894.5 940.1 978.8 995.5 993.3 918.8 885.6 823.8 785.3 833.3 933.3 957.5 902.6 766.1 769.1 846.9 932.2 975.8 850.0 809.6 816.0 827.3 786.2 704.1 611.1 566.3 626.2 725.2 803.3 892.4 890.0 880.3 968.7 930.6 864.2 848.5 930.3 957.3 971.6 990.5 895.7 690.9 525.2 379.3 369.7 446.1 546.9 636.2 738.1 835.2 820.5 677.7 525.7 351.2 311.3 328.1 399.0 506.2 514.7 488.5 413.8 272.3 188.0 198.1 231.9 210.8 242.5 273.2 267.6 271.8 269.2 209.5 133.3 98.5 86.9 85.8 128.0 147.6 102.2 47.5 -9999.0 -9999.0 -9999.0 -9999.0 -9999.0 -9999.0 -9999.0 -9999.0 -9999.0 -9999.0 -9999.0 -9999.0 -9999.0 -9999.0 -9999.0 -9999.0 -9999.0 -9999.0 -9999.0 -9999.0 -9999.0 -9999.0 -9999.0 -9999.0 -9999.0 -9999.0 -9999.0 -9999.0 -9999.0 -9999.0 -9999.0 -9999.0 -9999.0 -9999.0 -9999.0 -9999.0
-9999.0 -9999.0 -9999.0 -9999.0 -9999.0 -9999.0 -9999.0 -9999.0 -9999.0 -9999.0 -9999.0 -9999.0 -9999.0 -9999.0 -9999.0 -9999.0 -9999.0 -9999.0 -9999.0 -9999.0 -9999.0 -9999.0 -9999.0 -9999.0 -9999.0 -9999.0 -9999.0 -9999.0 -9999.0 -9999.0 -9999.0 -9999.0 -9999.0 -9999.0 -9999.0 -9999.0 -9999.0 -9999.0 -9999.0 -9999.0 -9999.0 -9999.0 -9999.0 -9999.0 -9999.0 -9999.0 -9999.0 -9999.0 -9999.0 -9999.0 -9999.0 -9999.0 -9999.0 -9999.0 -9999.0 -9999.0 -9999.0 -9999.0 -9999.0 -9999.0 -9999.0 -9999.0 -9999.0 -9999.0 -9999.0 -9999.0 -9999.0 -9999.0 -9999.0 -9999.0 -9999.0 -9999.0 -9999.0 -9999.0 -9999.0 -9999.0 -9999.0 -9999.0 -9999.0 -9999.0 -9999.0 -9999.0 -9999.0 -9999.0 -9999.0 -9999.0 -9999.0 -9999.0 -9999.0 26.4 36.0 36.9 39.8 41.8 43.5 43.2 45.7 47.8 48.3 46.9 46.8 44.6 48.6 50.0 51.2 52.6 56.2 59.1 62.9 67.6 72.8 78.2 83.7 89.6 96.0 103.4 113.0 127.0 140.4 155.3 171.0 189.3 210.2 240.6 318.6 399.2 470.0 524.6 601.4 615.9 558.9 524.4 488.5 482.2 476.9 480.5 480.8 465.5 428.5 418.0 440.5 447.8 413.4 374.8 370.7 364.3 352.9 330.4 319.9 308.0 294.3 284.0 267.6 263.9 265.5 270.6 265.9 260.3 244.4 225.5 226.5 255.3 292.1 333.5 334.8 334.2 362.2 372.3 360.2 397.0 401.3 396.1 403.8 378.2 413.9 418.5 385.6 355.6 334.0 350.7 335.3 350.2 362.2 380.8 395.3 412.9 440.9 500.0 520.1 559.3 591.1 626.5 649.1 657.7 668.7 676.1 699.7 712.7 720.5 715.5 722.1 742.3 751.9 747.1 762.8 779.5 819.0 839.8 873.0 851.3 807.8 790.7 795.0 782.4 762.5 654.9 436.9 504.4 712.3 620.9 495.5 440.0 583.6 727.2 790.7 804.9 825.7 826.9 827.4 825.7 840.1 847.3 875.1 869.4 920.0 977.8 941.2 814.7 793.5 778.9 795.8 742.0 806.7 835.8 804.5 748.9 854.6 955.8 1026.9 999.3 926.7 965.0 1015.0 997.7 911.3 812.1 736.6 617.3 569.3 603.1 663.0 715.9 740.6 770.9 788.1 785.0 842.5 936.6 986.2 990.7 996.3 1008.2 937.4 782.4 617.7 478.6 366.2 306.8 394.9 502.4 610.1 724.9 790.3 623.5 489.5 352.2 247.4 223.3 303.7 464.1 456.2 401.8 393.2 326.9 195.7 165.4 252.3 271.1 274.6 277.0 277.5 279.1 275.9 244.5 168.9 112.8 89.4 75.2 95.8 121.7 98.0 55.6 -9999.0 -9999.0 -9999.0 -9999.0 -9999.0 -9999.0 -9999.0 -9999.0 -9999.0 -9999.0 -9999.0 -9999.0 -9999.0 -9999.0 -9999.0 -9999.0 -9999.0 -9999.0 -9999.0 -9999.0 -9999.0 -9999.0 -9999.0 -9999.0 -9999.0 -9999.0 -9999.0 -9999.0 -9999.0 -9999.0 -9999.0 -9999.0 -9999.0 -9999.0 -9999.0 -9999.0
-9999.0 -9999.0 -9999.0 -9999.0 -9999.0 -9999.0 -9999.0 -9999.0 -9999.0 -9999.0 -9999.0 -9999.0 -9999.0 -9999.0 -9999.0 -9999.0 -9999.0 -9999.0 -9999.0 -9999.0 -9999.0 -9999.0 -9999.0 -9999.0 -9999.0 -9999.0 -9999.0 -9999.0 -9999.0 -9999.0 -9999.0 -9999.0 -9999.0 -9999.0 -9999.0 -9999.0 -9999.0 -9999.0 -9999.0 -9999.0 -9999.0 -9999.0 -9999.0 -9999.0 -9999.0 -9999.0 -9999.0 -9999.0 -9999.0 -9999.0 -9999.0 -9999.0 -9999.0 -9999.0 -9999.0 -9999.0 -9999.0 -9999.0 -9999.0 -9999.0 -9999.0 -9999.0 -9999.0 -9999.0 -9999.0 -9999.0 -9999.0 -9999.0 -9999.0 -9999.0 -9999.0 -9999.0 -9999.0 -9999.0 -9999.0 -9999.0 -9999.0 -9999.0 -9999.0 -9999.0 -9999.0 -9999.0 -9999.0 -9999.0 -9999.0 -9999.0 -9999.0 -9999.0 -9999.0 16.0 26.0 32.0 35.9 39.5 41.4 40.6 41.3 42.5 42.7 42.1 40.5 40.4 41.0 42.7 45.8 51.7 55.5 59.8 63.7 68.7 72.9 78.6 84.9 91.2 97.9 105.4 114.0 123.2 136.0 149.9 168.0 199.3 239.5 280.4 289.6 392.9 448.3 560.5 605.3 634.3 620.8 559.2 525.9 504.8 498.9 494.4 489.0 481.3 474.1 472.2 466.7 415.9 377.4 353.0 372.5 356.6 339.2 331.2 322.9 312.5 298.6 287.6 270.6 261.2 253.7 256.1 251.0 251.0 231.1 233.2 252.1 279.9 298.9 300.8 314.0 311.7 336.1 326.6 366.6 365.1 358.8 375.9 393.7 419.2 450.6 423.3 411.6 373.9 359.4 378.1 354.8 344.5 358.6 372.7 399.4 406.6 420.1 465.3 494.3 528.3 547.7 560.5 605.3 649.6 667.3 677.6 679.8 681.0 684.9 689.8 694.5 714.8 721.7 724.0 736.8 755.9 780.3 812.0 846.7 861.9 838.3 798.8 751.9 718.5 696.2 599.0 402.8 508.9 644.4 500.6 426.8 512.1 643.6 782.7 804.2 815.0 827.9 828.2 821.6 815.4 826.6 837.7 833.2 835.2 874.1 916.8 924.1 830.0 717.8 736.9 713.5 699.0 705.7 697.9 712.7 805.1 923.9 985.3 1041.5 1034.4 1017.8 1024.6 1109.1 1040.5 915.2 791.7 688.4 590.6 563.6 675.6 768.9 849.4 894.5 876.4 863.4 938.7 979.6 988.6 915.2 943.0 973.9 976.2 903.2 883.7 735.0 588.9 447.6 321.6 278.6 357.6 464.1 583.8 716.3 690.9 527.6 400.4 278.9 191.9 245.2 410.7 462.6 423.1 360.3 307.9 234.7 145.5 200.6 263.1 274.3 273.2 262.9 251.8 209.6 161.8 140.5 87.3 78.0 63.3 65.3 76.5 75.4 61.9 -9999.0 -9999.0 -9999.0 -9999.0 -9999.0 -9999.0 -9999.0 -9999.0 -9999.0 -9999.0 -9999.0 -9999.0 -9999.0 -9999.0 -9999.0 -9999.0 -9999.0 -9999.0 -9999.0 -9999.0 -9999.0 -9999.0 -9999.0 -9999.0 -9999.0 -9999.0 -9999.0 -9999.0 -9999.0 -9999.0 -9999.0 -9999.0 -9999.0 -9999.0 -9999.0 -9999.0
-9999.0 -9999.0 -9999.0 -9999.0 -9999.0 -9999.0 -9999.0 -9999.0 -9999.0 -9999.0 -9999.0 -9999.0 -9999.0 -9999.0 -9999.0 -9999.0 -9999.0 -9999.0 -9999.0 -9999.0 -9999.0 -9999.0 -9999.0 -9999.0 -9999.0 -9999.0 -9999.0 -9999.0 -9999.0 -9999.0 -9999.0 -9999.0 -9999.0 -9999.0 -9999.0 -9999.0 -9999.0 -9999.0 -9999.0 -9999.0 -9999.0 -9999.0 -9999.0 -9999.0 -9999.0 -9999.0 -9999.0 -9999.0 -9999.0 -9999.0 -9999.0 -9999.0 -9999.0 -9999.0 -9999.0 -9999.0 -9999.0 -9999.0 -9999.0 -9999.0 -9999.0 -9999.0 -9999.0 -9999.0 -9999.0 -9999.0 -9999.0 -9999.0 -9999.0 -9999.0 -9999.0 -9999.0 -9999.0 -9999.0 -9999.0 -9999.0 -9999.0 -9999.0 -9999.0 -9999.0 -9999.0 -9999.0 -9999.0 -9999.0 -9999.0 -9999.0 -9999.0 -9999.0 -9999.0 16.5 10.3 11.7 24.7 33.0 34.2 35.8 38.6 38.8 39.0 38.8 38.8 39.9 40.9 42.9 45.8 49.6 53.6 57.8 62.9 68.0 73.4 78.2 84.0 90.0 96.5 104.0 112.7 124.3 144.9 168.8 194.9 262.7 316.2 349.9 328.3 339.3 410.7 493.0 577.6 597.6 584.8 563.3 552.0 528.8 515.1 511.8 504.2 493.6 482.4 477.6 474.4 447.4 378.6 345.3 351.5 342.8 320.9 310.4 309.0 300.5 301.1 288.4 270.6 263.3 253.3 248.5 245.1 249.3 233.0 235.0 254.9 260.9 264.8 268.7 283.4 286.3 316.9 317.7 348.4 330.4 371.9 363.7 402.2 478.3 497.9 448.2 399.2 395.1 391.3 401.4 385.6 339.3 342.2 357.0 383.5 391.3 411.3 432.1 455.8 465.9 484.6 558.6 584.2 613.8 633.7 640.7 644.5 652.1 656.6 661.1 671.7 685.9 698.9 713.4 722.4 745.1 767.1 780.1 807.7 825.1 843.3 843.4 810.4 813.0 712.6 563.8 440.1 369.0 392.7 394.1 519.0 645.3 754.9 799.4 825.9 822.3 827.6 821.8 815.6 811.0 819.7 826.5 796.9 804.1 838.3 829.6 867.9 874.8 749.9 652.8 666.4 662.5 659.9 725.5 739.7 773.8 825.3 882.0 956.3 976.1 1001.3 1021.6 1071.4 1005.3 946.6 850.9 727.6 602.4 542.2 685.8 832.9 895.6 963.6 877.7 899.5 900.2 908.6 892.7 907.3 946.0 971.6 886.6 896.6 955.1 859.2 707.2 584.3 446.6 331.1 256.2 322.0 451.4 547.6 666.5 600.5 451.8 321.0 207.8 175.9 287.5 366.1 361.7 332.4 280.2 237.3 157.8 138.7 187.1 264.3 280.3 265.1 235.1 208.4 148.1 87.9 67.5 60.2 55.2 51.5 52.6 49.4 -9999.0 -9999.0 -9999.0 -9999.0 -9999.0 -9999.0 -9999.0 -9999.0 -9999.0 -9999.0 -9999.0 -9999.0 -9999.0 -9999.0 -9999.0 -9999.0 -9999.0 -9999.0 -9999.0 -9999.0 -9999.0 -9999.0 -9999.0 -9999.0 -9999.0 -9999.0 -9999.0 -9999.0 -9999.0 -9999.0 -9999.0 -9999.0 -9999.0 -9999.0 -9999.0 -9999.0 -9999.0
-9999.0 -9999.0 -9999.0 -9999.0 -9999.0 -9999.0 -9999.0 -9999.0 -9999.0 -9999.0 -9999.0 -9999.0 -9999.0 -9999.0 -9999.0 -9999.0 -9999.0 -9999.0 -9999.0 -9999.0 -9999.0 -9999.0 -9999.0 -9999.0 -9999.0 -9999.0 -9999.0 -9999.0 -9999.0 -9999.0 -9999.0 -9999.0 -9999.0 -9999.0 -9999.0 -9999.0 -9999.0 -9999.0 -9999.0 -9999.0 -9999.0 -9999.0 -9999.0 -9999.0 -9999.0 -9999.0 -9999.0 -9999.0 -9999.0 -9999.0 -9999.0 -9999.0 -9999.0 -9999.0 -9999.0 -9999.0 -9999.0 -9999.0 -9999.0 -9999.0 -9999.0 -9999.0 -9999.0 -9999.0 -9999.0 -9999.0 -9999.0 -9999.0 -9999.0 -9999.0 -9999.0 -9999.0 -9999.0 -9999.0 -9999.0 -9999.0 -9999.0 -9999.0 -9999.0 -9999.0 -9999.0 -9999.0 -9999.0 -9999.0 -9999.0 -9999.0 -9999.0 -9999.0 30.5 21.0 20.8 20.9 18.7 22.2 29.8 33.6 37.7 38.6 38.9 38.8 39.2 40.6 42.0 47.3 50.3 53.3 57.3 60.0 63.5 67.4 71.3 76.4 83.1 88.5 95.2 103.9 116.2 135.6 163.5 210.9 268.0 291.5 399.0 451.7 453.8 378.0 419.9 465.8 562.2 612.1 594.2 599.7 580.6 543.4 511.6 523.4 519.8 500.1 482.5 472.3 472.1 465.2 421.5 360.2 324.8 316.5 307.2 294.1 288.5 287.9 286.1 283.0 273.9 261.4 253.8 246.5 242.3 243.1 230.7 236.0 242.6 243.8 255.2 258.6 262.2 262.9 283.9 301.6 311.6 326.2 344.9 378.6 464.1 516.0 502.9 460.1 438.8 434.0 429.3 403.2 378.6 357.7 349.6 349.5 370.8 384.9 395.3 404.7 419.7 426.2 455.4 490.6 530.1 547.0 574.8 582.9 601.2 621.9 633.9 629.7 627.3 665.5 682.8 703.1 714.9 726.8 742.8 752.6 769.1 787.0 826.7 857.6 866.4 868.5 796.9 723.7 617.8 511.7 364.0 424.4 612.6 720.0 778.5 808.9 818.9 802.5 812.3 817.2 811.6 807.5 811.9 811.6 762.3 765.5 732.8 795.7 797.8 757.8 670.3 679.1 790.1 809.8 727.0 728.1 825.0 842.2 806.7 801.6 850.9 911.0 990.1 1058.1 1025.5 924.1 875.3 857.2 766.6 623.5 522.3 656.2 813.1 902.4 929.0 884.7 843.1 847.5 858.8 871.8 905.9 864.7 875.5 880.9 953.0 967.7 931.4 797.7 662.3 531.1 400.0 280.2 243.9 328.5 414.4 536.9 628.0 535.0 352.4 197.0 146.0 171.6 194.3 253.4 279.4 234.5 213.3 164.4 118.9 158.6 257.4 251.4 185.4 143.7 118.5 92.2 79.1 67.1 58.7 53.0 46.6 46.3 42.7 -9999.0 -9999.0 -9999.0 -9999.0 -9999.0 -9999.0 -9999.0 -9999.0 -9999.0 -9999.0 -9999.0 -9999.0 -9999.0 -9999.0 -9999.0 -9999.0 -9999.0 -9999.0 -9999.0 -9999.0 -9999.0 -9999.0 -9999.0 -9999.0 -9999.0 -9999.0 -9999.0 -9999.0 -9999.0 -9999.0 -9999.0 -9999.0 -9999.0 -9999.0 -9999.0 -9999.0 -9999.0
-9999.0 -9999.0 -9999.0 -9999.0 -9999.0 -9999.0 -9999.0 -9999.0 -9999.0 -9999.0 -9999.0 -9999.0 -9999.0 -9999.0 -9999.0 -9999.0 -9999.0 -9999.0 -9999.0 -9999.0 -9999.0 -9999.0 -9999.0 -9999.0 -9999.0 -9999.0 -9999.0 -9999.0 -9999.0 -9999.0 -9999.0 -9999.0 -9999.0 -9999.0 -9999.0 -9999.0 -9999.0 -9999.0 -9999.0 -9999.0 -9999.0 -9999.0 -9999.0 -9999.0 -9999.0 -9999.0 -9999.0 -9999.0 -9999.0 -9999.0 -9999.0 -9999.0 -9999.0 -9999.0 -9999.0 -9999.0 -9999.0 -9999.0 -9999.0 -9999.0 -9999.0 -9999.0 -9999.0 -9999.0 -9999.0 -9999.0 -9999.0 -9999.0 -9999.0 -9999.0 -9999.0 -9999.0 -9999.0 -9999.0 -9999.0 -9999.0 -9999.0 -9999.0 -9999.0 -9999.0 -9999.0 -9999.0 -9999.0 -9999.0 -9999.0 -9999.0 -9999.0 -9999.0 37.0 35.0 35.9 36.2 33.0 28.1 29.8 33.4 37.3 38.5 38.6 38.6 39.2 45.3 45.1 47.3 50.6 52.7 56.7 61.8 65.3 69.4 74.2 79.8 90.2 97.2 104.7 111.9 126.2 161.1 213.2 246.3 315.3 402.7 478.8 501.1 538.2 463.4 494.7 549.4 653.0 689.3 650.2 616.0 570.7 493.4 456.3 453.9 440.7 416.3 423.4 420.4 416.8 421.3 420.3 389.1 354.7 315.5 299.5 291.2 280.1 275.3 271.9 269.7 269.5 264.6 256.8 252.1 247.7 259.4 252.8 248.1 255.6 272.9 289.2 303.4 302.9 299.2 273.6 277.8 310.9 328.2 336.1 432.0 488.8 506.0 491.5 475.4 471.7 482.4 438.0 404.2 383.0 369.5 354.9 351.0 367.2 371.4 389.7 408.8 411.3 423.7 464.8 485.0 496.9 528.3 516.6 539.2 591.1 621.0 637.3 608.7 587.4 633.2 661.5 684.4 705.4 721.8 733.2 743.2 756.3 766.4 795.3 828.1 835.1 851.6 830.9 779.5 735.5 578.1 431.5 355.5 518.5 644.7 747.7 775.7 777.1 792.2 811.4 819.8 810.2 805.6 804.3 802.6 761.7 705.5 645.2 632.0 628.6 616.0 700.1 806.7 856.5 918.0 862.4 797.5 793.1 924.5 978.0 932.2 942.9 1000.6 1060.1 1034.8 961.7 902.6 763.6 663.3 631.1 566.6 514.2 658.8 794.8 872.8 871.4 897.4 869.0 825.8 829.6 840.4 860.9 898.3 897.3 907.4 946.2 959.3 865.6 828.9 744.7 603.7 459.6 327.3 265.5 221.9 300.1 391.7 473.2 456.9 293.3 194.5 137.0 123.2 119.0 128.2 143.0 127.6 188.1 155.1 109.0 177.2 318.3 316.4 210.7 156.5 106.2 87.5 76.4 68.5 61.3 53.4 47.1 43.4 43.7 -9999.0 -9999.0 -9999.0 -9999.0 -9999.0 -9999.0 -9999.0 -9999.0 -9999.0 -9999.0 -9999.0 -9999.0 -9999.0 -9999.0 -9999.0 -9999.0 -9999.0 -9999.0 -9999.0 -9999.0 -9999.0 -9999.0 -9999.0 -9999.0 -9999.0 -9999.0 -9999.0 -9999.0 -9999.0 -9999.0 -9999.0 -9999.0 -9999.0 -9999.0 -9999.0 -9999.0 -9999.0
-9999.0 -9999.0 -9999.0 -9999.0 -9999.0 -9999.0 -9999.0 -9999.0 -9999.0 -9999.0 -9999.0 -9999.0 -9999.0 -9999.0 -9999.0 -9999.0 -9999.0 -9999.0 -9999.0 -9999.0 -9999.0 -9999.0 -9999.0 -9999.0 -9999.0 -9999.0 -9999.0 -9999.0 -9999.0 -9999.0 -9999.0 -9999.0 -9999.0 -9999.0 -9999.0 -9999.0 -9999.0 -9999.0 -9999.0 -9999.0 -9999.0 -9999.0 -9999.0 -9999.0 -9999.0 -9999.0 -9999.0 -9999.0 -9999.0 -9999.0 -9999.0 -9999.0 -9999.0 -9999.0 -9999.0 -9999.0 -9999.0 -9999.0 -9999.0 -9999.0 -9999.0 -9999.0 -9999.0 -9999.0 -9999.0 -9999.0 -9999.0 -9999.0 -9999.0 -9999.0 -9999.0 -9999.0 -9999.0 -9999.0 -9999.0 -9999.0 -9999.0 -9999.0 -9999.0 -9999.0 -9999.0 -9999.0 -9999.0 -9999.0 -9999.0 -9999.0 -9999.0 -9999.0 41.1 40.3 41.2 41.7 40.1 37.4 34.7 35.9 37.8 38.2 38.3 38.6 39.8 46.7 46.8 48.9 51.3 54.3 60.4 62.5 67.2 73.0 78.4 84.4 93.0 106.4 121.5 139.7 167.4 216.6 273.0 347.7 363.3 379.3 504.8 559.8 592.6 635.1 610.4 653.1 713.5 688.1 633.3 592.4 523.3 465.2 428.6 394.7 369.6 373.2 380.3 376.8 373.7 348.8 369.3 387.8 354.1 325.6 311.2 298.6 286.2 278.0 277.2 272.7 267.9 267.2 261.2 254.4 262.1 273.1 271.2 267.9 271.1 298.6 331.1 366.0 360.5 337.3 317.1 281.8 281.8 304.5 316.4 373.4 448.7 474.2 471.0 465.9 472.7 489.3 463.9 428.4 397.3 398.7 373.9 349.2 353.0 363.6 381.5 404.8 413.5 419.4 437.3 452.6 478.9 489.5 556.1 597.5 603.0 607.6 604.3 600.4 571.6 596.5 634.5 669.8 697.5 713.6 723.8 735.1 749.1 763.9 782.7 794.3 813.9 826.6 829.7 785.3 723.0 580.6 460.6 369.9 333.8 466.4 617.2 652.0 772.9 799.7 821.4 822.3 818.6 809.6 801.3 787.6 719.5 592.8 581.6 680.6 719.6 729.5 792.8 858.5 957.9 1033.9 1032.3 962.8 861.4 861.7 991.4 1025.9 1002.3 997.3 1000.6 1025.4 1027.9 961.1 840.6 759.8 714.6 600.2 495.9 589.1 743.1 864.8 838.1 832.4 859.3 823.5 810.9 834.9 869.0 888.5 878.1 915.5 963.9 906.7 776.4 762.1 776.9 660.3 527.4 471.0 357.5 249.3 206.8 239.0 355.3 413.2 332.5 233.2 143.2 148.9 140.0 136.4 111.0 102.7 113.0 115.1 96.9 130.9 203.1 248.6 210.6 169.7 107.8 94.7 79.6 65.6 57.7 50.9 45.7 43.9 -9999.0 -9999.0 -9999.0 -9999.0 -9999.0 -9999.0 -9999.0 -9999.0 -9999.0 -9999.0 -9999.0 -9999.0 -9999.0 -9999.0 -9999.0 -9999.0 -9999.0 -9999.0 -9999.0 -9999.0 -9999.0 -9999.0 -9999.0 -9999.0 -9999.0 -9999.0 -9999.0 -9999.0 -9999.0 -9999.0 -9999.0 -9999.0 -9999.0 -9999.0 -9999.0 -9999.0 -9999.0 -9999.0
-9999.0 -9999.0 -9999.0 -9999.0 -9999.0 -9999.0 -9999.0 -9999.0 -9999.0 -9999.0 -9999.0 -9999.0 -9999.0 -9999.0 -9999.0 -9999.0 -9999.0 -9999.0 -9999.0 -9999.0 -9999.0 -9999.0 -9999.0 -9999.0 -9999.0 -9999.0 -9999.0 -9999.0 -9999.0 -9999.0 -9999.0 -9999.0 -9999.0 -9999.0 -9999.0 -9999.0 -9999.0 -9999.0 -9999.0 -9999.0 -9999.0 -9999.0 -9999.0 -9999.0 -9999.0 -9999.0 -9999.0 -9999.0 -9999.0 -9999.0 -9999.0 -9999.0 -9999.0 -9999.0 -9999.0 -9999.0 -9999.0 -9999.0 -9999.0 -9999.0 -9999.0 -9999.0 -9999.0 -9999.0 -9999.0 -9999.0 -9999.0 -9999.0 -9999.0 -9999.0 -9999.0 -9999.0 -9999.0 -9999.0 -9999.0 -9999.0 -9999.0 -9999.0 -9999.0 -9999.0 -9999.0 -9999.0 -9999.0 -9999.0 -9999.0 -9999.0 -9999.0 -9999.0 42.8 41.3 42.7 44.1 43.3 42.7 42.2 41.6 40.8 39.2 38.6 39.5 39.8 41.2 45.5 49.0 52.3 54.9 60.1 63.3 69.0 75.1 81.7 89.9 99.1 112.5 131.2 155.0 181.1 226.9 300.1 368.4 448.5 485.9 516.5 586.3 643.5 713.0 757.8 758.2 742.7 705.4 647.5 574.7 520.9 488.9 454.2 397.2 348.8 330.1 346.9 345.1 315.3 288.8 347.0 351.7 322.2 318.5 321.2 304.8 299.0 289.3 289.8 285.0 284.8 302.4 299.1 288.8 302.3 331.3 310.2 319.0 299.9 313.6 378.3 472.0 489.1 430.2 385.4 346.4 305.6 288.7 301.8 340.0 412.5 440.1 460.7 474.1 495.5 522.7 498.5 458.8 429.4 417.6 399.9 367.7 355.1 353.7 369.2 377.7 389.5 405.6 413.1 423.1 453.6 459.9 515.6 570.0 577.0 586.2 577.4 574.0 561.7 578.0 613.7 639.1 674.3 693.3 706.2 720.1 738.6 743.2 764.5 775.0 797.4 805.9 814.9 827.1 811.0 701.2 549.3 452.0 351.5 363.9 433.9 576.4 698.6 765.5 803.8 805.5 802.7 810.0 797.2 766.0 671.3 546.5 610.8 676.6 787.2 869.3 884.8 945.5 1024.1 1056.2 1081.5 1041.2 1013.9 956.5 928.7 969.5 946.0 973.3 958.1 963.1 965.5 934.3 899.5 823.4 714.6 596.3 498.0 589.3 744.3 838.9 865.0 838.2 816.3 810.2 801.1 823.3 837.6 843.5 855.4 887.8 930.3 774.4 696.6 839.9 910.9 811.8 655.5 582.0 452.9 367.7 278.8 197.3 211.7 311.5 274.6 177.9 157.8 300.4 355.2 245.3 152.5 119.5 99.0 89.4 87.6 101.7 184.4 195.5 175.2 119.5 87.4 94.0 79.6 65.3 59.2 50.4 46.8 44.9 -9999.0 -9999.0 -9999.0 -9999.0 -9999.0 -9999.0 -9999.0 -9999.0 -9999.0 -9999.0 -9999.0 -9999.0 -9999.0 -9999.0 -9999.0 -9999.0 -9999.0 -9999.0 -9999.0 -9999.0 -9999.0 -9999.0 -9999.0 -9999.0 -9999.0 -9999.0 -9999.0 -9999.0 -9999.0 -9999.0 -9999.0 -9999.0 -9999.0 -9999.0 -9999.0 -9999.0 -9999.0 -9999.0
-9999.0 -9999.0 -9999.0 -9999.0 -9999.0 -9999.0 -9999.0 -9999.0 -9999.0 -9999.0 -9999.0 -9999.0 -9999.0 -9999.0 -9999.0 -9999.0 -9999.0 -9999.0 -9999.0 -9999.0 -9999.0 -9999.0 -9999.0 -9999.0 -9999.0 -9999.0 -9999.0 -9999.0 -9999.0 -9999.0 -9999.0 -9999.0 -9999.0 -9999.0 -9999.0 -9999.0 -9999.0 -9999.0 -9999.0 -9999.0 -9999.0 -9999.0 -9999.0 -9999.0 -9999.0 -9999.0 -9999.0 -9999.0 -9999.0 -9999.0 -9999.0 -9999.0 -9999.0 -9999.0 -9999.0 -9999.0 -9999.0 -9999.0 -9999.0 -9999.0 -9999.0 -9999.0 -9999.0 -9999.0 -9999.0 -9999.0 -9999.0 -9999.0 -9999.0 -9999.0 -9999.0 -9999.0 -9999.0 -9999.0 -9999.0 -9999.0 -9999.0 -9999.0 -9999.0 -9999.0 -9999.0 -9999.0 -9999.0 -9999.0 -9999.0 -9999.0 -9999.0 46.6 42.6 41.7 43.6 44.9 45.3 45.7 45.7 44.0 43.7 40.6 39.4 39.8 39.2 41.5 44.4 47.8 52.1 55.8 60.9 65.3 71.4 76.2 82.9 91.1 101.0 112.8 127.8 148.4 200.8 251.9 314.2 347.5 383.5 502.5 594.9 647.6 719.3 779.1 798.8 786.3 771.6 750.5 693.4 569.6 523.0 508.6 471.1 395.3 345.7 308.8 294.8 298.9 277.2 255.2 293.9 315.8 295.2 295.0 297.3 284.5 276.1 268.9 267.4 278.6 299.4 330.7 376.6 397.6 395.0 416.8 432.8 433.8 391.2 395.0 401.1 416.5 495.3 508.5 445.9 381.7 352.1 330.1 296.7 324.2 344.3 393.4 433.0 461.6 517.8 553.4 506.4 467.6 432.7 414.2 399.8 372.6 359.6 355.5 367.6 374.6 380.5 391.0 399.0 408.9 431.3 429.9 455.8 497.5 522.4 558.8 569.0 553.2 546.1 547.7 584.0 608.5 630.0 650.5 681.3 712.2 727.9 741.4 750.1 763.6 771.0 786.1 787.6 812.4 833.5 823.9 737.5 586.0 430.0 373.2 553.1 578.3 665.4 738.9 771.5 778.0 770.2 778.7 767.3 742.3 660.4 530.5 620.6 737.8 816.4 926.6 1014.1 1059.0 1040.7 982.0 996.6 976.6 982.5 968.0 902.9 890.9 892.9 943.2 940.5 896.2 884.7 878.6 877.4 797.1 706.4 584.9 504.4 663.9 801.8 830.0 864.1 867.8 819.2 787.5 783.0 797.1 797.6 836.2 879.0 946.3 859.2 694.4 647.0 786.0 860.5 837.0 722.0 574.5 431.8 312.8 261.3 233.6 189.8 200.9 191.9 201.7 194.2 303.2 459.2 364.3 212.6 132.4 112.2 96.5 83.8 79.5 108.2 103.3 122.1 89.6 73.5 99.4 79.3 63.2 55.9 50.5 53.9 47.8 -9999.0 -9999.0 -9999.0 -9999.0 -9999.0 -9999.0 -9999.0 -9999.0 -9999.0 -9999.0 -9999.0 -9999.0 -9999.0 -9999.0 -9999.0 -9999.0 -9999.0 -9999.0 -9999.0 -9999.0 -9999.0 -9999.0 -9999.0 -9999.0 -9999.0 -9999.0 -9999.0 -9999.0 -9999.0 -9999.0 -9999.0 -9999.0 -9999.0 -9999.0 -9999.0 -9999.0 -9999.0 -9999.0
-9999.0 -9999.0 -9999.0 -9999.0 -9999.0 -9999.0 -9999.0 -9999.0 -9999.0 -9999.0 -9999.0 -9999.0 -9999.0 -9999.0 -9999.0 -9999.0 -9999.0 -9999.0 -9999.0 -9999.0 -9999.0 -9999.0 -9999.0 -9999.0 -9999.0 -9999.0 -9999.0 -9999.0 -9999.0 -9999.0 -9999.0 -9999.0 -9999.0 -9999.0 -9999.0 -9999.0 -9999.0 -9999.0 -9999.0 -9999.0 -9999.0 -9999.0 -9999.0 -9999.0 -9999.0 -9999.0 -9999.0 -9999.0 -9999.0 -9999.0 -9999.0 -9999.0 -9999.0 -9999.0 -9999.0 -9999.0 -9999.0 -9999.0 -9999.0 -9999.0 -9999.0 -9999.0 -9999.0 -9999.0 -9999.0 -9999.0 -9999.0 -9999.0 -9999.0 -9999.0 -9999.0 -9999.0 -9999.0 -9999.0 -9999.0 -9999.0 -9999.0 -9999.0 -9999.0 -9999.0 -9999.0 -9999.0 -9999.0 -9999.0 -9999.0 -9999.0 -9999.0 40.9 41.5 42.6 44.6 46.6 46.0 47.9 46.9 44.1 42.1 40.5 39.5 39.4 39.2 40.3 42.6 47.5 51.4 54.6 58.5 63.9 70.1 75.7 82.5 91.6 100.4 112.1 123.0 147.1 206.3 280.7 342.3 418.9 453.7 448.1 495.5 579.0 675.3 792.1 798.9 781.4 768.1 770.3 727.7 600.3 525.0 493.1 457.5 417.6 373.0 332.5 296.4 253.4 257.3 232.5 237.2 268.5 274.2 264.0 281.1 273.4 259.8 254.3 264.2 288.5 351.2 445.1 494.4 521.4 526.5 529.4 538.1 533.9 509.8 509.4 508.4 474.1 476.1 428.9 379.4 358.3 352.8 332.7 324.7 320.3 342.6 341.7 374.8 436.6 468.9 480.0 474.0 439.7 418.8 407.2 388.3 373.4 391.2 378.3 367.2 371.9 376.7 382.7 391.4 401.9 415.1 436.9 472.8 475.6 492.6 522.3 553.7 532.3 540.0 539.8 548.4 557.1 576.8 625.9 656.3 690.8 711.0 726.3 753.8 766.8 759.5 759.8 769.5 781.3 775.5 785.0 789.4 668.3 473.2 354.3 530.0 621.9 689.8 698.0 717.0 724.5 765.6 771.7 756.8 654.1 575.4 518.5 598.9 727.7 889.4 1015.2 1104.1 1094.4 1029.5 965.2 933.7 924.4 899.6 918.2 867.6 873.9 851.7 868.0 909.5 946.4 887.6 797.6 837.9 791.9 632.8 501.6 520.2 675.0 803.6 811.1 815.3 814.7 841.3 791.7 761.8 731.7 636.6 706.8 844.1 872.7 739.3 606.5 619.9 730.9 784.1 796.1 716.5 575.2 450.7 334.0 297.8 273.7 208.3 177.5 197.0 302.5 326.3 364.5 401.1 314.5 223.8 181.1 124.0 102.7 92.8 82.8 75.0 73.8 72.1 72.8 67.8 62.1 59.6 57.6 52.3 51.5 68.6 58.7 -9999.0 -9999.0 -9999.0 -9999.0 -9999.0 -9999.0 -9999.0 -9999.0 -9999.0 -9999.0 -9999.0 -9999.0 -9999.0 -9999.0 -9999.0 -9999.0 -9999.0 -9999.0 -9999.0 -9999.0 -9999.0 -9999.0 -9999.0 -9999.0 -9999.0 -9999.0 -9999.0 -9999.0 -9999.0 -9999.0 -9999.0 -9999.0 -9999.0 -9999.0 -9999.0 -9999.0 -9999.0 -9999.0
-9999.0 -9999.0 -9999.0 -9999.0 -9999.0 -9999.0 -9999.0 -9999.0 -9999.0 -9999.0 -9999.0 -9999.0 -9999.0 -9999.0 -9999.0 -9999.0 -9999.0 -9999.0 -9999.0 -9999.0 -9999.0 -9999.0 -9999.0 -9999.0 -9999.0 -9999.0 -9999.0 -9999.0 -9999.0 -9999.0 -9999.0 -9999.0 -9999.0 -9999.0 -9999.0 -9999.0 -9999.0 -9999.0 -9999.0 -9999.0 -9999.0 -9999.0 -9999.0 -9999.0 -9999.0 -9999.0 -9999.0 -9999.0 -9999.0 -9999.0 -9999.0 -9999.0 -9999.0 -9999.0 -9999.0 -9999.0 -9999.0 -9999.0 -9999.0 -9999.0 -9999.0 -9999.0 -9999.0 -9999.0 -9999.0 -9999.0 -9999.0 -9999.0 -9999.0 -9999.0 -9999.0 -9999.0 -9999.0 -9999.0 -9999.0 -9999.0 -9999.0 -9999.0 -9999.0 -9999.0 -9999.0 -9999.0 -9999.0 -9999.0 -9999.0 -9999.0 -9999.0 36.3 40.5 42.3 44.6 45.7 47.1 47.8 46.8 43.9 40.8 39.7 39.2 39.1 39.1 40.6 43.8 46.4 50.1 54.5 59.3 66.2 70.8 78.5 86.1 96.8 111.2 127.8 145.0 161.0 204.0 264.7 310.5 383.5 474.2 529.6 581.5 594.8 652.9 782.3 794.8 774.9 752.4 761.4 750.0 662.5 560.4 500.9 446.1 424.0 396.2 351.9 311.7 272.9 265.1 264.9 239.5 234.7 257.2 243.8 262.3 263.5 247.4 247.2 245.0 255.6 328.2 460.6 527.5 535.5 541.1 547.1 551.8 557.0 562.5 568.7 570.6 562.5 559.2 490.1 418.2 372.4 354.5 341.7 348.6 362.2 370.1 375.1 380.4 423.5 443.3 447.4 439.1 423.3 407.4 396.2 379.9 394.5 397.0 383.9 375.1 387.1 389.2 390.4 393.6 404.8 423.6 460.1 498.2 518.1 518.2 540.5 562.4 522.8 508.8 518.9 535.7 540.9 549.5 589.2 630.8 652.1 675.4 723.8 756.9 771.1 751.9 735.5 732.6 728.6 720.5 691.7 679.4 625.2 512.9 363.5 450.6 633.4 747.2 724.9 704.7 711.1 712.0 624.9 586.4 531.1 565.6 569.2 675.7 742.7 879.2 1020.4 1060.2 1016.4 1000.2 960.3 901.5 900.0 883.0 823.9 789.7 805.4 841.4 845.7 793.2 861.3 896.2 844.6 725.9 710.5 545.9 518.7 685.4 779.7 826.9 784.2 722.4 768.5 777.9 753.1 696.6 565.2 494.7 564.6 625.7 621.1 586.2 536.5 569.7 610.0 593.0 627.4 705.7 649.9 519.8 429.6 404.0 293.6 252.5 238.3 218.0 368.0 481.2 498.4 425.9 325.5 277.0 233.2 133.1 110.8 101.4 91.7 95.0 84.1 64.5 60.6 58.4 54.7 53.1 51.4 49.7 44.9 42.9 42.7 -9999.0 -9999.0 -9999.0 -9999.0 -9999.0 -9999.0 -9999.0 -9999.0 -9999.0 -9999.0 -9999.0 -9999.0 -9999.0 -9999.0 -9999.0 -9999.0 -9999.0 -9999.0 -9999.0 -9999.0 -9999.0 -9999.0 -9999.0 -9999.0 -9999.0 -9999.0 -9999.0 -9999.0 -9999.0 -9999.0 -9999.0 -9999.0 -9999.0 -9999.0 -9999.0 -9999.0 -9999.0 -9999.0
-9999.0 -9999.0 -9999.0 -9999.0 -9999.0 -9999.0 -9999.0 -9999.0 -9999.0 -9999.0 -9999.0 -9999.0 -9999.0 -9999.0 -9999.0 -9999.0 -9999.0 -9999.0 -9999.0 -9999.0 -9999.0 -9999.0 -9999.0 -9999.0 -9999.0 -9999.0 -9999.0 -9999.0 -9999.0 -9999.0 -9999.0 -9999.0 -9999.0 -9999.0 -9999.0 -9999.0 -9999.0 -9999.0 -9999.0 -9999.0 -9999.0 -9999.0 -9999.0 -9999.0 -9999.0 -9999.0 -9999.0 -9999.0 -9999.0 -9999.0 -9999.0 -9999.0 -9999.0 -9999.0 -9999.0 -9999.0 -9999.0 -9999.0 -9999.0 -9999.0 -9999.0 -9999.0 -9999.0 -9999.0 -9999.0 -9999.0 -9999.0 -9999.0 -9999.0 -9999.0 -9999.0 -9999.0 -9999.0 -9999.0 -9999.0 -9999.0 -9999.0 -9999.0 -9999.0 -9999.0 -9999.0 -9999.0 -9999.0 -9999.0 -9999.0 -9999.0 29.5 35.9 40.7 43.0 44.5 45.6 46.2 47.3 46.3 45.5 41.4 39.5 39.1 39.2 39.2 40.9 44.4 46.4 51.7 55.4 58.8 65.5 71.7 80.0 89.7 101.4 115.6 133.7 155.1 180.1 214.1 245.5 293.6 375.6 414.2 518.8 571.7 622.7 727.2 810.6 789.0 764.5 750.1 730.2 738.5 709.0 612.7 488.5 454.5 430.0 397.0 358.7 312.9 333.7 324.4 279.4 256.1 215.0 226.8 230.0 241.1 252.9 239.7 240.0 232.3 246.2 276.7 364.9 496.7 538.3 543.5 551.6 555.2 561.1 570.8 579.6 583.6 576.6 574.6 564.5 525.0 453.1 431.1 399.1 416.3 418.1 444.4 422.4 422.6 504.3 555.9 483.9 435.4 418.6 407.2 397.1 385.3 398.3 394.4 387.0 380.1 383.4 388.5 390.2 396.1 406.9 416.0 455.5 497.5 527.5 548.5 566.6 576.0 558.3 511.4 522.6 531.8 532.5 533.2 561.6 589.1 624.4 647.3 693.4 739.9 784.8 779.4 728.9 736.7 737.2 675.2 678.7 642.4 619.2 586.2 491.8 331.1 471.1 633.1 638.6 673.5 696.9 696.3 611.9 513.6 638.4 717.6 645.8 691.9 815.2 926.0 1043.8 1027.0 1003.6 978.0 971.7 965.5 923.9 864.9 791.9 771.0 715.8 833.5 863.0 806.4 737.9 794.6 779.1 675.9 670.8 530.4 492.8 670.1 754.6 781.1 767.9 666.3 647.5 714.9 679.3 585.6 564.7 493.9 495.6 512.2 484.8 512.0 569.0 592.2 595.8 631.1 671.5 740.1 735.7 617.0 575.5 466.8 407.2 407.4 361.8 265.7 330.1 376.8 488.1 453.0 337.4 217.0 178.3 208.8 222.5 149.3 125.5 124.3 113.5 83.9 67.6 80.3 89.4 102.2 81.5 82.6 56.3 44.5 43.0 -9999.0 -9999.0 -9999.0 -9999.0 -9999.0 -9999.0 -9999.0 -9999.0 -9999.0 -9999.0 -9999.0 -9999.0 -9999.0 -9999.0 -9999.0 -9999.0 -9999.0 -9999.0 -9999.0 -9999.0 -9999.0 -9999.0 -9999.0 -9999.0 -9999.0 -9999.0 -9999.0 -9999.0 -9999.0 -9999.0 -9999.0 -9999.0 -9999.0 -9999.0 -9999.0 -9999.0 -9999.0 -9999.0
-9999.0 -9999.0 -9999.0 -9999.0 -9999.0 -9999.0 -9999.0 -9999.0 -9999.0 -9999.0 -9999.0 -9999.0 -9999.0 -9999.0 -9999.0 -9999.0 -9999.0 -9999.0 -9999.0 -9999.0 -9999.0 -9999.0 -9999.0 -9999.0 -9999.0 -9999.0 -9999.0 -9999.0 -9999.0 -9999.0 -9999.0 -9999.0 -9999.0 -9999.0 -9999.0 -9999.0 -9999.0 -9999.0 -9999.0 -9999.0 -9999.0 -9999.0 -9999.0 -9999.0 -9999.0 -9999.0 -9999.0 -9999.0 -9999.0 -9999.0 -9999.0 -9999.0 -9999.0 -9999.0 -9999.0 -9999.0 -9999.0 -9999.0 -9999.0 -9999.0 -9999.0 -9999.0 -9999.0 -9999.0 -9999.0 -9999.0 -9999.0 -9999.0 -9999.0 -9999.0 -9999.0 -9999.0 -9999.0 -9999.0 -9999.0 -9999.0 -9999.0 -9999.0 -9999.0 -9999.0 -9999.0 -9999.0 -9999.0 -9999.0 -9999.0 -9999.0 32.5 37.9 41.2 43.3 44.2 46.3 47.1 48.4 47.1 45.1 41.4 39.5 39.1 39.2 39.3 40.5 43.8 46.4 48.0 52.2 57.6 62.9 70.3 78.3 86.9 97.6 109.0 121.0 153.5 193.1 217.1 259.4 298.2 378.3 444.0 499.4 569.1 619.4 698.2 746.8 811.9 770.9 734.5 714.6 699.8 655.8 577.3 514.9 491.8 439.4 396.5 349.6 349.9 321.6 296.5 282.1 246.3 219.1 206.0 220.1 243.3 245.3 238.8 223.2 218.6 230.3 282.1 366.9 464.2 538.5 550.9 558.1 562.1 565.3 569.6 581.7 590.5 580.1 579.1 584.9 587.0 563.7 566.4 539.7 518.6 543.5 584.3 520.3 486.2 578.8 593.6 527.9 461.8 430.1 416.7 402.3 389.1 393.8 398.7 395.8 386.9 388.3 403.2 393.7 396.8 418.2 437.9 427.9 458.8 469.4 488.4 511.9 525.6 514.8 487.8 513.4 524.1 520.5 512.6 532.4 552.7 584.9 617.4 665.9 719.5 739.6 753.6 753.9 713.8 659.9 649.6 592.6 624.2 607.4 588.6 451.4 332.5 519.2 637.3 716.2 730.4 672.3 537.0 522.8 634.4 746.8 754.5 733.1 772.2 877.4 971.1 1051.8 1032.1 1000.7 993.4 1004.6 968.7 958.5 894.1 781.3 710.9 704.1 843.0 818.6 841.6 766.5 678.8 662.8 604.0 599.4 589.9 461.3 479.3 548.7 669.0 649.6 622.0 576.6 621.7 615.3 545.6 514.3 501.8 452.1 502.1 566.4 552.5 579.4 613.7 629.8 663.6 668.1 761.7 771.7 732.8 710.2 638.8 589.2 582.9 492.6 397.3 302.6 286.9 395.5 446.2 313.5 270.6 277.3 204.4 177.9 150.5 139.2 110.1 87.6 77.2 102.5 207.0 234.6 165.8 97.9 63.9 51.3 46.1 43.8 -9999.0 -9999.0 -9999.0 -9999.0 -9999.0 -9999.0 -9999.0 -9999.0 -9999.0 -9999.0 -9999.0 -9999.0 -9999.0 -9999.0 -9999.0 -9999.0 -9999.0 -9999.0 -9999.0 -9999.0 -9999.0 -9999.0 -9999.0 -9999.0 -9999.0 -9999.0 -9999.0 -9999.0 -9999.0 -9999.0 -9999.0 -9999.0 -9999.0 -9999.0 -9999.0 -9999.0 -9999.0 -9999.0
-9999.0 -9999.0 -9999.0 -9999.0 -9999.0 -9999.0 -9999.0 -9999.0 -9999.0 -9999.0 -9999.0 -9999.0 -9999.0 -9999.0 -9999.0 -9999.0 -9999.0 -9999.0 -9999.0 -9999.0 -9999.0 -9999.0 -9999.0 -9999.0 -9999.0 -9999.0 -9999.0 -9999.0 -9999.0 -9999.0 -9999.0 -9999.0 -9999.0 -9999.0 -9999.0 -9999.0 -9999.0 -9999.0 -9999.0 -9999.0 -9999.0 -9999.0 -9999.0 -9999.0 -9999.0 -9999.0 -9999.0 -9999.0 -9999.0 -9999.0 -9999.0 -9999.0 -9999.0 -9999.0 -9999.0 -9999.0 -9999.0 -9999.0 -9999.0 -9999.0 -9999.0 -9999.0 -9999.0 -9999.0 -9999.0 -9999.0 -9999.0 -9999.0 -9999.0 -9999.0 -9999.0 -9999.0 -9999.0 -9999.0 -9999.0 -9999.0 -9999.0 -9999.0 -9999.0 -9999.0 -9999.0 -9999.0 -9999.0 -9999.0 -9999.0 -9999.0 38.5 40.9 41.7 43.0 44.4 45.1 48.2 49.7 48.0 45.5 41.4 39.6 39.2 39.6 39.5 42.0 44.7 47.9 49.3 53.1 57.1 62.6 68.7 76.2 83.2 91.1 99.5 113.8 161.6 260.7 277.0 309.3 346.8 418.9 502.4 539.3 542.8 551.1 591.5 686.4 786.2 744.3 713.1 689.8 686.0 676.0 614.9 521.2 456.3 418.4 374.3 322.6 300.3 274.9 242.4 230.8 219.1 201.8 194.0 218.9 235.5 227.4 215.0 210.7 215.9 237.4 276.5 324.2 403.4 500.7 533.0 557.6 565.3 567.5 568.2 571.6 575.7 577.7 579.9 585.7 593.5 601.5 607.8 608.9 609.7 609.9 609.7 606.9 598.6 608.8 610.7 551.5 486.1 427.3 411.6 398.0 390.8 381.1 386.4 395.5 393.2 392.6 402.5 411.8 402.0 424.2 457.3 456.6 441.6 442.4 452.4 466.7 489.1 496.0 466.2 488.3 513.8 513.4 501.1 506.4 526.9 560.8 605.6 649.0 679.8 681.5 723.0 728.5 718.2 633.7 536.5 546.0 542.6 501.1 437.9 413.1 317.0 448.0 592.8 620.5 672.5 681.2 544.4 487.5 660.8 677.8 676.7 734.5 765.2 848.1 977.1 1112.3 1052.7 962.3 946.9 993.9 956.6 924.1 892.6 837.1 725.0 641.3 733.7 762.7 862.7 863.1 798.4 748.7 682.5 594.3 527.4 485.3 433.7 433.4 529.5 534.4 489.9 530.6 553.5 540.1 484.8 453.3 450.2 498.9 610.4 625.4 664.7 618.2 630.2 647.9 642.8 635.6 690.7 753.2 781.7 800.4 774.7 728.3 628.0 489.8 367.2 284.4 254.9 319.9 412.7 354.0 416.6 326.5 217.2 143.0 113.2 104.3 92.0 90.2 127.3 170.8 188.3 135.1 91.1 70.9 95.6 71.6 51.3 -9999.0 -9999.0 -9999.0 -9999.0 -9999.0 -9999.0 -9999.0 -9999.0 -9999.0 -9999.0 -9999.0 -9999.0 -9999.0 -9999.0 -9999.0 -9999.0 -9999.0 -9999.0 -9999.0 -9999.0 -9999.0 -9999.0 -9999.0 -9999.0 -9999.0 -9999.0 -9999.0 -9999.0 -9999.0 -9999.0 -9999.0 -9999.0 -9999.0 -9999.0 -9999.0 -9999.0 -9999.0 -9999.0 -9999.0
-9999.0 -9999.0 -9999.0 -9999.0 -9999.0 -9999.0 -9999.0 -9999.0 -9999.0 -9999.0 -9999.0 -9999.0 -9999.0 -9999.0 -9999.0 -9999.0 -9999.0 -9999.0 -9999.0 -9999.0 -9999.0 -9999.0 -9999.0 -9999.0 -9999.0 -9999.0 -9999.0 -9999.0 -9999.0 -9999.0 -9999.0 -9999.0 -9999.0 -9999.0 -9999.0 -9999.0 -9999.0 -9999.0 -9999.0 -9999.0 -9999.0 -9999.0 -9999.0 -9999.0 -9999.0 -9999.0 -9999.0 -9999.0 -9999.0 -9999.0 -9999.0 -9999.0 -9999.0 -9999.0 -9999.0 -9999.0 -9999.0 -9999.0 -9999.0 -9999.0 -9999.0 -9999.0 -9999.0 -9999.0 -9999.0 -9999.0 -9999.0 -9999.0 -9999.0 -9999.0 -9999.0 -9999.0 -9999.0 -9999.0 -9999.0 -9999.0 -9999.0 -9999.0 -9999.0 -9999.0 -9999.0 -9999.0 -9999.0 -9999.0 -9999.0 -9999.0 41.3 42.0 41.8 42.7 44.5 45.1 47.0 49.3 48.2 45.2 42.1 39.5 39.2 39.3 39.9 41.9 46.0 48.2 51.3 54.2 57.0 60.5 66.4 72.8 77.7 84.4 94.5 112.9 156.1 242.4 294.7 288.4 325.4 368.4 417.4 453.3 501.8 553.8 604.4 681.1 742.5 739.4 696.6 682.4 665.1 640.5 575.9 480.7 393.8 324.1 296.3 301.6 261.3 236.3 233.8 224.5 207.8 188.1 198.6 200.0 202.1 192.2 224.3 233.9 232.1 237.0 262.7 297.9 315.8 358.5 383.9 432.2 511.1 556.2 562.7 569.0 574.6 578.1 578.7 583.1 599.0 606.5 611.1 612.9 613.1 613.8 613.2 612.9 611.2 611.5 605.5 531.8 459.6 451.7 439.8 432.9 419.5 392.3 370.5 375.2 398.3 399.0 407.2 421.6 426.5 431.8 474.3 489.0 476.6 465.5 462.9 462.8 471.7 477.3 470.0 495.6 493.9 485.1 494.7 516.7 557.7 564.4 582.7 627.1 620.1 629.8 658.1 640.1 638.0 624.2 551.7 470.4 457.2 435.8 378.8 324.1 278.7 354.9 437.9 544.5 656.8 692.0 620.5 474.0 548.5 595.9 632.4 667.0 743.9 892.9 1004.2 1103.5 1036.1 965.4 903.8 885.8 855.8 847.3 856.9 837.7 727.9 612.5 705.6 842.2 873.2 872.0 845.6 835.7 755.7 708.0 642.6 533.3 460.4 446.6 421.5 440.5 441.5 454.9 429.0 477.7 526.0 575.2 572.2 537.4 680.1 788.1 751.6 718.1 799.7 819.9 767.5 727.4 763.9 825.0 824.0 729.2 681.0 712.2 631.7 533.6 433.8 319.4 256.7 256.8 379.6 469.2 428.7 331.2 201.7 145.7 119.9 105.0 104.8 104.4 115.2 143.1 134.1 92.5 85.8 105.5 163.5 139.8 96.3 -9999.0 -9999.0 -9999.0 -9999.0 -9999.0 -9999.0 -9999.0 -9999.0 -9999.0 -9999.0 -9999.0 -9999.0 -9999.0 -9999.0 -9999.0 -9999.0 -9999.0 -9999.0 -9999.0 -9999.0 -9999.0 -9999.0 -9999.0 -9999.0 -9999.0 -9999.0 -9999.0 -9999.0 -9999.0 -9999.0 -9999.0 -9999.0 -9999.0 -9999.0 -9999.0 -9999.0 -9999.0 -9999.0 -9999.0
-9999.0 -9999.0 -9999.0 -9999.0 -9999.0 -9999.0 -9999.0 -9999.0 -9999.0 -9999.0 -9999.0 -9999.0 -9999.0 -9999.0 -9999.0 -9999.0 -9999.0 -9999.0 -9999.0 -9999.0 -9999.0 -9999.0 -9999.0 -9999.0 -9999.0 -9999.0 -9999.0 -9999.0 -9999.0 -9999.0 -9999.0 -9999.0 -9999.0 -9999.0 -9999.0 -9999.0 -9999.0 -9999.0 -9999.0 -9999.0 -9999.0 -9999.0 -9999.0 -9999.0 -9999.0 -9999.0 -9999.0 -9999.0 -9999.0 -9999.0 -9999.0 -9999.0 -9999.0 -9999.0 -9999.0 -9999.0 -9999.0 -9999.0 -9999.0 -9999.0 -9999.0 -9999.0 -9999.0 -9999.0 -9999.0 -9999.0 -9999.0 -9999.0 106.1 -9999.0 -9999.0 -9999.0 -9999.0 -9999.0 -9999.0 -9999.0 -9999.0 -9999.0 -9999.0 -9999.0 -9999.0 -9999.0 -9999.0 -9999.0 -9999.0 -9999.0 41.5 42.4 42.7 44.3 45.2 45.8 47.9 49.4 48.8 46.1 41.5 40.1 39.7 39.6 39.8 43.4 44.6 47.3 50.0 53.8 57.6 61.7 66.8 71.3 78.3 84.3 93.0 107.8 152.2 223.0 237.2 299.5 320.0 360.8 409.6 470.4 521.1 570.5 596.6 618.4 679.3 685.5 635.6 642.8 647.4 560.9 452.3 379.8 358.6 309.3 265.6 256.9 232.2 232.3 219.9 226.7 236.8 208.0 182.7 182.5 180.5 184.1 213.8 217.7 227.2 243.7 251.3 255.0 267.4 286.2 293.8 332.1 389.8 449.2 548.5 572.1 577.8 579.0 587.1 595.7 604.5 608.3 611.9 615.1 615.4 616.9 616.9 615.3 614.6 613.2 568.6 498.5 489.4 529.4 511.8 494.7 404.7 381.0 374.7 357.6 377.5 394.7 410.1 429.9 427.8 402.0 482.9 521.4 517.9 502.2 474.2 455.9 459.5 461.8 455.8 466.8 472.0 502.8 553.3 611.0 654.7 672.7 631.3 608.6 591.1 589.9 565.7 563.7 564.8 537.7 524.3 468.6 426.7 413.9 382.5 332.4 273.9 285.1 350.5 504.7 630.3 630.9 618.5 467.1 558.0 734.3 746.6 738.5 776.1 895.0 1049.9 1146.1 1107.0 1066.2 968.8 890.9 883.0 841.7 775.1 747.6 702.9 614.9 636.8 790.2 823.2 832.4 760.0 840.3 771.5 673.1 585.3 584.9 559.7 522.7 467.1 394.0 403.6 440.8 498.6 547.5 636.7 667.9 679.5 664.2 760.9 866.4 872.7 872.1 905.0 880.0 844.8 793.0 777.2 789.9 842.8 701.1 561.7 528.0 480.0 528.7 497.3 415.5 316.1 240.0 251.1 328.2 433.9 338.1 187.9 140.2 134.0 132.0 122.5 126.1 127.2 145.0 155.8 116.4 130.8 249.1 320.2 296.8 233.4 -9999.0 -9999.0 -9999.0 -9999.0 -9999.0 -9999.0 -9999.0 -9999.0 -9999.0 -9999.0 -9999.0 -9999.0 -9999.0 -9999.0 -9999.0 -9999.0 -9999.0 -9999.0 -9999.0 -9999.0 -9999.0 -9999.0 -9999.0 -9999.0 -9999.0 -9999.0 -9999.0 -9999.0 -9999.0 -9999.0 -9999.0 -9999.0 -9999.0 -9999.0 -9999.0 -9999.0 -9999.0 -9999.0 -9999.0
-9999.0 -9999.0 -9999.0 -9999.0 -9999.0 -9999.0 -9999.0 -9999.0 -9999.0 -9999.0 -9999.0 -9999.0 -9999.0 -9999.0 -9999.0 -9999.0 -9999.0 -9999.0 -9999.0 -9999.0 -9999.0 -9999.0 -9999.0 -9999.0 -9999.0 -9999.0 -9999.0 -9999.0 -9999.0 -9999.0 -9999.0 -9999.0 -9999.0 -9999.0 -9999.0 -9999.0 -9999.0 -9999.0 -9999.0 -9999.0 -9999.0 -9999.0 -9999.0 -9999.0 -9999.0 -9999.0 -9999.0 -9999.0 -9999.0 -9999.0 -9999.0 -9999.0 -9999.0 -9999.0 -9999.0 -9999.0 -9999.0 -9999.0 -9999.0 -9999.0 -9999.0 -9999.0 -9999.0 -9999.0 -9999.0 -9999.0 -9999.0 -9999.0 114.9 -9999.0 -9999.0 -9999.0 -9999.0 -9999.0 -9999.0 -9999.0 -9999.0 -9999.0 -9999.0 -9999.0 -9999.0 -9999.0 -9999.0 -9999.0 -9999.0 41.3 42.0 42.1 43.4 45.1 46.0 47.3 49.3 49.1 48.0 44.0 41.4 40.3 40.3 40.4 41.0 41.8 44.5 47.6 50.4 53.2 56.5 60.7 65.1 71.8 79.2 87.7 97.2 109.2 128.8 181.6 238.4 290.8 333.7 402.0 476.5 523.2 499.8 527.3 541.5 554.3 646.3 645.4 610.3 609.5 608.3 551.2 439.9 338.3 301.4 268.3 248.3 277.1 241.7 208.9 207.4 195.2 207.7 205.0 181.7 174.0 193.3 223.2 205.8 206.5 215.9 218.7 223.9 236.1 256.6 264.8 287.1 320.4 366.0 412.2 497.8 539.7 576.0 582.4 591.9 604.9 608.3 612.7 615.3 618.0 621.6 622.9 620.2 619.2 619.6 617.4 610.5 606.1 596.6 599.9 509.9 470.8 402.3 365.1 354.9 344.0 360.2 383.1 412.0 430.5 387.2 377.3 442.9 510.3 509.4 485.7 439.2 455.2 454.6 447.0 462.9 478.3 517.0 552.2 607.8 663.9 646.2 642.1 596.8 559.5 552.2 562.5 552.3 528.7 546.7 536.0 510.6 466.9 437.6 393.9 374.5 378.9 331.8 266.6 292.7 443.9 533.7 571.1 629.1 506.0 438.8 643.8 737.3 694.9 726.3 798.4 959.7 1175.2 1177.2 1058.8 947.6 869.8 806.0 776.3 739.3 717.5 658.7 617.9 570.2 755.2 782.0 794.1 733.8 683.1 702.0 632.0 533.2 432.1 424.0 392.9 394.8 385.9 402.5 459.6 498.6 609.1 675.1 739.3 778.8 818.4 873.5 816.5 784.0 898.1 887.5 865.3 827.7 838.6 762.6 721.9 697.6 630.4 505.5 385.0 325.4 342.7 380.0 411.4 394.9 294.9 221.1 231.5 329.5 399.1 261.7 227.4 230.7 257.5 193.8 174.4 216.3 256.8 204.2 143.3 154.0 203.6 317.0 348.2 322.2 240.4 -9999.0 -9999.0 -9999.0 -9999.0 -9999.0 -9999.0 -9999.0 -9999.0 -9999.0 -9999.0 -9999.0 -9999.0 -9999.0 -9999.0 -9999.0 -9999.0 -9999.0 -9999.0 -9999.0 -9999.0 -9999.0 -9999.0 -9999.0 -9999.0 -9999.0 -9999.0 -9999.0 -9999.0 -9999.0 -9999.0 -9999.0 -9999.0 -9999.0 -9999.0 -9999.0 -9999.0 -9999.0 -9999.0
-9999.0 -9999.0 -9999.0 -9999.0 -9999.0 -9999.0 -9999.0 -9999.0 -9999.0 -9999.0 -9999.0 -9999.0 -9999.0 -9999.0 -9999.0 -9999.0 -9999.0 -9999.0 -9999.0 -9999.0 -9999.0 -9999.0 -9999.0 -9999.0 -9999.0 -9999.0 -9999.0 -9999.0 -9999.0 -9999.0 -9999.0 -9999.0 -9999.0 -9999.0 -9999.0 -9999.0 -9999.0 -9999.0 -9999.0 -9999.0 -9999.0 -9999.0 -9999.0 -9999.0 -9999.0 -9999.0 -9999.0 -9999.0 -9999.0 -9999.0 -9999.0 -9999.0 -9999.0 -9999.0 -9999.0 -9999.0 -9999.0 -9999.0 -9999.0 -9999.0 -9999.0 -9999.0 -9999.0 -9999.0 -9999.0 -9999.0 -9999.0 111.4 117.9 120.0 -9999.0 -9999.0 -9999.0 -9999.0 -9999.0 -9999.0 -9999.0 -9999.0 -9999.0 -9999.0 -9999.0 -9999.0 -9999.0 -9999.0 41.4 41.7 41.8 42.4 45.9 46.4 47.6 48.3 48.5 48.7 47.8 45.7 42.1 41.4 41.3 41.4 41.7 42.8 43.9 47.0 50.4 53.0 55.5 58.7 63.7 70.2 77.9 86.9 97.5 112.9 134.1 179.7 240.8 270.9 304.2 363.4 435.0 474.9 496.7 412.2 444.4 536.0 613.1 626.2 573.5 532.3 520.6 495.0 399.2 323.3 274.3 261.3 244.8 226.3 220.0 228.7 214.6 207.4 186.1 185.7 170.0 172.4 199.6 214.6 220.1 221.9 246.3 242.8 231.7 230.1 241.2 256.8 274.4 283.6 290.8 306.2 337.4 386.3 470.0 509.4 589.4 608.0 609.8 612.3 613.9 617.0 620.3 624.1 623.7 623.5 622.5 623.2 620.8 620.1 618.6 610.9 524.8 410.4 362.9 344.9 353.3 340.9 331.9 357.5 376.5 360.9 346.3 368.8 418.3 463.0 459.4 429.0 466.7 506.1 514.6 504.1 470.0 494.0 543.8 618.1 617.5 588.5 586.4 576.4 565.8 541.8 526.8 519.2 536.6 515.5 496.8 487.8 473.3 454.0 420.3 467.6 508.4 438.3 400.2 291.0 270.6 390.4 475.4 539.4 604.4 551.5 421.9 442.2 578.5 568.7 620.1 727.6 859.1 1024.4 1161.5 1091.0 964.8 895.1 952.1 944.8 867.5 769.4 788.6 723.7 575.8 628.7 667.4 700.9 751.9 677.1 581.3 541.4 511.7 424.3 361.7 370.9 468.7 486.9 413.6 448.6 474.4 544.8 634.0 705.3 745.1 690.5 710.6 701.2 716.8 802.7 815.0 874.5 849.1 808.7 797.7 774.0 714.5 639.2 519.8 427.0 376.9 302.8 298.5 267.5 266.2 319.8 254.6 207.8 236.3 325.7 375.8 420.5 453.5 469.4 339.1 219.5 334.1 408.4 267.4 236.0 265.1 293.4 196.3 173.6 142.7 94.3 -9999.0 -9999.0 -9999.0 -9999.0 -9999.0 -9999.0 -9999.0 -9999.0 -9999.0 -9999.0 -9999.0 -9999.0 -9999.0 -9999.0 -9999.0 -9999.0 -9999.0 -9999.0 -9999.0 -9999.0 -9999.0 -9999.0 -9999.0 -9999.0 -9999.0 -9999.0 -9999.0 -9999.0 -9999.0 -9999.0 -9999.0 -9999.0 -9999.0 -9999.0 -9999.0 -9999.0 -9999.0 -9999.0
-9999.0 -9999.0 -9999.0 -9999.0 -9999.0 -9999.0 -9999.0 -9999.0 -9999.0 -9999.0 -9999.0 -9999.0 -9999.0 -9999.0 -9999.0 -9999.0 -9999.0 -9999.0 -9999.0 -9999.0 -9999.0 -9999.0 -9999.0 -9999.0 -9999.0 -9999.0 -9999.0 -9999.0 -9999.0 -9999.0 -9999.0 -9999.0 -9999.0 -9999.0 -9999.0 -9999.0 -9999.0 -9999.0 -9999.0 -9999.0 -9999.0 -9999.0 -9999.0 -9999.0 -9999.0 -9999.0 -9999.0 -9999.0 -9999.0 -9999.0 -9999.0 -9999.0 -9999.0 -9999.0 -9999.0 -9999.0 -9999.0 -9999.0 -9999.0 -9999.0 -9999.0 -9999.0 -9999.0 -9999.0 -9999.0 -9999.0 -9999.0 109.7 115.5 120.4 109.3 -9999.0 -9999.0 -9999.0 -9999.0 -9999.0 -9999.0 -9999.0 -9999.0 -9999.0 -9999.0 -9999.0 -9999.0 41.6 41.8 42.5 42.3 44.7 47.4 49.2 48.2 47.9 47.5 48.0 47.2 46.9 47.1 43.6 43.0 42.3 42.5 42.5 42.9 44.9 48.2 50.2 53.1 56.5 61.2 67.7 74.2 82.3 92.8 106.1 125.2 178.6 220.2 265.6 305.4 338.6 376.0 423.0 439.1 362.9 464.9 528.4 588.6 590.5 556.4 492.0 450.3 409.2 363.4 315.5 279.3 248.8 293.6 309.3 281.0 279.5 284.0 253.5 215.7 174.2 167.4 189.9 195.6 202.1 219.1 233.8 254.5 277.1 266.5 253.2 236.4 251.9 250.8 256.4 259.4 279.2 285.7 336.6 354.7 421.8 561.3 607.8 608.2 609.4 609.8 613.5 617.0 619.1 623.3 626.4 627.5 626.6 624.0 622.6 612.7 536.1 458.8 373.7 334.1 321.0 340.0 350.3 319.9 345.5 338.9 336.5 377.0 395.9 411.6 435.0 441.0 439.2 458.8 493.1 525.4 518.2 491.4 469.9 503.7 539.0 540.7 528.7 533.4 537.6 549.0 553.4 542.2 519.7 508.0 490.6 471.8 464.1 437.8 444.1 492.8 583.4 569.6 570.4 440.4 315.4 264.9 331.7 404.5 495.2 566.1 601.8 466.2 377.9 530.8 612.4 698.9 736.3 785.8 885.5 988.6 1054.2 1034.5 1023.3 1009.5 1016.2 992.1 912.8 929.8 856.5 699.5 570.0 513.4 479.7 580.9 690.8 615.4 475.2 413.8 370.3 375.0 375.5 439.2 547.0 548.1 516.1 468.1 485.5 567.8 674.9 594.6 551.1 605.9 661.0 753.4 791.0 860.5 871.8 832.4 803.9 796.7 813.3 798.7 762.7 672.2 589.4 501.1 426.1 436.3 339.9 269.9 241.0 258.2 204.0 211.0 244.7 313.7 351.9 518.0 545.7 363.9 297.9 461.6 429.0 328.2 403.9 384.0 257.3 219.4 208.6 192.4 156.3 99.2 -9999.0 -9999.0 -9999.0 -9999.0 -9999.0 -9999.0 -9999.0 -9999.0 -9999.0 -9999.0 -9999.0 -9999.0 -9999.0 -9999.0 -9999.0 -9999.0 -9999.0 -9999.0 -9999.0 -9999.0 -9999.0 -9999.0 -9999.0 -9999.0 -9999.0 -9999.0 -9999.0 -9999.0 -9999.0 -9999.0 -9999.0 -9999.0 -9999.0 -9999.0 -9999.0 -9999.0 -9999.0
-9999.0 -9999.0 -9999.0 -9999.0 -9999.0 -9999.0 -9999.0 -9999.0 -9999.0 -9999.0 -9999.0 -9999.0 -9999.0 -9999.0 -9999.0 -9999.0 -9999.0 -9999.0 -9999.0 -9999.0 -9999.0 -9999.0 -9999.0 -9999.0 -9999.0 -9999.0 -9999.0 -9999.0 -9999.0 -9999.0 -9999.0 -9999.0 -9999.0 -9999.0 -9999.0 -9999.0 -9999.0 -9999.0 -9999.0 -9999.0 -9999.0 -9999.0 -9999.0 -9999.0 -9999.0 -9999.0 -9999.0 -9999.0 -9999.0 -9999.0 -9999.0 -9999.0 -9999.0 -9999.0 -9999.0 -9999.0 -9999.0 -9999.0 -9999.0 -9999.0 -9999.0 -9999.0 -9999.0 -9999.0 -9999.0 -9999.0 -9999.0 -9999.0 121.2 124.9 124.1 -9999.0 -9999.0 -9999.0 -9999.0 -9999.0 -9999.0 -9999.0 -9999.0 -9999.0 -9999.0 -9999.0 -9999.0 42.1 42.0 42.4 43.8 46.2 46.9 49.6 48.0 46.2 46.5 48.9 48.0 47.3 46.8 44.9 45.4 43.7 43.2 42.4 42.8 42.6 44.0 46.1 50.5 54.6 58.8 64.4 70.9 77.6 86.3 94.4 102.0 134.0 214.2 249.5 281.8 307.6 293.4 355.2 325.4 372.3 467.5 537.1 550.6 554.3 558.5 475.5 394.0 357.0 310.2 281.5 248.2 236.4 258.7 265.7 253.5 254.8 269.8 241.2 207.9 181.3 165.4 182.7 181.5 186.8 205.0 220.5 243.9 264.1 274.5 251.7 238.3 249.9 240.6 241.6 251.3 258.6 262.1 271.5 288.5 358.7 472.6 555.9 572.7 607.2 609.6 612.0 616.4 619.8 629.4 636.8 629.7 622.4 622.5 623.7 608.1 505.9 450.3 380.0 320.0 310.0 342.5 363.3 346.9 315.0 315.7 359.6 350.0 408.1 518.7 563.9 563.8 521.3 495.8 493.5 539.4 529.6 508.3 478.7 490.5 503.0 507.0 506.7 515.3 516.4 535.5 536.6 548.5 576.5 610.2 595.0 561.9 541.5 493.0 482.5 535.7 603.9 646.0 664.1 501.6 352.6 272.1 300.4 334.4 386.0 520.1 586.5 517.1 347.9 449.5 637.0 682.8 667.0 730.3 785.9 840.7 885.1 884.4 965.8 954.9 960.5 967.0 959.1 948.1 907.6 877.0 804.8 741.2 598.8 454.8 435.9 514.9 505.7 369.0 413.3 528.9 531.1 472.5 491.3 577.9 658.5 599.6 515.4 522.7 520.0 518.4 555.9 667.6 744.9 754.4 773.6 793.7 854.2 842.4 802.6 785.3 774.2 786.0 756.1 733.1 707.3 639.9 637.5 579.6 458.1 379.9 272.1 227.5 197.1 197.2 218.7 225.7 285.5 395.2 484.6 380.9 427.8 587.9 539.5 490.9 518.8 433.3 333.9 351.4 335.8 289.7 149.8 63.6 -9999.0 -9999.0 -9999.0 -9999.0 -9999.0 -9999.0 -9999.0 -9999.0 -9999.0 -9999.0 -9999.0 -9999.0 -9999.0 -9999.0 -9999.0 -9999.0 -9999.0 -9999.0 -9999.0 -9999.0 -9999.0 -9999.0 -9999.0 -9999.0 -9999.0 -9999.0 -9999.0 -9999.0 -9999.0 -9999.0 -9999.0 -9999.0 -9999.0 -9999.0 -9999.0 -9999.0 -9999.0
-9999.0 -9999.0 -9999.0 -9999.0 -9999.0 -9999.0 -9999.0 -9999.0 -9999.0 -9999.0 -9999.0 -9999.0 -9999.0 -9999.0 -9999.0 -9999.0 -9999.0 -9999.0 -9999.0 -9999.0 -9999.0 -9999.0 -9999.0 -9999.0 -9999.0 -9999.0 -9999.0 -9999.0 -9999.0 -9999.0 -9999.0 -9999.0 -9999.0 -9999.0 -9999.0 -9999.0 -9999.0 -9999.0 -9999.0 -9999.0 -9999.0 -9999.0 -9999.0 -9999.0 -9999.0 -9999.0 -9999.0 -9999.0 -9999.0 -9999.0 -9999.0 -9999.0 -9999.0 -9999.0 -9999.0 -9999.0 -9999.0 -9999.0 -9999.0 -9999.0 -9999.0 -9999.0 -9999.0 -9999.0 -9999.0 -9999.0 -9999.0 -9999.0 122.8 126.4 123.4 116.3 -9999.0 -9999.0 -9999.0 -9999.0 -9999.0 -9999.0 -9999.0 -9999.0 -9999.0 -9999.0 42.5 42.3 42.3 42.4 43.1 44.6 45.7 48.0 47.5 46.2 46.8 49.4 48.2 47.2 48.4 47.3 46.4 44.9 44.0 43.0 44.1 43.6 44.0 45.8 48.8 52.2 57.0 62.4 67.7 73.8 80.4 88.7 98.9 113.3 135.7 170.3 214.9 239.1 243.6 270.3 357.7 422.5 483.8 518.1 518.0 532.0 553.4 492.1 369.1 305.1 281.1 262.6 240.3 214.5 222.8 217.6 213.4 227.5 273.5 295.6 255.3 200.4 166.6 165.7 175.6 193.4 214.0 246.4 261.0 273.4 274.7 246.1 231.1 239.1 229.9 230.4 244.8 243.6 244.9 256.1 273.8 301.6 358.9 406.5 487.8 596.2 606.7 610.0 613.5 618.8 626.2 629.4 628.7 621.3 618.6 604.6 566.5 485.4 437.9 356.7 314.6 293.5 331.5 334.1 336.4 299.1 286.7 310.6 346.4 466.6 607.2 680.7 641.9 573.8 536.9 513.3 540.9 535.3 523.3 509.4 494.0 485.2 489.7 495.4 502.9 510.1 520.7 550.2 579.6 623.4 686.4 716.5 698.2 675.8 608.8 536.1 524.4 588.1 654.5 666.3 619.0 500.1 396.8 322.7 281.2 301.2 434.7 529.5 518.2 366.3 369.8 545.7 609.2 680.4 735.4 730.5 759.6 786.2 793.3 879.5 872.8 914.2 918.6 948.1 910.6 894.5 885.7 904.7 831.7 749.6 674.1 573.6 396.2 391.6 367.1 402.6 517.0 587.2 607.3 650.7 628.2 690.6 691.7 602.5 680.4 676.4 666.8 620.9 578.1 598.0 633.4 647.8 702.3 769.0 857.7 804.1 756.2 764.9 750.0 762.5 758.7 739.0 706.8 704.2 669.0 583.8 478.7 384.8 298.3 204.7 186.4 199.1 218.0 231.3 259.7 359.6 420.8 499.6 610.8 570.0 588.1 620.8 551.5 458.8 472.6 393.3 335.1 166.6 72.6 -9999.0 -9999.0 -9999.0 -9999.0 -9999.0 -9999.0 -9999.0 -9999.0 -9999.0 -9999.0 -9999.0 -9999.0 -9999.0 -9999.0 -9999.0 -9999.0 -9999.0 -9999.0 -9999.0 -9999.0 -9999.0 -9999.0 -9999.0 -9999.0 -9999.0 -9999.0 -9999.0 -9999.0 -9999.0 -9999.0 -9999.0 -9999.0 -9999.0 -9999.0 -9999.0 -9999.0 -9999.0
-9999.0 -9999.0 -9999.0 -9999.0 -9999.0 -9999.0 -9999.0 -9999.0 -9999.0 -9999.0 -9999.0 -9999.0 -9999.0 -9999.0 -9999.0 -9999.0 -9999.0 -9999.0 -9999.0 -9999.0 -9999.0 -9999.0 -9999.0 -9999.0 -9999.0 -9999.0 -9999.0 -9999.0 -9999.0 -9999.0 -9999.0 -9999.0 -9999.0 -9999.0 -9999.0 -9999.0 -9999.0 -9999.0 -9999.0 -9999.0 -9999.0 -9999.0 -9999.0 -9999.0 -9999.0 -9999.0 -9999.0 -9999.0 -9999.0 -9999.0 -9999.0 -9999.0 -9999.0 -9999.0 -9999.0 -9999.0 -9999.0 -9999.0 -9999.0 -9999.0 -9999.0 -9999.0 -9999.0 -9999.0 -9999.0 -9999.0 -9999.0 111.2 118.8 114.4 93.7 87.3 98.5 -9999.0 -9999.0 -9999.0 -9999.0 -9999.0 -9999.0 -9999.0 -9999.0 41.6 42.5 42.3 43.2 43.6 44.9 46.6 46.4 47.8 46.7 46.2 47.7 49.5 49.0 48.5 48.6 48.7 47.2 46.5 44.9 44.1 44.6 44.9 45.6 46.2 48.0 51.0 56.0 60.5 65.9 71.2 78.0 86.8 97.1 107.9 117.8 128.9 195.3 242.2 260.0 297.3 374.1 414.5 442.9 483.2 491.2 498.7 493.7 374.6 309.4 312.5 280.5 246.8 237.8 214.0 197.4 196.1 227.0 241.5 284.7 255.4 247.9 203.8 171.3 158.1 186.2 223.9 234.5 239.2 259.1 296.3 283.3 253.8 230.2 221.0 216.8 225.6 236.1 229.4 230.9 241.4 259.5 277.5 288.8 359.1 425.6 483.6 527.0 495.8 521.4 595.2 615.7 622.7 624.8 621.5 603.7 493.6 407.7 375.0 356.9 349.4 327.8 327.0 277.9 296.0 302.3 298.3 277.3 293.1 345.7 449.0 584.5 700.0 691.0 622.5 562.4 535.4 552.1 556.6 557.2 534.4 511.9 497.9 498.8 493.9 499.2 514.6 541.8 581.8 626.1 715.9 742.8 756.6 729.5 700.3 674.2 631.7 574.3 599.7 630.1 643.0 626.8 570.1 467.0 386.2 275.1 276.9 392.2 480.7 456.0 313.4 360.3 466.0 578.9 667.2 699.9 692.3 707.5 719.5 765.9 779.8 787.0 775.9 839.3 878.9 889.5 889.8 837.0 818.1 826.6 804.8 762.1 667.1 543.1 395.7 332.4 393.5 496.1 598.8 653.8 720.6 744.5 751.5 759.0 692.5 754.5 815.5 746.6 753.7 739.7 743.9 763.4 790.0 737.5 739.8 826.2 849.7 787.6 711.7 716.3 742.9 760.0 739.6 720.3 708.4 692.6 685.1 540.0 395.0 284.2 200.6 180.2 192.1 243.1 337.3 330.7 279.0 380.4 564.7 667.3 638.6 740.3 663.9 611.5 510.9 446.4 314.2 227.3 134.6 105.9 -9999.0 -9999.0 -9999.0 -9999.0 -9999.0 -9999.0 -9999.0 -9999.0 -9999.0 -9999.0 -9999.0 -9999.0 -9999.0 -9999.0 -9999.0 -9999.0 -9999.0 -9999.0 -9999.0 -9999.0 -9999.0 -9999.0 -9999.0 -9999.0 -9999.0 -9999.0 -9999.0 -9999.0 -9999.0 -9999.0 -9999.0 -9999.0 -9999.0 -9999.0 -9999.0 -9999.0 -9999.0
-9999.0 -9999.0 -9999.0 -9999.0 -9999.0 -9999.0 -9999.0 -9999.0 -9999.0 -9999.0 -9999.0 -9999.0 -9999.0 -9999.0 -9999.0 -9999.0 -9999.0 -9999.0 -9999.0 -9999.0 -9999.0 -9999.0 -9999.0 -9999.0 -9999.0 -9999.0 -9999.0 -9999.0 -9999.0 -9999.0 -9999.0 -9999.0 -9999.0 -9999.0 -9999.0 -9999.0 -9999.0 -9999.0 -9999.0 -9999.0 -9999.0 -9999.0 -9999.0 -9999.0 -9999.0 -9999.0 -9999.0 -9999.0 -9999.0 -9999.0 -9999.0 -9999.0 -9999.0 -9999.0 -9999.0 -9999.0 -9999.0 -9999.0 -9999.0 -9999.0 -9999.0 -9999.0 -9999.0 -9999.0 -9999.0 -9999.0 -9999.0 -9999.0 107.4 82.0 77.1 66.8 73.3 95.1 -9999.0 -9999.0 -9999.0 -9999.0 -9999.0 -9999.0 38.0 39.9 42.3 42.0 42.7 44.2 43.8 43.8 45.6 48.3 46.7 46.5 47.1 48.9 50.3 49.8 48.7 47.9 46.6 46.8 46.4 45.3 46.9 46.7 46.6 47.0 48.3 50.2 55.3 58.4 63.1 67.8 74.4 81.7 88.6 94.7 100.0 102.1 115.8 142.0 226.8 312.6 378.9 392.1 421.9 450.6 457.3 455.0 443.5 310.8 253.9 261.3 261.7 260.0 247.9 236.8 198.6 184.4 227.8 244.8 266.3 267.0 235.4 193.9 170.0 155.7 172.6 200.4 206.4 226.8 243.9 269.0 261.3 252.4 230.5 211.6 213.7 226.0 226.5 220.5 223.9 247.3 264.6 261.0 253.6 296.4 351.6 359.7 385.2 386.1 407.9 461.9 506.5 563.6 583.3 579.4 545.5 451.0 379.2 339.3 313.8 313.4 297.3 326.3 291.7 265.1 256.7 265.5 279.6 311.2 373.0 490.4 624.9 723.1 737.6 708.3 657.3 594.8 593.3 590.4 581.4 554.6 532.8 514.2 512.7 508.1 514.6 536.7 563.2 590.2 649.8 710.7 739.8 743.6 729.1 696.4 667.8 643.6 612.5 599.5 606.7 614.0 615.6 569.4 502.7 379.2 294.5 284.2 286.1 283.8 300.7 324.7 427.0 534.5 604.9 639.9 616.9 661.9 706.4 722.2 693.7 679.1 718.3 707.6 730.3 773.5 818.4 868.2 843.4 743.1 724.2 751.5 651.0 557.8 401.5 411.0 482.5 497.2 518.9 603.4 706.9 720.8 713.2 741.7 766.2 739.6 758.4 784.4 685.4 691.2 714.7 738.8 800.6 853.2 847.0 799.4 847.1 833.5 776.7 743.1 654.5 656.5 697.9 729.3 713.5 707.8 706.6 749.0 617.6 417.5 271.2 202.6 177.6 180.9 218.2 308.0 432.4 361.2 317.3 458.5 601.1 687.0 806.9 642.4 508.2 385.7 308.3 197.2 122.6 94.7 99.6 -9999.0 -9999.0 -9999.0 -9999.0 -9999.0 -9999.0 -9999.0 -9999.0 -9999.0 -9999.0 -9999.0 -9999.0 -9999.0 -9999.0 -9999.0 -9999.0 -9999.0 -9999.0 -9999.0 -9999.0 -9999.0 -9999.0 -9999.0 -9999.0 -9999.0 -9999.0 -9999.0 -9999.0 -9999.0 -9999.0 -9999.0 -9999.0 -9999.0 -9999.0 -9999.0 -9999.0 -9999.0
-9999.0 -9999.0 -9999.0 -9999.0 -9999.0 -9999.0 -9999.0 -9999.0 -9999.0 -9999.0 -9999.0 -9999.0 -9999.0 -9999.0 -9999.0 -9999.0 -9999.0 -9999.0 -9999.0 -9999.0 -9999.0 -9999.0 -9999.0 -9999.0 -9999.0 -9999.0 -9999.0 -9999.0 -9999.0 -9999.0 -9999.0 -9999.0 -9999.0 -9999.0 -9999.0 -9999.0 -9999.0 -9999.0 -9999.0 -9999.0 -9999.0 -9999.0 -9999.0 -9999.0 -9999.0 -9999.0 -9999.0 -9999.0 -9999.0 -9999.0 -9999.0 -9999.0 -9999.0 -9999.0 -9999.0 -9999.0 -9999.0 -9999.0 -9999.0 -9999.0 -9999.0 -9999.0 -9999.0 -9999.0 -9999.0 -9999.0 -9999.0 -9999.0 98.3 71.2 63.3 56.6 62.6 67.6 74.1 -9999.0 -9999.0 -9999.0 -9999.0 -9999.0 -9999.0 -9999.0 39.5 42.6 42.9 43.4 44.0 41.9 41.3 42.1 44.6 46.2 48.3 49.4 51.5 51.3 49.1 47.5 47.4 46.7 45.6 47.7 47.4 49.6 48.6 48.4 48.3 49.0 50.7 54.8 58.0 63.3 68.8 73.4 78.2 82.5 86.2 89.5 98.0 136.2 208.7 269.1 308.2 288.8 361.6 414.4 384.3 404.8 434.8 332.5 250.2 218.4 219.1 241.7 229.4 199.0 177.7 204.2 214.4 213.9 229.2 228.6 206.5 182.1 162.1 154.7 189.5 198.2 211.0 224.6 237.9 248.9 232.4 232.6 222.0 205.1 206.2 213.7 210.7 211.6 223.3 244.2 243.1 238.7 239.2 258.7 282.3 326.8 332.1 299.8 321.7 330.9 384.7 435.9 465.6 488.5 490.8 447.4 382.3 336.6 310.9 285.3 278.8 285.6 270.5 251.2 289.6 320.5 340.7 354.7 404.8 506.4 599.0 669.2 725.2 727.2 691.6 655.6 637.9 642.6 599.1 594.5 569.1 546.0 555.7 521.3 513.1 525.0 553.6 593.7 649.0 679.8 699.6 722.3 716.5 668.8 631.3 603.1 596.5 579.4 580.3 589.5 602.6 587.1 542.0 477.1 415.2 357.1 335.5 302.3 281.3 344.0 358.5 398.6 474.2 553.6 682.9 728.0 743.6 688.0 652.9 603.7 653.1 666.8 676.7 688.0 713.8 792.4 814.2 741.9 653.2 661.4 583.2 418.2 388.0 581.5 632.8 646.5 651.4 686.2 710.4 699.2 684.6 730.4 757.3 712.5 710.6 756.5 664.8 704.7 755.9 744.8 744.1 769.1 823.6 856.3 859.7 821.8 782.3 761.5 704.5 652.6 548.5 606.3 690.7 700.6 714.1 764.3 656.4 453.6 294.0 223.9 176.8 173.3 197.2 241.0 370.3 464.2 355.6 378.5 436.6 567.8 758.4 598.6 412.3 297.6 213.3 133.9 96.8 108.7 104.0 -9999.0 -9999.0 -9999.0 -9999.0 -9999.0 -9999.0 -9999.0 -9999.0 -9999.0 -9999.0 -9999.0 -9999.0 -9999.0 -9999.0 -9999.0 -9999.0 -9999.0 -9999.0 -9999.0 -9999.0 -9999.0 -9999.0 -9999.0 -9999.0 -9999.0 -9999.0 -9999.0 -9999.0 -9999.0 -9999.0 -9999.0 -9999.0 -9999.0 -9999.0 -9999.0 -9999.0 -9999.0
-9999.0 -9999.0 -9999.0 -9999.0 -9999.0 -9999.0 -9999.0 -9999.0 -9999.0 -9999.0 -9999.0 -9999.0 -9999.0 -9999.0 -9999.0 -9999.0 -9999.0 -9999.0 -9999.0 -9999.0 -9999.0 -9999.0 -9999.0 -9999.0 -9999.0 -9999.0 -9999.0 -9999.0 -9999.0 -9999.0 -9999.0 -9999.0 -9999.0 -9999.0 -9999.0 -9999.0 -9999.0 -9999.0 -9999.0 -9999.0 -9999.0 -9999.0 -9999.0 -9999.0 -9999.0 -9999.0 -9999.0 -9999.0 -9999.0 -9999.0 -9999.0 -9999.0 -9999.0 -9999.0 -9999.0 -9999.0 -9999.0 -9999.0 -9999.0 -9999.0 -9999.0 -9999.0 -9999.0 -9999.0 -9999.0 -9999.0 -9999.0 -9999.0 96.4 77.0 69.9 56.3 46.5 50.0 51.5 42.1 -9999.0 -9999.0 -9999.0 -9999.0 -9999.0 -9999.0 -9999.0 41.6 41.3 42.0 41.5 40.6 41.1 41.8 43.8 46.9 48.7 50.4 49.4 49.9 47.6 47.9 46.0 45.2 47.2 48.3 49.5 51.1 52.0 51.6 50.0 49.2 50.1 51.1 51.5 54.2 59.0 64.1 69.2 73.1 76.1 79.1 82.8 116.2 169.3 207.0 208.7 212.1 284.9 272.1 303.4 314.5 359.8 291.0 234.7 201.7 196.7 224.2 227.0 197.5 170.1 178.3 192.5 205.0 214.1 209.4 184.3 167.9 155.9 153.3 188.8 202.7 220.1 210.8 210.1 225.2 214.1 208.7 209.9 198.0 199.7 199.8 203.9 213.5 225.7 237.6 231.0 228.9 239.0 251.7 259.8 260.8 261.1 260.7 278.5 290.2 309.1 336.2 353.8 406.6 420.7 363.5 307.8 287.6 273.5 267.9 250.9 250.5 237.3 293.2 337.1 391.5 408.6 401.4 410.6 439.9 479.4 517.3 590.3 635.5 573.0 580.2 640.9 660.5 647.8 659.9 641.2 603.7 564.1 531.9 530.5 534.9 540.3 560.9 601.0 648.9 667.5 686.9 684.1 644.5 598.2 583.9 579.1 563.3 548.1 567.0 589.2 597.3 596.7 603.8 566.3 483.4 490.2 483.3 416.7 289.8 285.1 368.3 496.5 577.6 665.1 719.6 703.8 628.5 553.2 542.0 556.5 614.6 659.6 653.7 658.5 687.7 685.9 671.3 596.2 581.5 528.9 390.1 420.2 559.9 610.9 671.1 660.3 682.3 687.0 627.4 629.7 694.3 696.6 645.4 670.9 657.8 617.5 668.9 758.1 687.0 732.0 788.9 805.1 856.0 869.9 831.8 798.1 801.9 787.6 751.5 619.2 495.5 547.4 665.7 720.7 752.6 683.2 471.9 325.7 240.7 173.8 167.2 179.3 241.6 406.1 500.3 438.7 334.0 325.8 460.7 619.2 654.3 468.6 343.7 220.7 163.8 284.5 317.4 202.5 -9999.0 -9999.0 -9999.0 -9999.0 -9999.0 -9999.0 -9999.0 -9999.0 -9999.0 -9999.0 -9999.0 -9999.0 -9999.0 -9999.0 -9999.0 -9999.0 -9999.0 -9999.0 -9999.0 -9999.0 -9999.0 -9999.0 -9999.0 -9999.0 -9999.0 -9999.0 -9999.0 -9999.0 -9999.0 -9999.0 -9999.0 -9999.0 -9999.0 -9999.0 -9999.0 -9999.0 -9999.0
-9999.0 -9999.0 -9999.0 -9999.0 -9999.0 -9999.0 -9999.0 -9999.0 -9999.0 -9999.0 -9999.0 -9999.0 -9999.0 -9999.0 -9999.0 -9999.0 -9999.0 -9999.0 -9999.0 -9999.0 -9999.0 -9999.0 -9999.0 -9999.0 -9999.0 -9999.0 -9999.0 -9999.0 -9999.0 -9999.0 -9999.0 -9999.0 -9999.0 -9999.0 -9999.0 -9999.0 -9999.0 -9999.0 -9999.0 -9999.0 -9999.0 -9999.0 -9999.0 -9999.0 -9999.0 -9999.0 -9999.0 -9999.0 -9999.0 -9999.0 -9999.0 -9999.0 -9999.0 -9999.0 -9999.0 -9999.0 -9999.0 -9999.0 -9999.0 -9999.0 -9999.0 -9999.0 -9999.0 -9999.0 -9999.0 -9999.0 -9999.0 -9999.0 -9999.0 75.8 59.0 50.0 45.0 42.9 39.5 44.4 -9999.0 -9999.0 -9999.0 -9999.0 -9999.0 -9999.0 -9999.0 -9999.0 37.5 36.4 35.1 37.3 39.9 42.0 44.5 46.8 47.3 49.8 48.7 48.3 47.2 46.3 45.8 47.4 49.3 49.4 49.4 50.7 50.6 51.2 52.4 52.0 52.7 52.2 53.3 52.6 52.7 56.9 61.6 65.2 69.2 71.0 74.6 94.4 118.6 145.6 149.9 168.7 191.9 232.4 291.8 267.6 290.5 283.6 267.5 221.5 187.2 185.2 204.2 181.1 158.0 176.6 195.5 201.7 191.9 186.2 173.5 163.1 160.0 153.2 164.5 171.6 180.8 174.3 193.2 210.1 199.6 191.0 190.4 190.5 192.5 196.2 207.4 215.7 218.0 228.2 226.6 225.5 232.8 237.8 240.1 236.9 238.8 242.3 259.1 268.1 267.2 271.5 316.2 326.3 352.5 310.9 269.3 257.3 246.3 237.9 237.2 231.1 241.3 302.5 346.7 378.8 376.8 408.5 405.0 408.7 426.4 456.0 491.7 510.6 529.6 623.7 660.1 663.0 662.8 675.9 681.0 639.1 587.1 545.5 542.3 543.6 533.4 537.0 559.7 616.6 644.0 657.4 634.1 598.9 624.2 584.0 567.9 554.6 539.7 562.1 605.6 638.4 650.6 661.6 662.6 627.6 602.0 585.7 569.6 416.4 341.7 289.8 303.4 461.5 630.7 658.5 650.0 591.5 534.0 494.6 560.1 615.5 636.1 637.3 623.7 614.6 595.5 578.5 570.0 555.6 472.9 348.6 327.1 346.3 513.6 649.3 639.6 653.0 596.1 517.1 574.3 650.9 658.4 614.7 585.2 561.8 616.4 617.2 649.1 675.0 671.3 720.4 798.5 844.7 845.2 844.7 822.2 790.4 764.5 707.3 650.0 550.8 469.4 483.2 656.0 738.4 660.7 504.5 359.9 239.5 174.5 160.4 186.0 260.6 383.4 329.8 287.9 276.0 265.1 317.5 433.7 592.5 486.8 370.6 249.6 267.9 453.8 482.1 359.3 -9999.0 -9999.0 -9999.0 -9999.0 -9999.0 -9999.0 -9999.0 -9999.0 -9999.0 -9999.0 -9999.0 -9999.0 -9999.0 -9999.0 -9999.0 -9999.0 -9999.0 -9999.0 -9999.0 -9999.0 -9999.0 -9999.0 -9999.0 -9999.0 -9999.0 -9999.0 -9999.0 -9999.0 -9999.0 -9999.0 -9999.0 -9999.0 -9999.0 -9999.0 -9999.0 -9999.0 -9999.0
-9999.0 -9999.0 -9999.0 -9999.0 -9999.0 -9999.0 -9999.0 -9999.0 -9999.0 -9999.0 -9999.0 -9999.0 -9999.0 -9999.0 -9999.0 -9999.0 -9999.0 -9999.0 -9999.0 -9999.0 -9999.0 -9999.0 -9999.0 -9999.0 -9999.0 -9999.0 -9999.0 -9999.0 -9999.0 -9999.0 -9999.0 -9999.0 -9999.0 -9999.0 -9999.0 -9999.0 -9999.0 -9999.0 -9999.0 -9999.0 -9999.0 -9999.0 -9999.0 -9999.0 -9999.0 -9999.0 -9999.0 -9999.0 -9999.0 -9999.0 -9999.0 -9999.0 -9999.0 -9999.0 -9999.0 -9999.0 -9999.0 -9999.0 -9999.0 -9999.0 -9999.0 -9999.0 -9999.0 -9999.0 -9999.0 -9999.0 -9999.0 -9999.0 -9999.0 74.8 66.5 53.0 60.2 60.2 55.1 81.5 53.3 -9999.0 -9999.0 -9999.0 -9999.0 -9999.0 -9999.0 -9999.0 -9999.0 -9999.0 -9999.0 -9999.0 -9999.0 40.1 41.6 43.5 45.2 47.1 47.8 47.9 48.1 47.9 47.0 47.2 47.8 48.6 49.3 50.4 50.9 51.4 51.9 52.9 53.4 53.9 54.3 54.3 54.2 54.8 55.9 59.5 63.2 64.4 74.0 89.5 92.8 106.0 117.5 126.3 161.2 218.1 227.6 225.4 235.3 287.8 283.6 217.4 193.9 169.8 170.6 162.6 150.1 166.4 174.9 200.5 194.1 177.1 174.8 172.2 156.7 144.7 153.0 152.3 156.9 167.8 195.2 188.4 187.5 200.6 196.8 190.1 189.9 195.1 200.9 205.7 208.3 215.9 213.8 217.4 225.4 235.7 242.2 231.0 229.1 231.5 248.6 249.2 244.5 247.3 264.2 281.9 279.5 261.3 255.4 249.3 237.5 230.0 223.4 219.3 250.6 299.6 322.0 337.0 340.9 360.2 403.2 412.1 416.2 435.2 455.6 456.4 499.0 544.5 567.9 557.3 571.8 609.5 644.8 658.4 611.5 566.3 564.3 549.4 534.1 528.9 538.6 579.6 591.6 596.0 562.0 549.7 563.2 563.1 544.4 536.6 533.3 571.3 606.6 638.4 680.0 718.9 746.0 716.3 671.8 642.6 617.6 588.0 511.3 411.2 306.6 295.3 444.5 531.3 570.9 504.6 454.4 569.8 626.1 648.9 664.3 652.9 631.1 622.2 620.0 581.1 546.4 519.4 481.4 470.2 410.4 315.8 439.7 507.6 546.5 517.8 451.6 421.6 488.9 540.8 562.6 529.1 521.5 619.2 583.1 625.8 679.3 653.3 681.0 763.6 807.3 773.6 793.4 816.0 841.7 845.3 777.6 738.8 720.0 687.0 589.5 435.6 504.6 631.1 619.4 483.2 348.9 263.3 175.4 155.1 186.4 269.6 365.8 286.7 234.0 249.7 285.3 248.9 310.8 457.0 445.8 293.1 219.4 295.5 309.5 244.5 -9999.0 -9999.0 -9999.0 -9999.0 -9999.0 -9999.0 -9999.0 -9999.0 -9999.0 -9999.0 -9999.0 -9999.0 -9999.0 -9999.0 -9999.0 -9999.0 -9999.0 -9999.0 -9999.0 -9999.0 -9999.0 -9999.0 -9999.0 -9999.0 -9999.0 -9999.0 -9999.0 -9999.0 -9999.0 -9999.0 -9999.0 -9999.0 -9999.0 -9999.0 -9999.0 -9999.0 -9999.0 -9999.0
-9999.0 -9999.0 -9999.0 -9999.0 -9999.0 -9999.0 -9999.0 -9999.0 -9999.0 -9999.0 -9999.0 -9999.0 -9999.0 -9999.0 -9999.0 -9999.0 -9999.0 -9999.0 -9999.0 -9999.0 -9999.0 -9999.0 -9999.0 -9999.0 -9999.0 -9999.0 -9999.0 -9999.0 -9999.0 -9999.0 -9999.0 -9999.0 -9999.0 -9999.0 -9999.0 -9999.0 -9999.0 -9999.0 -9999.0 -9999.0 -9999.0 -9999.0 -9999.0 -9999.0 -9999.0 -9999.0 -9999.0 -9999.0 -9999.0 -9999.0 -9999.0 -9999.0 -9999.0 -9999.0 -9999.0 -9999.0 -9999.0 -9999.0 -9999.0 -9999.0 -9999.0 -9999.0 -9999.0 -9999.0 -9999.0 -9999.0 -9999.0 -9999.0 -9999.0 91.9 86.7 63.5 69.9 77.8 76.9 83.3 78.1 -9999.0 -9999.0 -9999.0 -9999.0 -9999.0 -9999.0 -9999.0 -9999.0 -9999.0 -9999.0 -9999.0 -9999.0 -9999.0 37.6 40.1 39.9 44.0 44.6 46.1 47.9 47.9 48.7 48.0 48.8 50.8 50.8 51.3 51.7 52.3 52.9 53.2 54.5 55.1 55.7 55.1 56.1 56.5 56.5 56.6 59.6 63.9 71.5 76.1 82.1 90.5 98.2 107.1 119.3 162.6 187.0 205.0 210.6 259.0 281.0 214.9 193.8 176.7 153.3 161.3 156.1 145.6 172.0 203.1 202.6 181.9 166.3 175.8 159.8 143.9 178.6 184.9 173.8 168.0 171.0 184.6 258.0 297.7 231.0 208.5 197.5 194.2 197.9 202.0 204.1 208.0 215.4 214.8 225.7 234.2 234.4 229.1 230.9 229.2 228.9 233.3 228.0 229.0 231.1 241.8 240.9 238.8 238.1 244.6 237.2 225.9 218.0 217.7 259.3 285.8 289.4 295.7 335.5 378.4 413.6 430.4 427.8 427.0 432.9 431.1 440.4 465.8 463.9 485.0 517.9 537.1 550.4 586.7 631.1 627.1 627.9 574.4 544.8 536.6 528.9 555.7 560.6 539.8 530.8 516.7 517.2 525.4 519.0 526.6 540.0 560.2 562.0 576.4 625.0 661.2 677.3 702.8 731.1 698.7 661.0 637.0 615.6 567.5 446.3 301.8 317.2 400.2 451.3 391.6 493.0 684.2 699.8 681.3 674.6 675.4 659.8 640.0 611.1 591.3 608.4 676.1 662.3 612.4 505.1 389.8 297.1 392.2 474.2 425.5 367.9 447.1 486.1 467.1 475.1 556.1 625.6 687.6 659.8 653.3 700.1 719.4 712.5 712.4 735.1 768.2 801.6 810.7 771.4 790.2 809.8 747.2 718.3 696.7 604.1 443.7 321.5 422.9 552.3 471.4 328.1 218.9 163.5 151.3 179.4 223.0 338.6 308.7 253.3 214.2 276.8 198.8 165.3 249.2 262.2 164.1 106.7 167.6 -9999.0 -9999.0 -9999.0 -9999.0 -9999.0 -9999.0 -9999.0 -9999.0 -9999.0 -9999.0 -9999.0 -9999.0 -9999.0 -9999.0 -9999.0 -9999.0 -9999.0 -9999.0 -9999.0 -9999.0 -9999.0 -9999.0 -9999.0 -9999.0 -9999.0 -9999.0 -9999.0 -9999.0 -9999.0 -9999.0 -9999.0 -9999.0 -9999.0 -9999.0 -9999.0 -9999.0 -9999.0 -9999.0 -9999.0 -9999.0
