ncols   421
nrows   32
xllcorner    13.026532
yllcorner    37.534698
cellsize    0.005006
NODATA_value -9999
444.5 393.5 336.6 291.8 266.8 253.5 245.8 250.3 268.8 298.6 319.3 355.9 418.8 472.9 511.8 516.5 512.1 516.6 562.2 625.1 695.3 784.9 839.3 846.9 869.0 928.3 987.5 1033.0 1070.9 1135.1 1136.6 1105.4 1109.0 1033.3 858.8 753.8 708.3 680.4 695.1 718.0 696.5 664.0 660.0 649.3 615.5 615.6 626.2 634.9 660.0 678.8 715.8 745.1 696.4 658.1 622.6 577.4 567.6 618.8 651.9 681.6 696.2 705.3 662.4 641.5 656.5 647.9 607.8 578.9 572.9 571.0 579.7 652.2 706.4 738.4 817.0 830.0 901.3 977.9 990.8 825.8 778.7 762.0 738.6 775.3 889.9 973.1 954.9 897.9 880.8 888.3 922.8 1009.1 1056.5 1065.9 1080.6 1075.8 1021.6 1000.5 1029.1 1004.7 947.6 879.6 809.8 777.4 741.0 760.9 757.8 722.7 692.7 751.2 852.9 971.6 986.8 931.2 860.8 793.3 678.1 605.9 563.7 516.5 491.4 464.4 443.6 488.7 559.1 636.3 709.0 728.6 732.0 764.5 753.1 731.6 715.1 672.0 626.7 591.5 627.3 669.9 676.8 701.0 677.1 640.2 595.1 611.3 591.4 612.0 628.2 653.9 692.7 664.4 611.6 589.4 586.8 635.9 647.8 608.4 590.0 583.9 574.2 556.3 531.7 509.2 495.6 486.9 491.1 482.5 494.4 495.4 471.0 501.1 498.6 544.9 547.6 513.5 505.7 556.7 563.1 592.4 645.8 719.8 768.1 763.9 731.5 686.6 702.3 750.8 789.9 743.6 686.7 721.3 749.1 686.7 730.7 733.6 783.7 807.9 743.9 679.6 628.4 590.7 577.1 567.7 593.3 569.4 519.9 551.7 514.0 527.8 551.7 575.8 616.9 682.6 725.4 741.0 765.0 749.7 793.8 844.7 898.0 856.2 825.0 805.1 748.5 698.0 612.2 525.8 497.9 543.0 572.7 538.5 486.2 564.7 648.6 740.4 772.4 810.4 864.4 892.4 909.0 916.3 850.8 801.0 829.1 873.9 896.0 862.3 851.4 809.7 787.0 798.7 804.6 835.2 856.0 866.2 822.0 758.0 742.8 773.0 803.4 815.9 891.6 955.8 935.2 977.1 981.0 958.5 903.0 833.7 770.4 755.3 763.0 811.8 831.3 774.0 716.8 699.5 659.7 614.0 630.2 658.4 638.4 590.8 531.9 518.9 576.3 626.8 670.3 693.7 596.6 504.2 457.6 460.9 483.5 540.6 545.6 543.3 597.3 591.7 543.0 583.8 605.6 559.2 555.9 475.0 531.6 617.8 669.9 701.0 742.8 806.8 853.5 790.4 699.9 619.8 537.4 454.8 445.9 512.6 564.6 565.9 579.6 569.9 590.7 595.7 563.0 560.9 500.4 443.4 421.5 411.1 442.3 486.2 456.8 442.5 491.6 485.3 395.0 336.3 356.3 395.6 436.2 411.0 419.3 374.5 394.7 468.6 505.9 520.3 480.7 469.1 523.7 521.4 413.0 364.9 367.6 394.8 413.6 443.3 488.3 541.6 588.4 635.5 700.8 753.5 814.3 856.3 888.4 926.8 949.3 981.7 1028.1 1053.8 1104.6 1147.1 1185.1 1225.2 1249.8 1271.9 1295.3 1345.5 1419.7 1472.6 1507.5 1546.6 1613.0 1664.3 1708.2 1750.3 1786.2 1788.3 1816.7 1819.2 1820.1 1804.7 1830.5 1806.5 1762.5 1722.9 1695.8 1629.0 1561.4 1512.9 1462.1 1414.4 1369.7 1336.4 1281.5 1200.5 1152.3 1104.2 1025.2 908.2 767.8 678.3 633.8 582.2 540.5 524.6 502.6 469.1 424.9
489.3 433.5 361.8 305.4 276.3 257.5 252.6 261.9 284.6 320.7 320.5 365.3 425.7 458.3 441.7 449.9 458.8 496.6 547.0 616.5 708.6 835.6 896.1 903.2 929.9 990.5 1038.0 1030.5 1053.4 1098.1 1056.1 1041.5 995.3 919.9 777.9 726.9 703.9 650.4 638.8 685.3 689.2 716.3 745.6 718.3 644.8 575.2 587.3 636.5 663.0 680.9 730.7 762.1 718.5 675.6 651.4 585.7 521.3 563.1 629.7 614.6 623.0 638.7 608.1 582.1 576.6 563.1 553.4 564.1 602.0 624.6 641.6 766.9 844.8 877.0 798.5 886.8 1001.3 1065.2 1106.1 1038.0 1020.8 979.9 845.0 740.3 783.1 824.4 853.8 884.2 937.7 1006.9 1063.3 1121.5 1074.6 1043.4 1055.2 1098.0 1123.8 1061.6 1079.0 1034.3 952.7 883.6 817.2 780.1 747.3 717.1 699.1 665.7 651.8 720.3 781.0 840.8 937.1 1008.5 935.4 834.3 704.3 653.2 593.7 519.5 488.2 467.1 434.5 482.6 554.1 615.6 695.3 756.4 770.0 762.5 706.9 677.2 631.7 605.3 579.9 596.6 622.7 638.0 670.0 676.9 642.4 612.8 625.5 627.2 611.1 604.4 619.0 659.4 674.3 629.0 601.9 577.8 585.9 632.3 662.0 643.1 620.4 583.5 568.4 542.9 573.5 562.2 527.2 511.8 497.3 480.0 470.1 461.2 461.6 479.4 492.9 522.1 489.2 483.8 532.4 609.9 612.3 609.1 629.5 664.4 670.4 687.2 724.4 630.0 650.6 726.6 791.1 725.7 646.8 654.8 736.3 669.9 653.4 710.7 778.3 763.9 700.5 647.2 617.0 600.2 577.7 552.1 533.0 522.9 514.8 494.8 503.0 550.4 592.0 615.8 613.4 646.9 681.4 724.5 758.6 777.3 791.8 807.6 785.3 739.5 714.2 706.1 647.1 599.7 547.4 473.3 502.6 522.8 553.5 516.6 486.2 550.6 568.8 628.2 666.0 729.6 815.1 829.4 833.8 821.1 805.8 757.3 766.9 799.5 805.4 783.7 765.6 759.4 812.6 869.9 839.7 843.6 870.4 877.6 824.2 806.6 818.6 850.4 882.9 892.5 930.4 921.2 901.1 926.5 933.5 907.0 872.0 808.6 739.7 683.6 687.8 755.4 747.8 724.0 670.8 642.6 629.0 609.2 576.5 573.5 573.2 537.0 543.1 541.0 587.0 618.0 686.0 688.1 620.4 551.8 495.9 462.9 446.6 457.5 476.0 535.0 559.8 564.4 505.0 527.6 530.2 502.5 479.6 485.7 585.3 650.6 723.0 782.4 786.4 742.6 743.5 742.0 677.4 615.4 552.3 474.5 396.6 418.0 447.2 448.6 482.4 470.7 498.9 504.2 467.8 476.8 452.5 406.8 361.3 370.0 376.2 394.7 375.6 373.7 402.2 437.8 419.0 342.3 328.9 361.7 374.7 384.9 383.8 347.2 393.4 404.1 442.8 426.1 407.1 412.9 460.0 442.7 380.1 340.8 343.3 375.9 401.5 425.0 469.7 531.1 588.9 654.6 711.7 751.1 794.9 833.0 862.0 898.1 940.7 974.4 986.4 1023.0 1076.5 1101.2 1137.9 1169.1 1191.6 1218.4 1257.4 1305.0 1367.9 1407.9 1448.7 1512.8 1551.1 1612.9 1663.7 1678.7 1711.1 1709.4 1714.6 1710.7 1709.1 1695.7 1734.2 1740.8 1720.1 1667.0 1609.2 1576.8 1535.0 1468.1 1405.2 1355.9 1324.7 1294.8 1248.0 1185.3 1146.8 1095.6 1004.6 894.8 782.6 657.2 603.1 575.8 533.5 494.5 463.1 429.5 403.3
481.8 432.4 364.3 323.9 308.9 275.5 270.9 289.0 325.4 320.4 313.3 345.0 388.1 420.4 384.7 391.8 438.8 485.1 541.7 606.1 681.8 766.1 834.9 815.8 870.6 956.5 982.5 977.4 978.5 962.8 933.1 895.7 817.8 781.2 736.6 671.3 628.3 599.6 628.5 635.2 665.5 736.8 781.3 768.6 676.1 571.9 570.5 593.8 615.6 654.9 695.2 682.6 654.5 620.3 570.0 537.9 508.3 505.5 533.0 542.8 515.1 526.1 539.5 553.8 560.2 618.1 640.7 659.4 676.7 697.4 709.4 776.2 877.7 934.9 860.4 839.7 876.3 943.5 994.6 939.3 875.4 816.9 747.0 803.3 782.2 937.0 959.9 949.0 971.3 1005.9 1032.8 1041.7 1034.0 1037.3 1119.6 1125.0 1129.0 1105.3 1055.0 1076.9 1054.8 967.8 889.3 836.4 776.0 758.3 720.7 657.7 623.9 653.8 708.7 761.7 787.6 954.3 922.5 762.2 673.6 599.0 554.9 511.7 468.4 457.7 428.0 456.3 506.3 550.6 622.1 668.2 678.5 680.0 623.8 625.0 611.8 558.6 533.6 556.8 591.1 642.7 673.3 677.3 669.9 637.9 632.3 617.6 630.7 616.7 620.9 645.6 618.4 586.2 571.7 550.8 585.1 620.1 639.1 646.5 597.6 573.7 559.3 537.5 522.9 507.8 499.9 519.4 533.3 517.1 493.4 478.7 463.1 447.9 456.1 471.3 462.1 492.4 544.9 595.4 644.3 659.4 670.0 609.4 615.9 678.9 691.7 591.6 642.8 709.1 703.2 669.4 637.9 602.1 679.7 651.7 612.0 666.4 711.1 725.8 678.7 661.9 661.5 658.5 607.6 570.7 549.6 546.0 510.8 490.0 536.0 581.1 605.4 624.1 672.5 708.7 736.9 786.2 782.6 777.5 768.4 723.0 720.2 685.0 629.0 613.8 581.2 549.5 520.1 484.9 457.9 477.6 522.9 492.2 466.7 508.2 561.2 590.2 641.4 706.6 775.9 770.7 749.8 738.0 740.4 715.4 710.5 723.1 718.9 723.4 757.1 792.0 842.4 877.6 892.6 891.6 928.4 908.7 870.8 900.5 908.5 903.8 884.6 875.3 859.4 836.7 825.8 846.4 872.3 823.4 792.9 777.6 730.5 666.3 643.9 677.6 689.1 713.4 699.3 654.6 631.1 598.7 591.4 570.5 566.9 623.7 621.0 573.1 586.4 617.1 626.3 612.8 569.4 511.0 519.1 548.5 500.6 451.9 444.1 481.9 473.7 487.7 473.4 486.7 472.4 476.4 439.1 501.9 585.7 633.9 675.6 708.6 715.0 636.5 623.1 659.4 629.8 553.9 496.8 435.0 375.8 365.2 363.3 361.6 378.5 378.1 399.3 399.0 390.4 379.0 372.7 358.9 329.0 347.4 343.6 341.1 343.5 343.3 353.8 369.2 373.4 342.6 312.7 339.4 363.5 356.6 357.5 332.6 353.6 378.1 417.7 398.6 364.4 404.6 383.9 350.7 326.1 305.1 343.9 375.9 416.2 438.5 490.5 555.8 627.0 671.9 696.7 727.5 770.7 807.7 841.8 873.9 906.2 926.2 964.7 1005.7 1041.2 1080.5 1118.5 1132.6 1157.2 1203.3 1239.0 1274.6 1319.4 1356.3 1396.3 1443.5 1488.3 1538.5 1559.1 1563.7 1577.1 1579.6 1593.0 1595.6 1597.0 1565.6 1578.0 1617.3 1601.8 1561.3 1530.3 1529.7 1515.8 1460.6 1399.0 1339.5 1292.1 1267.1 1233.7 1198.1 1156.1 1073.6 993.1 879.5 771.7 657.9 576.3 541.2 521.6 494.6 466.9 429.9 405.0
458.5 406.8 343.8 309.9 301.2 290.8 294.1 310.2 334.9 300.7 301.5 315.8 347.8 371.1 347.9 380.6 431.3 472.9 517.5 557.3 609.6 662.5 740.0 758.1 798.1 864.9 879.0 906.0 898.0 841.6 811.9 721.2 688.9 711.3 682.8 643.5 581.4 535.6 599.8 596.2 639.8 720.7 764.5 718.5 638.2 570.2 557.7 610.3 655.9 716.3 751.8 710.5 657.6 619.6 580.8 564.5 570.9 544.3 492.9 473.6 464.1 518.0 566.2 582.3 591.4 647.8 704.1 745.8 758.5 769.0 763.2 803.0 864.2 953.7 983.7 927.5 922.0 989.6 1006.1 918.8 826.0 766.0 797.7 904.5 819.8 935.8 996.9 951.3 905.0 914.0 927.6 945.4 998.0 1075.3 1153.9 1221.6 1197.4 1138.2 1009.4 1022.0 1091.2 1056.7 926.6 845.7 785.8 722.6 653.2 623.4 615.0 599.2 643.1 683.6 652.8 706.4 705.1 656.4 607.0 568.7 533.9 491.5 462.9 451.7 440.3 416.8 419.6 451.9 501.2 557.9 560.0 565.7 550.3 601.9 593.9 535.7 506.9 532.7 586.9 647.0 669.8 646.4 672.2 701.9 634.3 588.0 590.8 595.6 628.9 652.6 649.5 601.8 574.1 543.7 570.8 580.7 615.3 634.4 632.6 601.0 590.2 580.4 572.1 553.3 503.5 485.0 488.7 490.0 494.5 493.3 500.1 458.5 438.4 452.8 497.5 515.9 552.7 579.2 558.1 589.6 627.5 594.2 579.6 603.4 601.7 557.4 587.1 621.0 647.0 606.5 579.0 559.3 572.9 591.2 636.6 661.5 709.1 757.6 730.0 728.8 681.8 646.3 618.6 611.8 580.7 526.3 496.7 495.4 572.7 647.9 701.6 718.5 728.4 761.5 770.7 791.5 715.2 686.2 709.1 661.4 638.0 649.6 611.3 569.6 529.2 537.8 561.0 500.9 470.7 445.6 455.3 463.5 508.5 577.6 588.7 636.7 682.8 690.1 718.4 747.4 728.1 684.3 666.2 685.3 704.2 729.3 742.4 784.0 795.4 854.8 912.8 939.4 950.4 964.0 1005.6 975.4 949.1 973.8 888.4 825.8 782.4 754.8 755.8 754.9 728.4 760.5 798.4 755.5 731.2 692.8 709.0 650.6 620.0 692.2 706.3 685.4 701.5 654.5 624.4 620.9 613.5 628.9 637.9 718.5 738.3 692.2 586.7 609.5 572.5 555.5 538.9 576.2 617.7 599.3 540.4 473.2 434.7 433.3 427.5 426.3 429.6 445.5 437.3 440.0 425.1 483.2 509.4 530.9 562.6 607.1 629.4 569.5 531.9 576.4 601.3 575.8 517.4 423.9 404.6 465.8 404.0 393.4 386.3 383.7 352.0 346.8 340.7 335.6 343.9 327.3 316.9 319.1 325.0 319.2 316.8 323.3 327.3 328.7 337.5 333.4 303.7 331.3 367.6 336.9 330.5 319.9 335.4 335.3 359.0 355.6 360.6 397.6 338.0 299.4 283.9 325.1 350.0 385.2 421.6 458.5 511.2 577.7 651.9 684.1 704.3 726.9 771.6 795.7 815.0 848.8 856.2 884.5 932.3 965.8 1014.7 1023.1 1067.8 1088.0 1148.4 1177.5 1176.6 1197.5 1246.7 1299.2 1342.9 1386.4 1430.9 1452.2 1445.0 1458.0 1469.2 1483.8 1498.3 1508.8 1496.2 1471.0 1490.9 1499.0 1471.0 1445.1 1436.7 1456.2 1454.4 1438.3 1393.4 1328.7 1276.4 1232.3 1191.7 1163.2 1095.6 984.2 886.9 779.8 700.0 637.8 586.6 541.8 499.3 463.7 427.4 398.9 374.8
433.3 429.2 359.4 311.4 292.5 287.6 282.6 295.2 305.6 288.3 297.1 313.0 321.8 320.4 336.2 371.5 406.5 439.4 461.7 513.1 561.8 601.1 645.4 712.2 736.8 708.3 694.1 722.4 751.3 714.3 632.2 590.1 630.3 633.6 613.4 613.5 562.7 512.9 570.3 555.3 601.9 685.7 678.6 579.3 521.8 531.9 556.8 603.0 665.9 725.0 793.7 792.8 743.5 705.5 641.0 641.4 646.6 611.5 540.5 468.7 535.3 641.0 691.4 704.8 706.3 672.3 670.8 720.3 772.2 798.0 804.0 808.2 827.9 888.1 937.5 970.6 989.1 1022.6 967.6 895.7 819.2 841.2 877.7 903.7 953.8 911.6 888.5 912.1 870.4 873.0 903.8 941.0 987.4 1046.4 1102.2 1189.4 1242.1 1135.3 978.9 943.4 998.4 958.2 885.3 788.8 730.3 699.9 719.4 671.5 634.9 610.7 584.0 577.0 570.4 557.3 560.7 560.7 527.7 484.4 478.1 458.6 454.4 470.0 472.9 418.6 406.2 398.2 407.4 466.8 463.0 464.1 538.5 628.3 582.1 523.2 482.6 515.1 539.9 573.1 602.5 606.6 637.3 690.0 668.5 602.0 555.8 546.3 581.5 591.0 607.3 578.4 555.7 527.1 546.9 599.0 653.0 645.5 588.7 564.3 582.4 584.9 565.9 538.3 494.0 470.0 460.2 463.9 455.0 450.5 445.3 437.5 430.0 463.2 491.2 503.3 522.7 518.5 506.9 535.1 543.9 534.1 535.1 538.4 539.4 534.3 592.5 624.1 655.7 620.6 561.0 550.0 605.8 664.3 703.1 738.3 774.8 795.8 756.0 685.5 643.5 608.1 577.7 564.8 545.4 518.7 487.1 508.0 590.5 634.1 680.3 696.3 686.9 693.4 688.4 710.5 671.9 599.0 635.4 614.0 554.9 567.5 590.5 613.2 582.4 495.8 524.7 522.3 454.1 438.6 501.4 547.7 604.6 615.5 608.8 630.9 674.9 669.1 661.6 710.5 749.7 713.9 648.8 699.0 724.9 738.0 752.8 775.8 836.0 875.9 850.7 874.3 911.5 961.1 1054.3 1130.8 1037.5 944.3 863.8 796.3 739.6 693.5 656.5 677.7 657.1 681.3 732.4 721.4 682.3 650.2 695.9 667.8 636.0 668.6 655.3 633.9 669.8 675.4 641.6 672.0 679.8 668.3 672.1 704.5 690.8 628.0 610.3 647.6 610.5 611.8 577.8 619.7 629.5 550.6 498.3 477.5 451.0 445.7 476.6 490.2 452.5 427.6 423.9 413.3 412.3 425.2 417.3 424.7 464.3 503.8 522.7 510.1 467.8 488.3 506.8 517.2 475.2 392.7 434.9 523.3 508.5 519.1 492.0 482.2 492.9 460.3 404.1 369.5 432.2 396.0 359.2 320.1 308.8 309.8 304.3 299.8 304.1 303.5 302.8 309.0 311.1 296.4 325.3 320.4 313.0 308.3 317.1 316.3 328.2 326.0 330.7 339.0 308.2 278.8 283.8 326.7 337.5 360.0 414.1 477.0 535.3 599.7 658.7 668.9 683.6 700.5 728.9 759.5 772.0 798.1 808.9 848.3 876.8 916.5 957.7 976.0 1000.8 1020.7 1072.1 1089.4 1089.6 1134.0 1212.1 1250.1 1292.7 1335.2 1360.6 1364.4 1350.7 1350.0 1375.4 1425.0 1416.5 1413.9 1412.6 1396.1 1416.0 1391.7 1369.8 1366.3 1368.0 1389.5 1373.3 1364.4 1300.2 1244.7 1199.2 1174.0 1134.0 1090.2 1000.8 900.3 799.9 730.5 668.2 614.9 551.9 500.0 463.3 440.8 423.8 390.5 361.0
414.1 436.9 402.2 331.6 293.4 274.9 279.8 316.2 303.4 279.4 300.5 293.8 302.7 320.7 347.3 351.4 369.6 392.7 446.8 485.4 529.7 555.0 597.5 637.6 655.7 638.2 598.0 592.9 599.2 607.5 542.4 517.7 567.2 557.0 523.3 549.6 522.6 478.5 515.4 523.6 609.4 651.5 583.9 468.8 480.3 507.4 557.3 598.9 631.1 675.4 776.4 809.1 767.2 731.8 738.1 719.3 733.9 744.0 647.5 484.4 621.2 602.7 590.7 633.2 677.3 712.8 705.8 750.9 798.6 806.9 831.6 846.3 895.9 975.8 1041.5 1017.6 1024.6 1056.0 1011.0 948.7 899.8 940.5 964.9 1006.5 1082.9 1068.8 983.2 931.8 887.0 863.8 892.2 920.9 956.5 1003.4 1068.4 1182.2 1290.9 1163.5 993.7 892.1 843.4 833.0 801.3 752.7 697.1 731.9 820.9 834.4 726.7 713.2 660.6 615.6 581.3 586.6 566.6 529.0 518.3 522.4 515.5 494.6 463.6 444.9 436.7 424.1 420.4 412.6 395.7 390.0 404.1 459.7 549.0 616.7 537.5 462.4 517.9 574.2 626.8 631.7 626.5 612.7 672.4 663.4 685.8 653.3 572.0 530.3 535.8 537.7 577.4 577.7 525.1 510.1 547.2 575.9 620.6 598.4 559.9 542.0 533.4 518.8 513.7 494.2 518.2 509.3 482.0 512.7 494.0 512.1 514.0 502.3 473.5 426.4 440.2 494.4 473.2 469.6 483.6 491.7 509.3 495.9 502.1 498.1 494.7 520.4 573.8 601.7 614.8 637.4 556.5 548.2 651.9 717.9 781.2 833.5 865.4 829.6 776.3 736.0 708.5 659.2 671.5 602.8 589.9 573.8 527.3 479.8 496.8 537.4 576.7 597.5 583.1 604.7 598.9 606.6 601.8 542.8 550.8 558.5 511.2 544.7 592.8 608.1 547.1 492.1 472.0 452.3 430.5 473.4 566.8 619.3 628.2 597.8 591.7 637.8 613.6 603.0 595.4 615.6 664.9 642.5 661.3 755.9 797.0 824.2 826.3 838.4 836.1 788.4 773.4 834.4 896.9 971.1 1070.0 1074.9 1002.7 937.7 865.3 806.8 758.8 688.6 628.5 616.0 611.5 680.8 736.0 770.8 724.1 658.4 590.1 563.9 551.4 602.1 588.1 577.9 599.6 648.3 677.7 744.5 786.5 779.3 720.1 668.0 644.2 634.8 693.7 740.9 682.2 622.8 610.8 638.6 588.5 558.1 581.9 536.5 525.8 524.4 568.0 585.5 497.3 517.4 509.1 464.8 421.8 402.7 404.4 404.3 394.9 408.7 411.0 418.4 410.1 412.0 416.2 401.3 385.3 383.1 425.3 489.1 537.8 563.1 569.1 561.0 521.7 464.6 401.3 389.6 454.5 433.7 394.3 358.3 367.9 375.6 339.7 306.8 302.8 294.3 289.7 286.4 287.7 285.3 297.9 307.2 298.2 304.2 305.6 304.4 315.0 310.6 305.6 302.9 289.1 268.8 282.5 317.0 329.2 376.7 430.0 491.1 559.7 614.0 635.6 646.6 660.3 670.0 674.9 709.8 724.2 737.0 760.8 795.8 833.7 888.8 922.7 931.4 934.5 982.0 1006.1 1027.9 1038.9 1070.2 1130.7 1192.5 1245.3 1278.2 1286.3 1289.4 1290.9 1271.9 1292.3 1321.9 1333.9 1318.3 1323.2 1307.1 1313.4 1284.8 1288.2 1288.6 1289.9 1284.8 1250.4 1261.4 1175.6 1097.4 1097.1 1067.1 1061.4 1023.9 961.5 890.2 783.9 695.4 645.8 592.1 541.4 504.9 469.8 430.3 398.7 366.2 342.6
375.1 413.2 376.0 320.9 280.1 271.0 271.6 301.4 282.8 265.8 270.7 281.4 299.6 311.9 324.5 333.7 353.6 392.6 436.6 476.7 487.3 519.7 575.2 547.1 579.6 553.4 516.9 528.0 520.4 499.3 501.3 467.8 490.5 486.6 464.3 450.6 442.6 443.3 490.1 545.8 573.4 500.4 419.3 482.9 557.3 580.8 572.9 542.8 563.4 588.9 742.1 853.6 866.7 850.8 834.4 812.1 830.2 775.2 583.4 432.1 446.8 489.5 519.9 572.7 616.2 680.5 738.4 798.5 874.2 883.6 939.2 988.8 1057.7 1091.3 1173.3 1209.3 1196.9 1169.3 1078.0 1020.5 965.4 1007.5 1059.7 1160.5 1193.6 1126.5 1005.8 935.8 902.7 882.7 894.5 910.5 946.8 984.1 1062.7 1218.2 1311.6 1157.2 999.7 893.9 823.0 768.4 736.8 709.8 685.5 729.9 808.4 916.1 989.7 904.3 793.1 699.5 670.7 790.4 802.8 773.1 709.6 665.1 633.0 594.3 536.0 523.3 501.9 452.5 487.3 474.1 444.6 386.7 380.1 432.8 508.2 563.3 476.6 445.2 533.6 626.6 696.2 725.8 703.3 651.9 665.1 618.5 604.1 650.1 597.6 537.1 515.1 502.6 531.7 558.7 515.5 504.6 527.3 584.7 628.6 614.9 593.9 583.5 552.2 536.7 512.0 544.2 603.2 561.1 527.0 577.1 565.8 546.2 586.2 573.4 523.5 451.1 418.8 443.1 439.2 465.0 506.2 512.6 505.1 476.4 472.5 475.3 484.6 514.3 556.4 584.0 545.3 523.5 510.3 555.6 630.1 672.8 737.6 786.7 827.5 871.8 847.8 837.4 763.0 730.8 700.4 641.7 631.1 580.5 553.5 546.4 502.1 476.7 474.3 495.7 483.2 489.4 488.7 483.7 493.2 480.0 478.3 470.2 477.4 552.2 632.1 627.5 548.9 533.8 562.5 452.6 436.9 484.3 548.2 589.7 636.7 629.4 559.3 578.2 560.5 583.3 568.1 568.2 607.0 631.8 735.1 826.2 880.6 910.5 858.0 789.5 738.8 713.3 753.7 837.3 917.1 1016.7 994.6 983.3 953.2 923.4 874.5 802.5 736.6 686.5 620.8 566.2 598.5 655.7 720.1 754.0 695.9 652.1 648.2 615.0 532.3 535.3 564.1 617.2 660.1 685.8 719.2 780.8 824.9 796.4 715.4 683.6 678.0 650.3 704.3 763.5 712.4 638.7 681.6 721.1 681.2 638.7 630.3 560.2 569.4 613.6 628.8 626.0 572.0 593.1 563.0 540.8 510.9 491.9 493.8 462.1 401.5 379.8 383.3 384.4 383.2 382.8 382.4 378.9 384.3 388.3 399.1 444.3 461.9 476.5 502.7 502.2 464.8 423.4 401.7 406.8 452.1 472.5 461.0 434.8 435.5 410.5 373.9 341.5 329.5 317.7 310.3 302.0 293.0 279.9 275.9 271.9 274.5 296.1 295.4 294.6 298.3 301.6 292.8 294.3 290.2 266.1 264.5 301.7 319.3 382.1 436.3 506.6 585.8 606.0 614.4 628.5 635.4 632.1 652.4 663.1 670.6 697.4 732.6 754.3 811.2 848.2 869.2 883.8 897.2 935.7 962.0 974.0 992.4 1015.8 1066.9 1121.4 1154.8 1183.1 1201.9 1224.2 1223.9 1215.6 1217.1 1216.5 1222.9 1235.7 1211.8 1201.9 1222.4 1222.3 1221.3 1209.2 1185.0 1159.5 1120.6 1098.5 1086.4 995.0 982.1 971.9 968.2 950.3 897.4 876.9 839.7 700.9 593.5 567.7 531.1 497.3 466.2 437.1 404.7 379.3 358.6
343.6 363.2 317.7 281.1 261.1 262.6 255.1 278.0 263.2 250.0 288.1 298.7 292.2 293.5 301.7 313.5 343.8 386.0 419.2 418.3 460.6 515.4 506.4 455.5 488.9 512.5 449.5 453.8 492.2 442.4 445.0 430.7 458.3 426.7 413.3 403.4 399.4 408.6 473.8 520.1 473.9 415.3 422.2 490.4 558.2 631.0 642.9 545.0 470.8 510.6 613.6 758.5 806.5 830.5 841.4 826.1 747.5 661.4 567.0 451.5 584.1 594.3 672.0 714.5 679.4 699.5 775.9 823.6 897.6 971.0 1059.2 1159.3 1278.4 1304.5 1336.6 1333.5 1375.9 1354.0 1231.6 1094.2 1044.9 1099.6 1148.6 1270.1 1195.8 1069.6 991.1 966.9 944.0 909.6 895.9 914.6 942.0 988.2 1064.8 1229.3 1283.4 1187.5 1002.7 894.1 835.7 776.4 735.4 705.0 698.3 755.1 806.4 883.4 991.4 1051.1 894.3 780.3 821.5 980.7 956.4 887.4 835.3 773.0 722.2 654.0 592.8 575.9 540.1 486.7 514.0 531.3 476.4 409.0 370.0 385.9 424.2 461.0 422.1 415.6 478.0 551.5 647.2 701.2 735.6 711.7 710.1 640.0 585.6 563.4 618.1 590.8 544.3 503.6 491.1 528.8 501.3 536.8 546.1 610.8 707.3 718.0 676.5 613.2 562.5 559.4 573.3 603.7 616.5 594.4 590.0 645.5 647.6 615.9 654.3 608.6 552.3 478.8 425.0 412.0 419.1 444.7 471.8 487.3 500.1 468.3 462.6 469.4 478.0 492.6 516.9 523.5 488.8 490.2 511.7 542.6 576.6 616.6 664.8 711.9 762.7 826.0 872.8 883.6 857.7 792.8 753.4 741.2 685.0 660.5 629.2 646.7 582.4 557.9 528.8 505.1 518.9 511.6 482.5 455.4 439.2 437.5 457.4 516.0 504.4 506.7 536.0 550.6 598.7 607.6 561.7 481.7 421.3 479.6 488.9 548.5 628.3 664.2 636.7 591.3 529.8 541.7 548.3 561.7 605.2 627.0 732.7 777.0 816.0 850.6 817.2 751.5 691.3 745.4 817.5 851.2 896.1 928.8 890.7 870.0 870.1 868.1 876.0 815.9 713.0 630.7 577.1 564.1 669.3 714.9 661.2 647.5 633.5 592.5 630.6 602.1 531.3 520.6 592.9 646.6 692.3 719.4 744.8 807.0 818.4 803.7 745.4 720.6 752.0 712.8 691.7 741.8 750.4 702.4 725.1 732.3 713.9 697.4 694.9 665.1 629.0 645.6 666.9 656.9 664.5 709.4 651.4 603.1 560.3 568.7 525.7 465.1 433.9 414.2 392.2 388.6 384.6 383.3 383.2 385.0 389.3 401.0 401.6 423.2 441.7 466.9 501.7 524.7 476.5 461.8 452.3 441.8 477.5 519.0 534.0 528.7 529.4 497.2 447.9 397.6 357.6 342.2 330.7 318.6 318.2 301.3 280.7 278.8 267.0 272.9 279.6 276.6 279.1 282.6 276.7 284.5 286.9 282.1 246.9 288.3 313.1 364.9 404.7 468.3 551.7 582.8 591.4 602.1 596.6 612.8 628.1 627.5 654.5 678.3 688.3 719.7 759.6 776.3 812.3 832.1 854.7 870.0 894.3 921.7 947.8 988.1 1026.7 1062.5 1084.1 1115.1 1148.5 1162.6 1169.1 1167.0 1158.5 1158.5 1183.2 1175.1 1135.1 1138.4 1154.9 1155.8 1153.4 1134.5 1122.4 1097.1 1079.8 1036.5 987.1 957.1 925.4 913.0 888.2 853.5 794.9 759.5 727.0 674.1 621.5 569.7 538.8 503.7 467.4 447.3 421.9 393.7 367.3
282.0 291.7 276.3 263.7 249.1 244.8 240.7 245.4 234.5 252.3 274.8 269.5 284.7 273.4 288.6 317.6 340.7 370.2 353.8 370.4 415.5 430.1 410.9 399.8 444.5 464.9 427.8 409.0 430.1 402.7 400.9 409.8 446.4 438.0 404.8 378.2 370.0 392.2 414.1 439.2 417.4 371.5 435.2 508.1 616.0 693.6 678.4 587.3 441.0 434.2 516.7 549.5 539.1 606.5 652.2 721.0 771.9 697.2 489.7 518.9 684.0 753.3 755.5 759.8 765.9 767.9 822.0 894.2 945.1 983.0 1051.4 1113.1 1180.9 1178.1 1166.6 1183.9 1251.9 1379.6 1364.6 1173.3 1151.5 1266.2 1242.0 1221.4 1145.8 1074.3 1089.4 1100.2 1036.3 971.0 929.4 912.1 932.7 978.9 1050.7 1176.3 1279.2 1195.6 1000.6 899.8 845.9 788.9 741.6 718.8 705.5 750.7 793.3 860.8 947.3 1009.2 938.1 834.6 902.1 1018.3 998.1 921.9 827.9 760.9 690.0 647.3 582.5 545.9 539.2 546.2 532.4 473.0 440.9 415.3 385.3 366.6 360.7 377.8 387.8 422.1 449.0 495.9 552.2 636.6 718.5 774.8 761.4 697.4 618.5 536.9 571.3 616.4 573.9 515.1 475.7 497.1 479.8 541.3 581.1 604.0 654.8 710.3 660.5 603.9 597.3 604.9 627.1 666.5 675.2 658.7 659.9 668.3 700.6 672.7 658.4 589.1 542.0 501.2 452.9 414.3 406.3 440.1 460.7 460.2 472.2 455.4 457.6 460.5 494.1 477.9 490.8 472.9 477.0 512.2 570.9 585.2 585.7 602.3 627.4 653.9 706.1 763.9 824.9 890.2 941.4 911.9 861.6 812.7 779.9 736.3 712.4 714.9 640.4 608.9 603.4 644.8 672.1 636.2 549.1 512.0 495.8 445.5 433.3 544.2 604.2 577.8 541.1 578.5 641.5 638.0 574.4 496.9 420.2 507.8 538.9 561.9 623.1 659.1 667.3 597.2 524.3 602.9 608.5 599.1 601.2 566.4 636.5 704.2 759.4 745.0 722.5 679.6 666.0 752.4 826.1 828.1 804.4 803.3 800.1 772.2 803.0 874.3 875.0 824.0 742.9 651.0 571.9 592.6 703.2 717.3 622.8 560.9 583.4 553.5 573.2 516.9 493.1 552.9 561.4 622.2 697.1 741.1 742.5 778.5 817.2 810.8 780.9 743.8 743.7 726.9 713.5 728.4 744.1 734.3 730.8 690.9 660.1 651.8 635.6 648.3 679.7 675.8 690.6 624.0 678.6 712.6 638.9 562.0 519.4 531.5 522.1 469.6 477.1 473.7 473.2 459.4 410.4 402.4 407.9 412.3 402.7 421.8 428.0 436.4 453.2 488.7 521.6 555.5 547.6 549.6 531.9 509.9 543.2 609.4 649.0 647.9 627.1 578.5 506.6 410.7 377.2 354.8 337.9 348.6 342.1 329.7 311.4 295.0 280.3 260.7 259.5 255.3 248.7 253.2 259.3 278.8 283.6 277.2 239.5 266.5 287.8 306.7 341.4 402.0 456.0 519.2 539.9 528.2 571.9 590.5 587.5 611.7 619.2 632.1 658.1 676.4 692.4 719.9 751.9 775.5 803.3 828.1 846.3 885.3 927.2 969.0 983.4 1005.1 1025.4 1042.8 1069.6 1081.3 1099.0 1101.3 1095.9 1103.4 1136.7 1121.4 1105.1 1100.3 1106.2 1109.5 1103.7 1078.8 1055.6 1031.9 1027.2 1008.3 966.7 918.2 899.2 890.5 862.5 820.8 800.1 756.4 694.7 626.9 605.6 574.9 539.6 514.6 491.3 457.7 427.5 396.3 369.3
270.1 251.9 244.8 247.9 249.0 240.7 227.8 217.7 230.4 246.3 250.6 248.4 253.6 263.4 278.5 313.7 365.5 355.2 303.5 320.0 319.6 332.1 333.8 366.4 369.7 400.6 388.6 364.5 368.4 396.2 432.4 450.8 465.6 464.9 418.7 379.5 353.0 382.4 365.0 373.7 362.4 357.4 421.7 500.4 628.0 706.6 713.3 641.5 448.5 329.4 373.1 424.8 424.5 486.9 549.7 644.3 643.2 460.9 427.0 567.8 739.3 820.8 841.2 833.0 859.5 868.9 956.8 1120.8 1077.0 1012.0 1044.5 1098.7 1112.8 1071.0 1047.2 1068.1 1157.9 1290.8 1349.7 1253.7 1262.7 1266.5 1165.1 1115.8 1080.5 1124.0 1170.9 1180.2 1110.6 1034.8 972.0 937.9 936.9 988.3 1077.8 1262.8 1322.1 1181.4 1028.5 945.1 893.9 842.0 780.6 747.0 722.0 766.4 828.8 912.4 953.3 994.8 930.1 840.9 928.2 1003.3 1014.8 918.2 830.5 744.2 671.3 641.2 654.7 641.4 656.7 614.8 536.3 484.6 448.4 403.6 408.2 424.9 364.5 356.6 425.2 482.1 495.7 517.5 569.5 644.6 722.2 747.6 717.0 697.3 627.1 541.6 499.2 558.8 597.9 534.1 494.1 468.2 471.0 505.1 542.9 554.5 597.6 655.9 648.2 625.6 662.5 674.2 689.9 728.3 745.0 724.3 741.8 730.9 759.2 732.8 677.2 653.5 620.8 556.1 480.7 412.3 422.4 473.3 480.9 456.2 448.6 433.6 445.1 460.0 480.4 467.4 474.8 462.6 521.2 519.0 551.0 623.9 679.2 706.3 724.1 724.2 761.7 786.6 841.1 911.7 931.0 932.2 906.0 856.4 861.6 828.4 784.8 780.6 734.9 712.3 685.5 698.3 692.5 654.2 596.4 548.2 533.0 484.5 425.7 494.8 588.3 559.5 547.0 625.1 662.9 664.6 598.0 502.2 413.4 472.9 511.9 513.4 598.0 609.7 587.5 528.3 510.4 565.7 613.5 587.1 545.5 576.1 656.1 713.8 694.8 634.1 610.5 621.2 674.8 729.1 758.3 720.0 712.6 707.9 717.2 733.0 832.2 858.3 808.1 735.9 686.5 628.3 552.4 513.1 593.5 608.1 587.3 535.5 527.0 530.0 528.3 491.9 482.6 515.1 586.8 670.7 705.2 729.8 728.7 754.3 789.6 813.9 791.1 763.4 731.5 715.0 714.5 697.1 696.1 691.8 721.1 703.4 684.6 615.6 577.7 590.4 596.5 573.8 620.9 565.9 536.0 531.2 541.6 555.4 518.9 479.6 488.1 450.5 454.0 450.6 455.0 477.5 451.6 471.7 492.6 450.9 434.1 450.1 463.4 459.9 483.0 521.6 550.5 578.1 563.9 574.5 604.7 597.3 603.1 617.0 606.1 556.2 531.4 489.3 472.4 504.0 450.8 380.2 362.3 366.6 373.3 372.7 372.2 372.7 368.2 308.8 289.0 276.6 264.6 251.2 246.9 276.5 281.1 279.0 236.1 233.0 248.5 257.0 288.5 319.5 358.0 404.0 433.6 448.4 545.2 568.1 566.3 573.0 585.5 599.7 623.4 633.4 656.0 669.1 686.5 727.9 754.2 770.0 805.5 850.1 881.0 906.7 931.8 951.9 957.6 979.7 1005.5 1007.1 1022.7 1032.9 1055.7 1054.9 1075.6 1086.5 1073.7 1068.9 1064.5 1056.1 1047.1 1030.3 1025.9 1009.1 1011.1 992.0 968.0 903.5 871.0 855.3 841.4 813.9 822.4 742.6 660.0 593.4 588.4 553.6 524.3 502.7 480.2 453.9 422.6 396.3 369.7
338.3 285.1 255.0 233.0 222.4 227.5 211.3 205.9 233.2 259.4 231.0 232.1 252.0 254.9 271.2 295.5 292.3 275.5 286.8 293.5 310.1 331.5 326.7 329.4 332.3 347.5 356.0 381.2 388.7 400.5 474.8 525.3 476.3 429.5 394.6 363.7 334.0 364.7 350.2 340.7 338.7 348.9 419.8 482.7 573.3 595.9 551.3 432.0 345.6 434.8 447.9 348.3 353.1 433.9 474.1 422.7 397.5 389.7 501.1 648.3 731.9 826.7 884.7 929.5 1042.1 1139.9 1166.2 1122.3 1042.9 941.7 1049.9 1204.7 1143.0 1033.6 941.1 966.1 1094.6 1256.4 1354.3 1312.4 1207.9 1135.2 1080.2 1040.9 1001.9 1047.0 987.1 978.0 963.0 984.7 1007.5 971.6 950.7 991.4 1073.1 1244.3 1261.4 1135.3 1032.0 967.5 928.9 895.8 873.9 822.1 758.1 766.8 858.7 923.8 936.9 949.2 900.2 883.3 950.5 1004.7 1011.2 938.1 852.4 769.8 745.4 745.7 728.9 701.4 649.4 579.4 511.2 465.0 440.6 423.2 469.4 471.3 404.7 346.6 382.2 463.5 520.3 520.1 558.0 639.7 629.8 619.5 613.7 616.0 598.0 537.7 470.0 497.3 538.4 533.9 490.0 467.8 458.0 484.6 527.2 563.5 633.0 701.8 721.9 703.3 715.8 745.0 750.2 787.1 810.3 799.0 845.8 825.0 812.3 744.3 692.7 654.0 615.7 551.7 478.2 415.8 406.1 448.6 459.8 457.0 429.8 429.9 461.7 450.0 452.6 442.2 447.2 476.8 523.2 573.8 591.8 620.2 672.1 757.0 793.4 819.4 850.9 859.3 881.8 866.1 828.6 842.2 822.4 782.8 809.8 849.2 802.2 730.9 713.9 734.5 727.3 729.3 672.5 614.0 592.1 570.4 535.3 469.6 425.9 437.4 496.6 503.1 555.0 598.0 669.1 680.3 564.0 471.7 408.3 432.4 438.8 454.6 506.4 504.7 517.8 475.7 521.7 563.8 616.7 583.7 520.1 578.7 631.5 630.0 601.9 562.5 612.2 670.2 711.3 677.6 658.2 644.3 646.3 670.1 704.1 756.5 760.3 742.2 724.4 659.0 586.6 582.3 533.4 484.6 526.1 558.0 563.5 538.0 533.8 524.6 472.8 471.1 511.3 602.9 657.1 686.6 698.9 725.5 736.1 739.6 791.9 804.5 778.6 749.7 757.6 795.6 773.2 724.3 667.6 634.6 640.0 601.8 582.9 582.7 583.4 587.8 576.8 530.0 501.2 505.5 496.6 494.6 539.3 524.7 510.8 472.0 473.3 443.4 402.0 406.6 421.5 418.7 453.4 516.8 531.0 480.4 487.7 513.9 558.6 529.2 521.4 543.4 525.4 501.1 484.6 497.8 518.5 554.2 550.3 505.7 543.2 519.0 472.6 481.0 527.8 517.6 447.1 409.1 397.9 414.4 403.1 415.5 444.5 442.0 409.6 356.3 336.1 343.3 322.5 289.0 240.1 273.8 275.0 265.4 246.3 223.3 214.3 207.5 223.1 256.8 277.5 300.1 338.8 395.8 490.4 523.1 520.2 503.7 548.3 565.0 574.6 597.4 617.8 622.9 644.2 685.8 717.9 738.1 793.4 831.0 852.1 866.3 892.7 903.5 896.8 926.9 959.0 963.8 980.4 995.6 1011.8 1030.8 1052.0 1053.0 1033.6 1032.8 1021.1 1002.1 1004.1 1007.2 1002.3 986.2 984.5 951.7 902.1 856.9 841.8 808.3 789.9 770.4 741.5 683.9 622.5 574.1 549.7 535.9 509.5 493.8 471.8 452.6 419.9 389.9 366.0
393.9 362.4 288.3 253.6 229.8 203.1 196.0 200.3 232.8 226.5 209.5 219.5 224.8 231.5 247.3 275.6 326.5 358.7 381.1 367.7 407.0 480.7 466.3 464.9 425.8 400.2 428.6 405.8 439.3 444.8 434.5 523.5 572.4 524.7 452.1 386.7 357.3 322.2 323.2 317.6 319.5 314.3 372.7 431.3 463.4 437.0 342.5 285.2 413.7 447.6 554.5 459.7 455.1 438.3 414.8 452.0 555.2 598.8 655.9 765.2 832.2 880.6 980.6 1084.5 1182.4 1219.9 1102.7 941.8 874.8 850.3 950.8 1131.9 1147.4 1099.8 928.0 857.9 1000.8 1174.6 1199.8 1124.6 1128.0 1096.6 1035.4 944.3 851.2 845.6 834.1 804.8 803.4 803.9 831.5 911.2 968.0 989.3 1084.9 1187.5 1148.0 1097.0 1045.0 986.3 965.2 964.7 906.8 830.6 769.8 777.8 828.4 878.0 908.9 918.9 937.9 941.0 966.4 1007.9 1017.6 1036.6 959.0 871.0 895.3 852.1 781.8 686.2 617.6 563.6 541.7 522.7 488.4 484.3 534.6 527.4 446.9 364.2 351.1 435.9 507.4 477.4 485.0 545.1 510.1 531.6 536.9 504.3 518.9 543.3 490.8 456.0 469.8 469.4 465.9 463.1 452.7 470.6 522.5 579.8 572.1 616.3 666.7 741.9 755.3 784.1 813.5 851.8 848.9 829.4 838.0 830.2 780.3 700.0 627.0 573.1 539.7 518.3 457.8 407.9 397.9 424.1 424.6 431.3 411.8 418.4 423.1 432.2 440.4 441.8 452.5 470.7 539.5 592.0 654.0 674.6 712.0 745.4 836.8 900.5 923.5 863.3 817.9 785.4 749.1 753.7 738.9 735.3 766.6 761.8 728.8 693.9 661.2 719.6 720.9 676.8 706.9 687.1 641.9 589.9 571.1 558.7 436.5 423.1 463.5 541.9 636.0 692.9 714.7 640.6 532.0 434.6 404.2 456.9 512.2 516.0 489.2 468.0 477.7 524.9 536.7 581.8 573.1 532.5 498.4 526.2 546.4 538.6 533.0 594.5 692.7 698.2 666.8 633.1 609.3 640.3 699.2 736.4 739.0 721.7 679.3 661.3 629.6 610.1 547.2 511.8 493.9 478.1 539.0 594.2 554.7 519.7 484.2 479.7 446.6 461.6 515.7 614.6 683.1 717.0 713.1 741.7 787.6 740.9 736.7 751.5 801.1 800.2 815.8 830.3 787.8 747.6 639.2 652.3 574.0 558.5 519.9 550.9 619.3 687.1 688.0 627.8 521.6 469.6 474.7 473.0 488.8 479.7 470.1 458.4 440.8 462.6 410.7 381.3 410.0 387.4 406.3 465.9 509.2 457.3 452.4 469.3 540.3 564.9 522.5 468.4 448.8 430.4 445.4 502.2 521.3 602.9 595.4 474.5 480.9 478.6 446.0 455.0 540.4 583.0 526.7 452.2 429.6 431.6 451.2 493.6 489.0 529.6 468.9 428.0 395.2 385.4 331.5 279.1 241.1 240.6 249.3 245.0 244.1 235.1 244.7 240.3 200.0 201.8 215.4 254.5 289.3 333.0 388.7 413.7 429.6 436.0 489.3 530.5 547.8 565.3 580.6 588.8 625.8 662.7 674.3 695.1 721.4 775.2 819.8 823.2 829.6 843.1 842.7 883.0 900.2 911.6 945.1 958.9 970.4 1002.0 1012.3 1007.3 1002.3 996.4 996.8 979.6 970.2 979.9 967.8 934.7 904.9 881.8 854.1 825.3 799.1 775.0 752.6 711.8 693.3 661.6 620.6 561.0 525.9 499.0 486.1 469.5 454.1 433.7 404.7 380.6 366.1
393.7 404.3 359.8 315.5 269.8 241.2 200.4 187.4 194.9 190.8 201.7 218.7 242.7 267.0 305.5 358.5 413.3 466.5 491.0 494.2 556.2 613.5 603.7 637.9 601.4 522.9 462.5 465.2 528.4 533.5 497.0 451.3 547.9 597.2 558.9 479.7 406.3 357.7 318.6 297.9 298.8 288.1 315.6 344.1 377.8 336.3 274.3 274.1 408.4 508.9 581.9 612.6 649.9 727.5 673.0 603.9 693.4 784.6 782.7 881.4 912.3 939.9 1083.6 1155.7 1156.3 1076.3 910.4 830.7 765.4 769.3 944.9 1033.4 1015.5 890.4 867.7 792.9 867.1 968.8 1004.5 947.4 975.1 949.8 910.4 813.9 705.8 708.4 743.9 733.2 714.0 733.7 723.6 779.1 826.1 918.7 1047.1 1084.9 1049.0 996.5 974.1 940.6 907.5 890.3 854.4 802.7 771.1 828.3 856.7 897.4 898.8 925.6 958.9 992.0 1024.9 1044.7 1089.3 1096.0 1071.4 1086.0 1061.3 929.5 823.2 744.9 667.3 655.2 616.5 568.0 529.5 551.2 617.9 532.5 456.0 382.0 335.0 383.8 436.7 416.5 419.0 435.3 432.7 463.0 462.3 444.5 436.3 461.4 471.3 435.7 433.8 433.0 438.8 453.7 464.7 467.3 487.4 524.7 517.8 543.6 595.6 685.6 771.8 802.9 845.5 817.5 758.0 732.1 739.8 765.8 730.5 699.1 649.4 598.0 512.4 458.1 427.1 399.0 390.5 398.1 399.6 413.8 455.8 473.2 471.7 505.3 507.1 471.9 510.7 480.6 503.9 563.6 654.4 725.8 771.9 821.4 908.6 933.9 876.8 821.2 759.1 729.6 682.9 676.4 697.4 727.1 726.6 676.7 652.6 633.9 619.2 611.0 636.5 663.9 696.2 696.0 662.6 633.5 604.7 531.3 435.4 413.2 489.7 563.9 651.4 724.2 653.3 561.3 463.4 403.2 464.8 553.1 596.6 582.2 562.3 561.4 584.1 570.4 493.9 480.5 489.4 494.5 502.3 515.8 525.7 538.9 553.6 552.4 607.4 596.3 579.7 574.3 591.3 640.5 697.4 737.1 660.8 616.9 602.6 649.6 581.6 554.7 522.7 521.4 485.6 467.1 519.5 569.2 583.7 519.5 488.7 440.9 439.1 484.0 504.1 567.4 693.2 735.9 723.7 716.7 762.9 769.4 700.7 676.8 758.8 829.2 839.4 767.2 658.9 567.0 542.3 582.0 544.0 500.7 474.4 501.8 560.3 645.1 690.8 624.5 531.5 473.7 449.7 459.7 453.3 450.2 460.0 441.7 425.4 463.3 418.5 379.2 365.1 366.5 384.7 423.8 455.7 422.7 418.9 435.7 500.8 556.4 556.1 436.5 415.1 423.1 414.2 472.4 487.9 490.1 495.7 436.6 439.9 421.7 411.9 431.5 529.2 574.1 504.0 496.1 480.5 464.1 497.3 537.4 532.4 610.3 591.7 526.1 483.2 449.3 370.1 311.0 288.0 301.6 289.9 280.5 271.5 264.1 261.0 259.3 224.3 201.6 188.7 238.9 264.0 278.1 299.2 326.3 358.2 392.7 439.0 472.4 500.0 536.3 542.6 552.5 587.0 619.8 627.7 656.2 685.9 736.7 763.0 778.6 789.0 788.4 796.2 812.6 817.8 857.9 888.8 910.5 928.8 959.0 968.5 966.0 963.3 969.2 966.8 969.2 932.1 908.0 909.0 897.7 913.5 854.0 833.6 807.9 770.0 746.1 730.5 687.8 653.0 615.0 590.6 544.0 504.4 471.9 445.2 435.3 432.9 418.7 400.5 387.7 368.2
373.3 382.6 403.8 392.3 345.6 323.6 260.5 149.8 202.9 225.8 248.3 291.6 319.5 350.5 387.2 443.3 527.3 593.9 645.8 629.5 721.3 746.2 755.4 778.1 690.3 569.7 530.7 587.6 673.8 616.1 535.3 481.1 483.3 569.7 686.7 655.3 532.3 410.5 350.9 307.2 286.4 277.9 283.0 293.5 308.1 288.0 247.3 286.5 362.5 463.7 622.1 705.0 748.9 798.7 845.4 763.2 827.7 890.2 899.6 971.0 1060.6 1090.9 1030.0 928.7 905.7 847.9 791.9 741.0 712.0 685.7 835.5 862.4 866.8 842.7 737.0 689.2 743.2 773.1 778.1 720.7 722.4 715.0 706.3 679.0 614.6 640.4 672.5 658.7 635.3 664.2 683.3 727.3 791.4 918.2 1016.3 1011.1 964.5 926.5 898.4 878.7 856.1 833.9 829.8 816.7 794.6 833.8 854.1 886.1 914.7 955.9 979.3 1019.3 1079.8 1122.2 1154.2 1246.8 1322.8 1244.6 1091.3 916.5 840.1 774.8 744.0 718.3 674.0 612.4 564.8 548.0 575.6 515.6 444.6 377.6 327.4 342.3 352.8 350.2 362.0 379.5 389.7 392.2 395.4 398.1 401.0 407.4 415.8 419.7 434.8 456.0 478.2 513.7 532.3 528.0 527.9 514.9 547.7 599.2 604.1 629.5 703.4 795.6 819.8 759.3 708.2 666.1 648.3 675.1 684.2 633.5 604.9 589.5 534.3 475.9 429.9 392.7 386.1 415.8 439.5 470.9 530.8 563.6 545.9 573.4 543.9 522.7 527.2 532.4 535.2 610.2 697.3 756.0 823.4 882.4 941.4 914.8 854.7 793.6 720.3 650.5 619.0 671.6 720.6 729.2 742.1 687.0 693.6 693.1 699.6 646.6 585.0 633.0 704.2 668.5 631.5 612.6 599.3 563.5 505.6 430.5 416.2 525.9 583.1 610.2 559.1 492.0 412.0 426.1 502.2 580.4 629.2 635.7 647.9 628.8 606.5 556.6 480.9 525.5 558.9 600.2 585.3 620.0 637.2 637.7 637.7 598.4 558.9 570.7 572.3 627.1 623.8 622.2 641.5 668.6 615.6 563.2 569.9 582.9 552.5 505.1 498.5 482.7 470.2 451.7 512.5 545.3 537.3 537.4 481.3 432.8 435.0 502.0 551.9 572.3 597.0 646.1 656.1 685.7 701.8 726.6 831.7 783.4 629.0 663.7 669.8 594.0 546.6 521.0 502.9 511.5 517.4 514.9 475.0 458.3 497.6 559.8 569.7 570.7 504.4 477.3 443.6 443.8 435.9 437.5 440.3 431.1 409.4 445.2 422.1 379.6 363.3 345.4 362.4 408.3 404.3 384.4 453.8 467.4 511.8 507.9 490.5 439.6 409.6 409.1 411.6 496.1 519.2 433.1 424.2 405.8 403.3 389.6 383.0 430.6 471.5 475.4 450.6 478.6 545.1 535.8 554.8 610.0 607.8 665.7 670.4 622.6 607.4 570.2 446.6 378.2 345.6 322.0 305.2 292.7 277.7 253.1 239.4 253.1 221.6 200.9 183.6 231.4 248.1 260.3 286.6 323.6 350.4 379.7 410.0 438.1 466.7 492.4 515.5 539.4 562.5 584.4 593.4 617.3 641.8 675.7 694.4 724.5 736.0 735.4 731.7 749.0 786.4 811.6 848.1 867.5 891.9 908.7 911.1 914.1 913.4 926.5 927.1 926.2 914.9 875.6 843.4 837.1 835.4 808.1 784.1 777.1 754.9 729.6 699.9 661.3 631.5 604.1 571.7 524.1 477.3 448.1 421.4 410.0 410.7 410.9 403.6 390.2 365.2
349.4 368.0 377.0 407.2 416.9 368.4 279.0 183.7 296.2 305.9 298.3 316.8 376.5 444.4 498.5 537.2 608.2 667.0 700.8 710.8 782.2 829.8 830.4 745.9 704.2 755.6 716.0 769.0 800.2 807.9 646.1 543.8 490.1 538.7 631.1 753.6 689.5 574.3 482.9 388.6 344.1 296.7 261.6 266.3 280.0 250.0 256.7 299.9 351.2 420.0 524.9 622.0 681.8 742.7 822.2 848.2 862.1 894.8 991.4 1109.2 1119.7 1017.3 897.8 805.5 765.1 714.2 687.1 659.8 611.9 631.0 701.2 744.3 735.4 704.2 694.1 644.3 630.6 645.0 691.1 637.5 608.6 632.9 620.2 600.1 544.6 604.4 584.8 567.8 569.5 606.5 645.4 700.9 765.0 864.9 980.2 1072.5 1101.7 1063.9 1011.9 939.8 915.4 909.7 910.7 910.3 864.4 851.5 900.1 942.9 949.6 978.7 1011.4 1063.3 1181.1 1325.0 1297.8 1424.4 1432.9 1295.9 1087.8 950.7 856.2 749.5 698.9 681.4 659.1 593.6 551.5 517.0 480.6 450.9 401.1 342.1 346.4 431.7 428.0 391.5 375.5 372.6 394.0 419.4 414.1 415.1 434.9 436.0 471.5 479.7 503.5 514.7 501.3 567.2 620.0 639.6 631.5 612.0 591.4 669.7 720.3 722.0 719.1 762.3 803.3 775.8 727.9 655.4 561.8 580.8 623.9 569.6 535.4 528.6 500.5 449.7 403.1 382.2 400.7 435.2 500.6 542.4 590.4 625.5 629.9 646.1 617.7 590.9 571.1 607.6 627.3 664.8 706.3 788.4 865.5 923.7 908.3 869.8 821.4 766.5 712.0 628.3 611.4 694.2 782.8 815.8 813.1 788.3 794.5 782.2 734.8 663.3 595.2 576.4 658.1 672.8 636.8 601.4 605.2 603.8 580.9 488.8 397.7 465.4 509.6 468.8 442.9 409.8 432.1 509.8 490.9 562.7 608.4 606.4 666.1 605.3 539.2 484.8 484.7 572.5 652.1 696.7 689.9 715.7 728.1 719.8 714.1 654.7 637.7 614.5 583.8 628.9 674.2 662.6 677.6 686.5 640.3 590.0 539.2 509.2 507.9 487.6 487.2 501.6 461.3 433.6 483.6 508.6 479.2 511.1 508.6 442.5 418.4 473.0 540.2 601.6 657.6 698.1 744.4 740.9 742.6 757.3 817.2 738.7 581.5 574.3 596.0 586.8 571.5 524.7 478.6 497.6 525.8 534.1 528.5 445.7 474.0 525.1 514.6 502.2 478.1 452.3 440.4 432.6 415.6 440.4 459.0 461.1 440.9 403.2 419.5 399.7 374.0 353.9 332.5 361.0 353.0 397.1 426.5 489.7 468.3 420.1 415.6 391.2 390.5 363.6 421.5 470.6 431.1 374.0 370.4 394.1 371.0 367.4 369.9 445.4 461.2 425.6 438.9 495.9 569.8 644.5 664.4 662.1 679.5 714.2 657.7 596.8 582.5 532.6 439.2 394.0 378.2 339.3 323.4 307.8 278.1 236.5 229.2 209.2 194.1 186.5 177.5 223.7 243.8 255.4 281.0 320.7 341.8 362.1 381.6 404.9 421.4 446.1 492.2 528.6 538.3 541.4 561.1 577.8 584.7 598.0 625.5 656.1 675.5 681.0 699.6 734.3 756.4 782.1 800.8 824.7 849.0 853.0 854.0 860.0 863.5 858.4 872.0 891.0 891.3 844.2 808.1 794.8 779.8 772.3 758.3 740.4 721.7 690.1 678.3 662.0 646.0 612.6 564.5 532.0 500.1 466.8 434.4 405.0 392.4 387.5 382.9 371.9 348.7
330.5 333.9 348.6 357.1 357.5 213.5 215.3 339.0 356.5 414.3 421.5 404.4 426.6 460.9 509.0 543.2 570.3 614.6 617.3 646.0 695.0 789.6 839.1 818.9 871.8 890.1 857.2 884.3 902.6 905.8 778.2 602.8 543.6 550.8 590.2 657.3 703.5 684.9 579.4 462.7 404.5 319.1 259.0 260.8 244.1 234.9 266.2 299.3 331.3 382.1 432.2 494.7 589.5 646.1 658.7 699.8 742.9 867.7 957.5 1047.5 1030.0 958.4 909.9 824.8 709.7 682.3 614.9 586.8 556.4 602.1 638.7 660.4 656.1 637.2 594.6 601.9 570.4 566.0 614.0 582.9 536.2 555.0 549.6 529.4 496.2 543.5 515.1 520.1 584.7 647.7 719.3 760.7 805.6 827.6 884.5 975.7 1027.0 1094.2 1136.8 1120.9 1075.4 1057.3 1036.9 994.1 942.6 963.6 938.6 976.8 1007.1 1051.9 1109.3 1210.6 1275.0 1302.5 1306.7 1491.3 1496.4 1302.3 1080.3 947.2 811.7 688.6 625.3 575.9 542.0 492.9 468.9 456.0 424.5 380.1 343.1 317.9 359.3 400.2 431.0 459.5 440.3 435.3 474.6 480.6 459.5 450.9 448.2 474.6 480.7 537.0 588.1 608.4 561.6 606.8 723.1 719.0 652.3 671.6 673.0 718.5 798.3 816.0 802.1 799.2 799.7 757.3 702.8 649.9 563.1 489.8 503.0 510.5 437.0 472.7 428.5 383.2 377.7 389.7 419.6 485.9 540.2 608.5 650.2 684.7 709.7 719.8 696.4 645.9 637.4 656.3 700.2 753.8 790.5 850.6 921.2 910.9 898.4 887.3 808.0 743.9 670.0 604.4 605.2 683.5 768.8 811.9 802.2 741.6 749.1 715.3 716.9 654.6 603.3 554.1 529.3 571.3 580.3 578.0 583.7 572.8 515.1 433.3 389.7 435.6 442.3 389.4 406.4 454.2 505.2 573.8 539.7 569.7 595.3 655.1 671.5 617.7 579.9 509.1 465.4 554.4 649.2 691.0 686.1 696.0 711.2 729.8 723.3 668.6 629.9 629.0 616.2 634.6 692.4 681.8 697.8 676.4 630.9 587.3 554.3 532.5 484.0 464.2 449.0 458.2 466.9 429.0 430.9 467.4 452.8 485.6 493.8 470.6 409.2 451.9 494.8 574.6 664.5 705.2 715.9 753.8 739.0 727.2 666.6 545.5 519.7 612.6 627.5 616.8 536.4 460.6 507.8 581.5 599.8 599.6 569.5 451.5 460.1 506.2 500.5 473.6 452.4 446.5 453.2 430.1 407.3 426.5 462.8 440.4 451.5 392.0 402.0 410.7 365.6 342.7 319.0 332.0 356.7 397.7 397.6 426.6 403.5 368.0 373.9 378.3 348.3 328.3 358.0 364.5 355.5 335.0 350.1 351.8 359.3 335.7 359.2 427.1 434.6 411.7 486.6 595.9 641.0 571.9 564.1 632.3 627.4 679.1 658.0 629.2 523.3 471.8 433.4 411.1 383.0 356.7 333.7 316.9 271.9 245.0 241.9 205.1 186.9 176.5 184.5 235.0 242.2 249.9 265.1 300.7 324.9 356.4 364.8 391.0 397.4 405.4 454.5 500.3 511.7 511.9 533.0 534.0 539.4 569.5 587.7 605.2 624.1 655.7 678.8 702.5 730.6 739.3 758.2 791.2 800.2 809.5 815.0 811.9 812.4 794.7 800.0 868.8 869.1 805.9 781.1 768.6 740.0 738.9 723.0 698.3 673.6 659.8 644.4 645.5 642.4 613.7 562.4 539.2 516.5 464.8 435.6 415.7 389.8 372.5 355.3 344.9 327.6
254.2 233.1 217.8 212.9 159.5 275.0 398.5 408.2 431.9 452.1 465.4 448.4 473.5 442.5 439.4 453.3 500.9 528.5 587.9 642.4 696.7 737.2 812.0 886.8 904.7 917.7 939.5 957.6 944.7 876.5 780.2 716.7 670.7 657.8 623.7 589.0 610.6 717.1 728.7 587.7 479.5 364.5 256.1 253.4 227.2 230.2 259.5 283.2 304.2 341.1 394.8 430.5 487.5 520.3 535.1 591.6 674.2 757.1 864.1 876.7 947.9 934.4 878.2 805.5 721.6 600.1 576.3 515.5 504.3 552.4 551.0 571.0 571.3 548.5 553.3 508.7 512.4 497.7 534.8 503.1 483.6 485.5 480.4 458.8 443.1 468.0 475.9 508.2 578.4 664.0 756.2 828.9 922.1 959.4 1013.7 1031.6 1028.4 1030.7 1024.0 1038.4 1027.1 1037.5 1018.9 968.8 973.3 1030.4 1070.6 1137.7 1137.6 1062.5 1116.0 1113.2 1111.7 1141.6 1184.2 1400.1 1425.5 1252.6 1048.8 923.9 832.5 758.2 675.3 600.3 551.2 491.0 434.5 387.0 362.4 344.3 327.3 313.9 382.1 480.4 462.5 456.4 479.3 499.3 537.5 548.3 508.5 513.1 487.6 498.4 545.8 555.8 673.7 715.4 667.7 653.4 689.1 672.4 646.5 632.2 682.5 724.5 748.7 764.9 804.8 827.9 780.9 727.2 681.7 607.2 536.3 496.2 445.0 450.1 410.6 403.6 370.5 393.5 434.7 442.6 443.5 484.2 530.4 618.1 687.9 736.9 790.3 810.7 755.0 710.3 723.4 741.5 766.5 798.5 851.9 923.3 933.0 917.0 917.9 877.2 824.6 759.3 709.5 633.4 576.5 639.8 719.4 719.8 703.3 663.0 689.8 636.5 670.3 689.7 639.5 577.8 513.5 476.7 476.4 496.8 501.9 444.8 422.4 409.7 389.1 401.3 385.7 423.4 435.0 491.2 536.2 545.4 568.5 619.2 670.5 732.0 719.9 684.8 648.7 556.2 466.8 502.0 573.5 640.7 665.2 627.1 629.1 673.3 702.9 662.7 660.9 691.2 664.5 677.1 663.6 634.7 628.6 617.3 594.7 546.0 502.1 488.4 487.8 487.2 475.2 446.1 422.6 422.0 412.0 451.6 436.5 436.3 434.6 447.4 420.9 401.5 466.4 511.3 557.8 626.9 611.6 634.7 673.8 657.3 587.2 459.4 520.3 570.1 549.8 567.5 513.6 437.3 498.9 561.3 578.3 550.4 486.3 412.0 450.7 503.5 504.2 476.1 486.6 498.6 525.6 489.7 428.9 397.9 388.6 401.8 409.7 367.1 394.8 365.8 345.4 344.7 308.6 311.9 344.3 335.8 374.0 388.5 356.2 343.1 338.4 354.7 339.6 308.4 326.8 333.1 329.2 316.0 324.6 326.3 337.0 320.8 393.0 465.5 391.2 421.9 515.4 560.8 577.4 520.9 553.9 649.5 574.1 623.8 558.1 633.0 563.5 489.1 433.6 393.4 378.9 346.6 324.4 301.1 246.7 230.5 234.6 215.1 193.6 175.3 161.0 194.4 235.3 242.0 249.4 258.3 284.1 308.7 324.1 355.1 352.4 357.3 405.2 455.4 475.8 479.3 494.2 499.8 521.5 540.4 551.6 563.6 590.8 619.1 654.2 681.0 695.8 700.9 728.2 740.2 750.5 765.9 771.9 762.9 767.0 753.1 748.8 772.3 786.6 769.9 750.5 740.4 718.8 695.8 684.3 673.0 649.4 647.0 615.6 619.3 616.8 611.7 560.7 498.7 468.7 451.1 438.5 421.0 400.7 388.9 362.4 343.2 321.2
192.0 174.5 146.4 126.9 192.3 277.3 326.3 340.7 395.8 482.1 504.2 458.9 400.9 425.5 479.3 521.4 572.0 592.6 626.3 697.5 739.3 789.3 865.5 903.6 928.5 889.9 880.2 926.8 973.7 928.7 868.2 834.8 777.7 707.6 634.2 619.1 533.7 602.9 741.2 653.9 550.5 416.5 285.4 234.1 220.0 247.0 308.8 300.2 303.5 341.1 359.1 365.7 434.0 464.3 491.6 574.9 550.4 605.8 675.6 785.7 909.9 969.3 896.0 843.5 782.5 593.5 511.9 493.7 454.0 483.3 520.1 536.2 520.1 478.3 490.1 451.4 432.8 445.0 463.8 433.0 432.5 421.6 409.2 441.4 500.4 539.9 534.7 562.4 568.3 615.4 712.3 854.0 959.3 1059.3 1118.5 1153.6 1150.7 1130.6 1087.8 1042.5 1007.9 998.6 999.2 1008.2 1011.7 1133.8 1217.7 1142.4 1061.2 952.4 927.6 908.9 941.1 979.3 1062.6 1264.3 1230.6 1154.3 998.4 873.1 773.7 724.0 675.6 649.9 602.1 523.3 436.3 388.0 412.3 403.6 340.2 309.0 377.4 458.0 494.3 497.0 514.9 558.6 586.6 594.9 571.1 583.9 528.4 511.9 595.6 636.2 678.3 778.4 789.7 765.1 736.1 742.5 696.9 632.3 613.0 656.2 696.9 754.4 832.0 876.4 802.7 727.1 688.3 650.4 612.9 554.8 474.2 394.7 367.8 356.4 391.6 469.1 501.0 515.1 506.5 536.8 600.7 643.5 705.4 783.5 825.1 770.3 713.1 709.4 753.3 742.4 774.1 846.0 888.2 869.3 852.3 877.1 882.0 796.8 801.9 805.3 715.3 645.0 587.3 589.4 671.0 656.8 620.9 622.2 613.0 566.2 619.5 623.8 591.6 531.0 495.1 461.1 440.5 461.8 457.2 449.0 494.0 479.7 425.5 402.3 405.4 500.4 514.5 466.6 471.9 500.4 527.0 578.7 659.6 735.4 761.2 686.3 591.9 531.0 461.9 460.0 506.8 552.3 559.1 552.9 619.1 658.3 721.1 725.2 727.8 748.4 752.3 693.2 638.1 600.7 575.6 547.6 524.2 503.0 493.0 492.4 474.4 454.6 446.8 445.1 448.4 444.8 415.4 411.3 408.3 395.2 391.1 388.4 398.4 380.7 425.9 454.7 481.5 516.8 525.6 518.4 547.2 537.5 509.5 439.1 434.9 469.4 474.0 506.6 466.4 421.9 466.6 478.6 483.7 443.4 414.6 398.3 475.1 519.2 522.9 516.9 523.6 527.6 518.2 510.0 489.6 465.6 406.4 363.0 362.5 349.7 340.7 330.4 320.9 318.3 321.0 295.9 293.3 331.4 359.1 409.2 371.3 320.5 310.4 327.2 313.0 291.3 316.8 321.4 344.8 310.8 297.8 309.1 295.9 326.1 343.5 336.5 381.4 478.1 581.0 525.3 511.8 463.3 562.2 592.0 524.4 529.6 511.9 580.5 571.8 464.3 411.6 383.2 331.7 347.3 298.9 271.7 237.4 225.1 209.2 195.9 196.6 195.4 163.7 174.5 223.3 226.2 229.4 236.3 249.6 272.5 298.4 308.1 303.3 308.7 343.9 379.8 393.3 440.0 463.5 471.4 484.6 503.1 522.1 534.7 551.5 594.9 621.7 644.9 646.5 672.1 688.2 690.8 704.0 720.8 727.8 713.2 717.1 724.6 723.4 736.7 761.0 755.1 722.6 707.5 698.3 671.8 649.2 641.5 619.2 593.9 585.6 573.3 570.7 568.3 550.3 492.9 451.9 442.8 434.1 419.8 401.4 385.7 365.3 345.8 310.7
156.4 144.4 124.1 125.7 160.2 194.3 249.0 309.8 371.9 437.7 477.1 428.7 374.5 387.1 443.5 484.6 560.2 651.2 702.7 760.3 844.4 881.4 908.9 928.4 913.1 865.9 787.4 812.7 894.0 883.6 846.5 751.8 641.2 600.5 501.6 465.2 407.2 442.9 530.1 557.3 523.1 447.5 306.9 237.8 210.2 242.9 281.1 268.3 301.1 337.7 307.2 346.9 410.7 442.4 416.6 445.2 486.5 603.7 688.8 765.2 865.7 852.7 845.1 814.1 775.5 602.8 528.0 453.2 439.4 532.9 588.6 546.8 489.6 445.1 417.1 402.1 393.4 399.8 420.8 419.9 389.5 382.4 414.5 473.5 560.1 631.1 637.6 673.5 672.4 684.8 721.6 826.5 954.1 952.2 953.2 976.2 986.6 1006.4 1018.8 973.4 933.0 957.7 967.6 960.8 958.8 1115.8 1147.3 1120.2 1034.4 926.8 842.3 794.2 834.9 875.3 912.2 1013.3 1058.1 1031.7 929.5 797.8 701.4 637.1 582.7 543.0 503.3 451.9 436.8 471.3 492.5 445.0 363.3 304.2 331.1 375.6 420.0 483.2 548.9 594.0 641.6 651.5 647.6 661.3 592.0 574.5 629.7 703.7 771.5 811.0 850.1 835.3 792.2 747.5 690.2 637.4 580.9 613.1 654.0 705.5 773.5 826.8 770.3 712.5 666.9 636.8 590.8 517.4 442.0 387.1 355.1 362.5 394.9 442.1 484.5 519.2 574.3 602.7 648.2 683.5 748.6 811.4 765.1 718.4 669.1 634.1 650.8 691.0 764.7 805.4 764.2 744.7 755.5 768.2 758.4 716.3 734.5 759.5 740.6 672.1 609.7 553.2 591.3 602.8 544.9 543.2 521.3 513.0 542.4 536.0 534.0 481.8 472.0 471.8 511.6 586.0 533.2 533.3 556.9 502.9 499.5 439.8 381.9 431.9 469.3 514.8 558.5 577.9 603.2 637.8 638.4 683.2 695.9 638.0 577.5 541.5 510.1 462.0 450.8 476.9 497.3 530.3 589.7 692.0 755.0 762.6 768.0 774.8 779.5 745.1 682.3 649.9 601.6 560.2 541.8 548.2 554.8 568.4 523.6 503.4 467.4 457.3 445.3 440.1 434.2 406.9 395.6 395.5 397.7 399.4 377.1 367.3 382.3 399.7 421.6 440.6 442.5 452.6 472.4 453.5 471.9 424.6 401.7 413.5 438.5 464.3 458.2 426.6 405.4 416.8 418.9 388.5 369.5 381.5 413.8 426.9 442.1 453.9 486.9 516.1 536.2 534.2 488.2 425.1 402.6 380.1 411.2 435.3 380.2 363.4 345.5 359.8 370.2 327.9 278.8 302.7 330.1 361.2 345.6 301.7 292.5 308.4 297.7 282.4 306.6 305.9 321.5 311.9 287.1 290.8 281.9 316.5 304.9 334.7 423.9 503.8 497.8 467.2 424.1 426.0 462.6 554.3 482.8 462.8 490.9 535.3 541.8 477.2 391.5 337.8 311.6 303.5 312.6 277.3 266.6 233.4 216.1 207.5 179.8 162.8 158.8 156.6 198.6 205.6 205.2 213.0 228.0 253.8 282.0 276.8 263.2 261.7 280.8 325.3 355.2 405.0 430.0 432.8 452.1 472.9 492.3 508.2 533.4 559.8 586.5 607.1 605.8 630.1 645.0 652.9 664.2 681.4 685.1 667.6 681.7 690.0 702.3 702.8 697.3 693.4 687.7 673.1 662.4 651.8 628.5 615.9 598.1 574.2 557.4 549.1 542.3 511.2 496.7 468.3 444.2 432.6 427.7 412.2 392.6 371.2 359.8 342.3 279.1
126.1 120.9 118.3 153.0 199.2 246.9 278.3 296.0 318.7 340.9 358.3 311.7 352.8 386.0 426.0 488.3 582.2 680.5 754.6 808.6 847.5 871.9 887.4 895.5 845.3 801.8 745.7 716.8 770.8 735.8 680.8 583.8 508.6 473.4 440.2 393.9 361.9 353.0 347.8 360.8 394.7 380.4 263.8 247.4 212.4 224.8 236.0 266.0 299.4 286.4 270.4 291.1 331.0 348.1 367.2 422.6 501.9 568.5 639.5 729.8 817.9 773.0 721.0 749.0 666.3 537.5 494.9 440.6 420.1 499.8 581.0 551.0 503.0 484.6 449.2 405.5 367.9 393.7 429.4 426.1 383.4 374.0 415.4 470.1 536.1 563.6 607.7 674.6 741.8 774.0 806.1 839.3 859.2 815.2 782.8 757.5 764.8 735.8 792.6 835.0 891.7 885.6 867.5 878.2 857.0 912.6 1007.4 1022.4 994.6 916.2 804.3 714.4 715.4 765.8 793.9 818.8 876.9 919.9 864.7 779.8 720.1 672.8 629.1 562.6 495.1 493.7 572.6 595.4 508.5 421.0 358.1 300.4 365.0 456.7 473.6 478.4 530.6 612.8 700.8 756.9 795.1 749.4 670.4 669.9 662.3 739.9 808.6 877.2 892.7 863.6 790.5 730.4 660.9 616.7 559.6 580.5 621.4 672.7 722.2 767.6 731.0 692.2 649.1 600.1 537.4 485.0 441.2 381.0 352.3 404.8 448.7 477.6 523.1 564.9 614.2 659.3 707.2 758.5 822.0 796.5 723.7 676.4 626.7 579.7 573.3 600.8 640.6 668.4 631.4 659.2 665.6 671.5 673.4 636.4 633.0 669.2 671.9 621.5 607.0 616.2 572.5 569.0 586.2 591.9 574.8 567.6 522.9 504.9 495.2 536.9 553.4 554.9 613.6 636.1 599.6 576.0 558.0 534.8 484.1 399.2 371.8 386.8 489.3 578.2 643.2 674.2 691.6 665.0 598.7 588.4 577.1 556.2 519.4 568.0 521.1 490.5 437.4 468.3 494.6 516.9 566.0 625.5 699.6 767.0 783.5 788.8 801.3 787.2 744.5 669.3 602.5 593.8 589.3 610.7 630.6 600.8 556.3 509.8 445.9 461.9 460.5 438.3 422.6 425.0 412.8 440.7 474.7 464.3 459.9 405.4 374.1 363.0 365.8 381.3 394.6 416.8 432.7 420.9 440.1 427.7 374.9 384.9 425.2 482.2 492.2 461.6 422.0 391.6 380.2 394.8 395.8 351.0 382.3 369.5 377.7 387.9 422.6 420.4 436.3 456.4 484.1 454.1 431.4 404.2 405.3 435.6 387.8 365.4 371.0 393.9 409.7 350.6 275.9 319.3 304.2 312.5 294.0 277.3 280.8 285.6 271.6 276.8 298.4 325.0 351.0 330.7 301.2 274.8 260.6 290.8 278.4 308.4 352.7 426.4 486.7 462.0 446.9 380.3 411.1 464.6 433.5 399.0 427.7 437.3 451.1 455.8 383.2 334.5 317.2 290.5 267.7 248.8 271.8 267.6 234.4 211.6 183.2 163.0 149.0 148.9 171.5 179.9 185.1 195.1 206.5 216.9 243.8 230.6 233.4 247.0 257.8 286.4 327.9 392.9 398.0 403.8 425.6 453.4 474.1 496.7 492.0 516.3 548.8 559.8 580.3 594.4 604.4 620.0 635.9 648.2 653.9 636.7 655.9 658.4 674.3 676.1 659.4 646.8 640.2 636.4 631.5 627.7 613.8 593.6 582.6 573.3 548.0 528.5 512.9 476.8 454.3 441.0 430.5 430.5 425.0 411.0 390.6 368.3 360.8 343.4 278.1
108.9 114.4 132.6 147.7 176.2 206.5 255.3 283.8 297.8 305.6 263.1 271.2 300.5 347.9 413.5 490.8 548.6 619.4 676.5 726.0 777.9 807.8 822.8 821.6 793.8 774.9 722.0 642.0 610.3 553.2 503.5 483.6 466.9 474.0 439.6 442.9 431.2 401.7 375.3 347.3 320.5 297.2 305.7 308.5 260.0 209.4 204.6 262.8 236.8 247.2 264.6 285.0 318.2 354.8 389.5 442.0 495.1 571.1 649.7 687.4 684.8 652.2 561.2 599.4 493.1 445.7 419.2 394.4 412.0 483.0 564.0 601.1 563.2 527.9 490.0 426.3 360.4 366.3 376.1 370.8 356.8 383.8 415.6 468.3 517.0 594.9 647.6 686.5 780.0 867.7 896.3 851.5 815.7 768.8 679.7 609.1 582.3 592.8 607.3 646.6 700.8 710.2 762.3 802.2 866.3 845.9 810.6 754.2 802.6 806.6 716.6 654.1 625.0 659.6 687.0 712.3 770.6 859.1 880.1 846.5 817.4 757.5 697.4 574.8 526.2 542.2 530.2 535.6 498.7 428.2 351.9 294.2 349.8 438.5 526.0 565.3 560.6 632.6 728.5 807.5 869.9 814.3 784.6 767.5 746.0 793.9 850.3 904.3 859.3 835.1 787.4 716.8 652.2 607.6 551.3 535.3 580.5 646.2 680.4 700.3 695.3 661.2 615.9 581.0 523.1 456.1 410.6 362.7 367.0 452.4 515.5 565.2 610.1 639.0 670.8 737.4 780.6 822.7 825.3 758.9 725.4 696.3 655.2 599.2 508.3 513.0 542.4 558.8 548.5 568.8 588.2 591.5 585.5 576.5 574.4 676.4 706.5 706.1 677.9 649.7 649.7 640.0 660.3 675.5 658.8 653.5 593.5 571.4 566.1 604.0 627.4 659.2 684.8 651.1 591.6 511.5 459.6 451.3 434.3 408.5 370.6 377.7 466.1 592.9 634.3 643.7 646.3 608.7 558.9 524.2 511.9 490.0 475.6 496.4 483.7 439.2 431.0 483.4 488.1 497.7 528.7 594.8 729.8 780.2 789.4 770.2 772.9 817.0 816.6 714.0 683.2 670.0 653.3 660.7 632.6 573.8 532.2 491.9 453.2 492.1 525.2 506.1 484.7 449.5 436.6 493.7 541.9 556.2 541.2 489.7 447.2 396.7 357.3 349.2 350.1 361.2 374.6 396.8 401.9 424.0 381.6 363.6 422.2 495.7 464.4 456.9 446.8 402.8 380.3 382.8 375.6 355.8 336.2 343.0 351.2 358.0 369.8 383.2 395.3 413.7 438.0 437.1 424.2 416.3 414.1 465.6 464.1 416.3 395.9 389.9 341.5 307.1 270.7 279.1 269.1 277.0 268.1 258.4 266.2 274.5 258.0 276.3 316.9 359.4 357.0 322.1 306.6 283.9 245.6 264.8 264.5 306.0 326.2 384.5 447.7 429.8 407.3 354.9 372.1 389.3 396.1 360.8 384.9 377.0 420.5 422.6 368.6 323.1 291.1 276.6 253.9 257.9 222.8 235.4 233.9 206.4 177.5 163.5 145.0 142.8 158.1 159.8 171.3 164.7 155.3 175.4 203.3 201.5 228.3 232.1 262.6 278.8 303.6 337.3 367.1 383.0 407.4 423.0 452.6 468.7 477.5 505.0 515.3 521.7 548.7 558.7 575.0 588.2 606.4 616.1 609.3 608.4 625.5 624.3 643.1 638.5 629.3 618.6 611.9 605.9 605.9 595.8 589.5 579.7 553.2 538.1 527.1 508.6 485.1 460.6 423.4 418.4 417.5 418.1 417.9 411.1 400.2 385.5 370.9 348.5 293.6
131.6 129.2 137.5 149.9 163.7 184.2 228.2 252.3 256.3 240.6 268.4 317.4 334.7 326.4 391.0 471.1 528.5 588.0 715.3 735.1 755.9 770.4 805.6 808.6 788.3 739.8 670.7 583.8 537.5 512.7 495.4 512.8 512.9 528.2 512.0 517.4 514.7 494.5 464.5 436.7 401.1 398.8 396.6 385.5 335.2 254.1 194.2 210.9 222.0 245.9 281.1 320.4 372.1 411.3 446.9 509.7 572.4 617.8 645.0 604.3 548.2 512.8 465.7 390.1 359.4 363.1 366.5 388.1 423.3 488.3 504.3 517.8 475.8 430.6 404.4 385.1 345.1 357.9 377.6 339.4 352.3 379.5 409.6 464.9 535.4 573.1 641.7 725.7 758.2 802.2 862.1 799.7 714.2 692.5 651.0 578.6 514.5 505.2 507.4 577.3 575.1 700.8 794.3 883.4 865.6 742.9 652.3 635.4 668.3 696.7 642.0 583.1 569.6 603.7 657.8 741.7 847.3 909.0 902.2 849.4 808.2 723.0 639.0 590.4 616.5 555.4 453.9 410.6 388.4 328.9 293.6 344.8 413.0 449.7 502.3 588.8 651.1 683.2 750.2 812.4 882.1 903.1 897.8 851.6 855.9 890.8 883.0 869.5 809.7 772.0 753.2 712.2 665.5 619.0 551.6 493.2 542.1 585.0 618.8 640.3 638.6 595.9 551.7 504.7 467.5 410.0 345.8 345.2 391.2 490.4 589.5 638.8 713.6 773.1 779.3 825.7 807.3 763.8 723.1 669.0 636.5 608.1 559.8 548.9 469.2 481.2 513.1 501.3 542.0 575.4 544.9 501.1 518.5 574.7 615.2 698.9 791.5 765.0 708.5 682.6 640.8 634.3 649.6 675.1 714.8 691.5 667.0 673.3 657.4 700.7 715.4 731.8 690.1 634.6 577.2 504.1 463.4 450.3 445.1 427.6 383.3 368.6 446.1 513.9 544.0 554.0 572.0 577.6 562.5 544.3 511.7 485.6 464.7 458.5 465.6 425.3 437.3 483.8 520.3 552.8 573.3 625.5 714.9 669.7 671.6 692.0 712.6 763.5 830.2 837.6 732.3 664.4 603.8 602.8 595.6 559.6 515.9 481.5 497.7 493.2 523.4 540.0 508.9 481.8 477.2 500.4 556.0 593.7 617.4 589.8 497.7 425.7 397.8 377.9 354.7 342.9 331.5 355.9 361.9 396.8 387.2 348.6 414.1 468.0 418.8 397.8 398.9 386.7 405.4 366.7 346.1 340.8 342.5 329.3 348.9 350.6 370.2 388.0 384.8 391.5 406.8 392.6 400.1 418.3 420.3 457.2 482.5 468.5 461.6 432.3 369.3 335.5 332.6 303.7 266.0 248.9 238.6 237.0 248.1 261.6 245.1 302.2 297.9 298.0 325.1 287.4 264.1 256.5 246.9 237.0 293.7 316.1 311.8 329.3 369.6 358.4 341.9 326.2 362.9 400.9 371.6 334.5 343.4 348.4 385.9 419.8 423.0 383.4 320.2 305.2 297.0 282.7 258.0 220.0 198.0 221.4 195.2 159.9 147.1 140.8 137.3 136.0 134.6 134.2 135.7 141.2 177.1 177.9 195.6 226.3 255.2 261.3 283.4 306.0 337.4 363.5 380.0 404.0 418.3 438.2 464.3 474.6 483.0 501.5 512.1 525.9 540.2 554.1 573.7 578.2 569.7 592.6 593.3 603.5 613.4 608.7 607.6 596.2 587.8 581.9 574.2 568.1 557.8 549.0 541.2 508.8 492.3 490.5 482.4 456.0 423.9 403.7 399.1 400.6 398.5 398.7 398.9 391.4 369.0 346.2 287.2
126.3 141.7 156.1 184.6 202.8 206.3 207.1 219.6 243.7 280.4 298.6 304.1 322.8 359.2 441.7 543.7 612.9 677.3 779.6 784.0 805.8 839.3 861.4 874.9 851.5 769.6 667.7 603.8 605.2 569.4 549.2 579.2 593.7 614.5 635.9 657.5 655.7 653.9 638.9 591.0 575.0 525.7 473.8 465.3 373.2 252.4 193.7 221.7 241.0 261.1 284.5 333.0 396.5 439.3 498.0 544.1 603.8 648.3 588.4 546.5 492.8 440.0 360.7 373.9 444.2 463.3 417.5 445.2 439.1 453.1 492.2 554.7 530.2 482.3 432.4 377.0 319.9 318.0 321.5 330.2 352.9 369.0 396.9 437.3 471.2 543.7 623.4 680.6 679.2 698.2 762.7 789.4 683.1 589.1 587.9 550.2 464.8 436.1 447.3 459.4 481.5 602.0 747.0 779.3 734.7 623.5 554.3 539.8 590.0 642.3 592.1 539.0 533.3 604.8 685.3 808.8 929.9 892.6 846.3 765.7 715.6 682.4 672.2 675.8 633.7 510.3 428.1 349.0 299.1 292.2 351.2 398.5 459.0 521.4 570.5 635.6 713.9 762.6 822.5 840.1 846.6 864.5 873.5 830.9 830.9 848.1 834.1 803.5 760.8 718.9 674.7 644.9 604.0 558.7 503.5 478.7 469.8 509.9 560.9 599.2 616.6 536.7 476.6 415.7 386.1 353.2 323.5 354.4 430.8 493.5 577.8 644.4 725.4 801.6 840.1 857.6 844.8 777.5 687.6 603.3 575.9 551.3 492.5 436.5 439.8 475.8 481.0 498.3 571.0 537.4 471.9 533.4 608.1 683.0 696.1 739.6 820.3 759.8 707.5 662.1 622.2 565.7 594.2 635.7 657.6 670.2 694.8 704.0 749.2 756.8 798.7 775.1 723.7 686.1 620.5 546.9 484.4 533.7 544.8 478.9 424.6 364.8 410.9 439.4 475.7 518.2 570.2 623.2 602.7 583.1 542.3 548.1 515.2 457.3 424.4 429.1 481.0 531.7 590.5 613.7 613.6 580.4 583.2 651.2 732.9 764.8 754.5 740.5 750.5 773.7 712.5 652.6 599.1 570.3 548.1 527.0 509.3 519.6 517.3 503.4 511.5 504.0 491.7 486.2 538.5 537.2 528.0 577.5 629.9 597.7 518.0 466.7 428.0 411.4 390.8 375.8 342.8 327.3 333.3 338.9 337.6 346.9 361.4 375.9 389.5 366.8 379.1 362.0 363.8 348.6 355.0 338.4 319.3 312.1 332.9 365.2 362.6 386.6 365.2 347.4 395.9 405.3 368.3 377.8 411.6 478.6 502.0 477.0 487.8 485.0 431.2 411.8 415.0 370.7 313.2 275.3 258.3 239.1 225.5 235.6 243.0 297.5 285.5 249.1 266.0 289.2 256.5 233.9 234.3 226.6 265.4 272.8 282.0 322.0 298.3 281.0 293.9 318.5 353.6 342.6 313.3 306.6 345.1 365.7 394.7 451.5 444.8 399.4 356.8 332.0 342.7 357.8 312.5 269.8 217.1 180.1 175.4 193.1 189.1 165.6 147.8 141.0 138.8 138.8 125.8 122.2 138.7 158.7 197.8 213.0 229.3 253.7 288.2 302.4 313.3 331.2 357.4 372.5 396.5 420.4 442.4 443.1 455.1 480.0 490.5 503.5 516.9 526.9 537.1 544.5 542.1 561.9 563.9 590.8 593.2 588.3 581.4 568.6 565.3 557.5 550.3 536.3 524.8 522.5 515.7 502.6 472.2 465.0 465.0 452.4 435.6 412.1 404.0 389.3 383.1 382.8 393.7 385.9 361.7 323.1 295.1
143.2 159.2 179.9 212.4 234.9 246.0 255.3 264.0 271.7 264.9 270.7 297.3 321.2 363.2 404.1 452.2 505.3 579.9 620.0 645.8 670.4 702.9 751.0 750.0 797.7 783.6 705.3 630.1 606.9 618.5 639.9 688.6 737.0 779.3 819.8 881.8 887.1 853.2 809.5 755.6 685.7 573.1 554.2 468.1 347.6 249.7 190.1 228.6 236.4 281.3 324.8 362.6 413.0 461.2 517.7 569.6 627.1 663.5 575.8 502.1 457.4 396.7 319.7 338.6 403.6 482.2 453.4 465.2 504.2 531.5 563.4 597.6 555.1 467.8 412.5 352.4 313.4 333.3 367.3 366.9 353.1 372.7 401.6 458.6 540.2 545.9 585.4 632.7 596.8 605.7 652.8 666.3 600.6 539.3 512.1 563.4 482.1 372.8 378.3 366.3 422.8 509.5 590.7 635.1 608.5 544.1 482.8 481.5 533.4 523.7 510.2 493.0 500.3 576.8 619.9 702.7 755.2 779.3 810.2 808.0 775.3 757.5 728.0 684.9 609.1 475.7 384.8 306.2 269.8 317.3 377.4 422.1 464.8 517.7 579.0 628.3 683.7 752.6 802.9 780.3 762.4 764.7 781.3 745.8 772.2 767.6 763.6 756.2 722.3 664.8 621.4 580.0 551.0 520.3 529.9 512.2 455.2 485.4 526.5 581.0 622.0 562.4 482.7 490.8 452.9 389.4 329.1 325.8 390.1 473.9 540.7 592.1 657.9 735.2 811.7 849.4 804.0 767.9 683.7 568.5 551.3 515.2 434.1 432.7 498.2 556.9 537.7 542.9 534.8 465.3 470.9 585.7 648.4 669.6 691.3 767.0 802.7 774.5 726.3 677.5 612.8 529.6 535.0 571.2 614.7 612.6 595.4 629.0 678.3 705.5 770.8 818.0 752.5 668.4 602.2 550.7 538.4 560.2 546.5 486.3 433.8 367.2 425.4 475.4 518.7 578.8 609.7 623.2 629.2 605.1 561.8 521.4 483.0 460.1 421.5 467.3 512.5 547.3 553.8 570.9 539.6 544.8 588.8 581.6 580.3 601.7 628.6 650.2 678.8 693.2 731.2 712.2 663.6 642.6 600.6 553.4 538.8 544.2 542.6 531.6 532.1 530.7 521.2 506.0 519.2 565.2 598.2 613.4 630.9 615.7 528.2 454.2 412.3 396.9 380.2 372.3 361.2 342.4 333.1 319.4 318.5 316.1 315.4 316.2 349.8 357.1 350.4 337.8 341.3 330.5 346.7 363.9 316.2 309.8 350.1 396.0 370.5 339.7 341.2 335.1 351.6 355.0 354.5 365.8 398.6 441.2 441.2 410.7 435.5 456.0 408.8 388.3 372.9 337.9 304.2 279.0 281.5 263.8 223.9 215.4 230.9 240.3 238.8 221.5 223.1 238.4 242.7 234.4 224.2 210.5 244.1 248.3 273.9 272.4 252.8 287.5 295.6 282.8 277.0 275.7 287.5 328.2 368.7 387.9 406.5 450.6 400.4 354.1 323.4 302.7 324.1 367.1 326.0 262.6 216.2 234.0 235.6 248.1 263.1 251.2 237.5 210.5 202.5 199.6 172.8 149.6 121.5 158.9 185.4 195.4 214.4 236.8 259.1 279.0 308.6 323.1 323.3 353.0 380.3 399.2 412.8 426.2 441.3 458.3 468.4 483.1 495.6 503.2 510.2 514.5 519.5 532.2 537.1 558.0 553.8 555.1 545.2 538.6 535.9 531.1 521.9 507.6 494.3 489.7 492.3 482.9 467.9 450.5 452.4 439.5 425.4 413.2 402.8 392.6 388.2 387.2 381.7 380.6 387.1 327.5 289.0
174.8 201.0 210.4 220.8 230.5 239.8 247.3 255.0 257.8 237.8 277.7 296.4 316.3 342.5 358.2 385.1 411.8 457.6 509.6 538.8 550.0 582.5 610.0 595.7 621.8 614.1 575.2 528.4 492.9 535.9 595.1 602.7 679.4 765.7 824.9 841.6 811.8 770.9 711.2 674.9 681.6 627.1 522.2 423.9 329.1 241.8 187.2 198.7 223.6 274.1 320.1 343.7 393.5 491.4 548.5 555.2 572.3 534.0 498.4 447.4 386.8 333.0 293.2 316.1 388.5 455.4 508.5 519.6 573.3 593.9 552.1 533.4 514.9 433.3 334.4 295.0 349.0 421.4 484.8 458.6 407.9 395.5 409.3 450.0 532.3 590.2 601.1 573.9 512.9 533.0 582.1 562.0 549.9 474.8 420.5 455.3 421.7 362.0 316.7 326.2 415.7 485.8 476.1 486.5 497.5 449.3 422.1 421.9 430.5 409.2 431.6 478.7 536.7 572.3 627.3 671.3 734.0 780.0 821.4 832.3 770.6 732.4 701.5 611.9 523.1 440.0 361.6 287.8 265.8 318.7 385.7 431.8 482.0 531.7 589.3 671.4 719.7 746.9 742.8 718.0 685.4 687.2 687.3 660.2 678.9 688.4 661.7 669.5 664.2 635.5 599.3 576.0 571.5 559.4 509.8 452.5 435.4 503.4 557.7 599.6 646.6 617.8 573.8 517.8 433.2 390.1 333.8 335.3 410.0 458.9 499.7 554.8 616.7 687.7 763.4 817.2 771.0 706.8 643.3 560.9 474.5 470.2 410.4 474.6 535.4 548.5 545.0 507.0 452.3 419.7 457.8 514.4 530.7 538.5 590.4 678.1 721.7 687.9 645.5 597.4 543.4 488.4 524.6 553.8 534.5 527.7 534.3 566.4 609.2 671.9 728.5 762.0 753.8 674.3 613.5 591.5 562.0 552.5 515.7 424.5 375.7 366.7 459.8 515.0 537.9 563.8 556.3 592.0 629.9 604.0 538.5 511.8 517.7 495.1 417.1 472.8 519.9 498.7 503.6 547.4 507.8 524.9 518.4 565.2 614.0 672.1 742.6 794.0 806.2 774.5 780.7 818.5 777.8 712.2 649.5 620.1 611.6 578.4 542.6 524.8 535.9 522.4 491.0 485.5 504.2 538.0 566.5 567.7 534.2 514.4 474.6 445.8 407.6 385.0 369.1 368.2 362.1 347.2 333.3 342.6 382.0 379.7 335.3 303.7 316.1 332.5 325.6 324.8 309.7 308.2 318.3 332.3 305.8 313.0 342.3 336.6 333.3 320.4 320.1 310.7 319.7 330.6 345.6 371.1 397.6 418.1 392.4 360.3 392.6 395.6 357.6 315.1 330.6 327.1 291.1 256.1 242.0 232.4 218.4 210.7 218.9 214.2 204.8 198.8 201.8 206.9 250.5 227.0 193.7 219.0 231.4 237.3 240.0 227.8 265.1 263.1 255.6 241.3 257.3 304.3 319.6 363.8 379.7 348.5 362.7 398.2 398.1 341.8 323.6 296.7 298.3 341.3 341.2 289.8 269.9 261.1 295.7 318.2 347.5 339.0 314.3 264.0 230.6 209.4 170.2 139.4 125.5 172.9 186.8 188.7 214.8 245.4 257.5 285.0 304.8 299.8 307.4 356.7 376.6 387.8 401.4 412.7 421.9 433.3 434.5 452.2 462.5 472.6 480.1 470.1 472.6 491.7 508.9 519.7 520.7 531.1 528.3 518.8 513.2 510.6 501.3 492.5 480.1 467.9 464.0 464.6 452.3 423.6 425.4 419.8 412.6 405.5 395.5 390.4 387.7 387.4 389.7 406.5 413.7 373.8 283.8
188.3 197.4 204.8 216.6 224.4 230.8 239.1 245.2 220.7 215.6 248.3 274.5 296.6 315.2 306.8 305.7 367.2 461.2 515.0 519.5 460.2 448.0 452.4 468.7 486.6 498.4 466.9 450.5 408.8 434.7 469.0 444.2 550.6 597.2 628.0 642.5 640.7 640.5 609.8 568.5 560.3 515.3 436.4 343.1 297.5 236.0 178.1 187.1 233.7 246.2 278.9 308.1 334.1 379.3 426.1 477.6 514.5 474.2 431.9 399.3 347.1 296.8 279.8 344.9 428.3 493.5 555.8 619.7 594.5 566.1 507.6 455.1 439.1 381.5 298.0 321.8 433.7 520.1 570.2 512.8 497.2 474.0 482.9 485.4 520.2 592.0 574.2 511.5 443.9 464.2 494.6 461.4 521.5 426.3 364.5 384.1 406.4 348.1 305.5 301.8 370.2 406.6 369.0 412.9 428.6 358.3 369.0 374.3 371.3 410.4 483.0 563.7 623.1 681.9 725.9 768.2 819.5 854.0 841.4 777.8 709.8 655.3 631.1 564.3 503.5 472.8 405.2 319.1 260.7 260.2 312.0 393.8 483.3 544.4 612.5 670.1 689.4 664.9 654.8 629.7 602.6 582.6 607.3 576.8 589.5 612.7 573.0 587.5 589.0 616.8 616.5 627.7 598.8 563.2 492.3 423.9 427.2 506.0 564.8 621.5 659.7 611.4 544.9 523.8 504.7 460.3 374.4 315.0 360.3 432.7 469.5 534.4 614.8 702.7 767.4 745.4 691.3 638.3 602.0 568.1 490.8 410.5 389.3 431.8 495.4 496.8 483.4 446.7 405.7 388.4 426.7 439.1 455.8 511.8 587.2 692.2 682.0 613.1 608.1 608.5 569.5 487.3 470.3 473.8 480.5 486.7 501.9 537.4 598.5 637.6 623.6 653.4 669.9 624.6 553.7 516.1 503.6 479.0 501.0 428.5 357.3 364.8 423.2 490.4 479.7 501.8 508.9 572.9 628.7 600.7 532.0 476.4 457.6 433.3 407.2 431.9 462.2 480.8 488.3 494.3 472.0 494.8 523.5 563.2 624.7 712.9 864.1 962.6 981.8 947.7 940.9 961.4 857.9 767.2 706.2 687.8 650.6 566.0 521.8 487.4 471.7 470.1 481.7 484.2 460.5 473.5 482.9 481.6 472.2 452.1 422.4 410.5 395.9 380.9 368.2 358.5 345.8 343.5 372.6 400.2 407.5 375.9 334.1 314.2 304.4 298.6 296.4 292.2 289.3 292.9 288.6 285.0 293.2 297.9 319.6 309.0 302.0 302.6 305.5 303.3 327.8 354.2 372.0 406.0 431.8 404.7 393.2 327.4 326.5 329.4 308.2 287.3 279.8 275.1 250.2 232.6 215.8 205.3 202.1 199.8 199.3 196.6 194.8 192.2 189.6 188.1 184.6 181.1 184.8 204.9 209.1 209.3 209.9 230.6 238.3 229.0 220.7 237.4 262.5 264.4 275.3 295.1 301.4 299.7 344.8 384.1 426.0 403.1 389.3 328.1 283.1 274.6 293.0 273.9 267.6 286.7 310.3 363.9 375.4 338.2 306.9 263.7 183.2 123.6 114.2 117.9 139.1 165.6 174.7 175.7 193.3 226.9 270.1 279.6 286.1 295.1 315.9 350.2 378.8 387.8 388.5 386.5 398.2 396.0 398.4 406.5 409.8 422.6 436.8 425.5 436.1 457.4 475.2 485.7 500.1 512.3 509.5 495.2 481.5 481.9 476.0 475.3 464.0 444.7 438.7 438.4 430.8 410.8 401.9 402.3 396.8 393.8 394.0 393.2 386.9 387.8 388.8 376.5 340.4 338.7 304.0
182.7 188.6 199.7 209.1 217.6 224.8 231.5 220.3 189.6 244.1 260.1 276.8 289.4 278.2 259.1 288.2 350.1 377.1 417.5 417.2 350.5 349.5 362.5 383.6 377.5 414.3 411.6 371.2 334.9 353.3 374.0 347.5 379.1 438.5 488.1 465.9 490.9 481.3 471.6 493.3 461.1 415.9 337.9 293.9 243.2 212.9 169.7 177.4 206.2 233.4 251.9 247.3 272.4 348.1 440.2 527.5 559.1 536.4 511.7 488.4 404.6 301.4 275.2 339.2 416.2 487.2 544.0 565.4 520.4 505.0 483.4 414.2 366.0 361.6 285.0 353.0 472.5 577.8 635.8 610.9 583.2 563.8 545.9 537.4 533.7 574.1 600.8 575.3 499.3 417.8 374.1 372.7 456.4 394.9 331.8 436.6 465.2 420.3 343.9 274.1 292.7 314.1 298.7 340.0 316.3 309.6 331.5 385.5 434.7 439.2 473.8 521.2 576.0 643.1 721.8 778.6 743.1 710.1 689.8 673.7 641.5 596.8 521.7 484.5 424.5 381.0 334.2 328.3 365.9 301.1 265.3 334.5 389.3 469.9 541.8 594.1 629.3 604.7 588.3 552.5 541.6 503.4 529.6 505.9 477.2 517.4 492.2 509.7 512.9 523.9 526.2 541.4 546.6 513.6 447.7 382.2 415.2 493.9 570.4 623.9 652.9 651.6 637.0 614.3 537.6 457.1 393.5 314.3 351.2 464.5 531.7 580.6 662.1 677.5 692.6 689.6 658.1 647.9 579.2 492.0 428.2 397.0 368.7 417.3 486.1 435.9 400.4 393.1 378.9 403.1 405.6 414.4 428.7 493.7 575.5 650.2 601.9 547.4 519.6 540.4 516.5 462.4 432.4 459.2 463.9 488.5 512.5 575.6 639.6 590.4 529.8 570.1 562.1 547.7 518.2 493.4 451.1 424.0 414.9 394.1 356.9 348.1 371.3 464.7 455.5 432.6 489.4 555.0 601.4 556.0 494.3 453.6 404.3 392.7 398.5 414.4 434.5 445.2 441.1 465.6 470.2 493.5 551.5 591.4 628.8 703.1 777.6 880.7 975.2 937.1 899.6 843.3 788.0 734.6 680.4 623.1 572.1 539.7 526.0 500.5 484.6 468.0 451.9 442.2 435.5 430.1 432.3 434.2 433.8 438.3 413.4 392.9 382.1 372.3 372.7 367.9 356.7 365.7 391.9 374.2 368.5 357.0 332.2 315.9 307.7 300.3 299.1 305.0 301.1 296.5 285.5 279.5 283.3 281.4 293.6 288.2 285.2 299.4 315.2 343.5 340.7 384.8 381.9 364.7 373.4 348.8 322.2 294.3 287.4 285.0 274.6 259.7 261.8 253.9 221.8 211.9 208.8 217.9 216.9 212.2 219.8 211.3 206.9 239.1 245.4 238.9 218.0 193.2 178.1 183.4 187.6 188.4 201.1 198.8 194.0 202.6 225.4 236.6 237.2 233.2 234.2 244.7 251.5 265.1 277.5 305.7 347.2 341.7 394.8 380.9 319.2 254.5 251.7 247.3 253.9 278.4 287.4 348.5 329.6 307.0 281.7 250.5 162.6 112.1 110.2 116.8 120.6 143.7 160.5 159.2 174.9 216.4 272.2 253.2 284.5 296.9 312.1 347.7 364.7 374.6 382.4 375.9 374.7 362.0 353.7 354.7 357.7 366.9 382.1 382.9 398.1 425.2 439.3 458.5 467.7 483.8 489.3 470.2 448.7 432.2 432.3 440.5 435.3 414.8 394.3 412.6 416.4 406.1 390.7 390.7 383.8 381.7 374.1 364.5 365.8 365.6 359.2 332.1 289.2 260.9 253.2
171.0 174.4 192.6 201.6 212.6 217.6 211.6 175.7 208.7 241.9 254.1 263.1 265.3 248.8 232.9 251.4 274.3 283.6 298.2 296.0 271.8 282.3 298.7 308.4 302.5 330.1 345.0 296.7 277.7 326.3 304.5 282.0 282.0 351.5 419.2 372.7 394.1 391.8 377.4 393.6 366.5 366.8 297.7 237.1 210.1 187.5 163.1 168.5 186.2 201.7 228.4 270.1 316.6 399.7 487.5 463.1 430.5 445.2 427.5 419.7 367.7 285.2 267.1 337.1 410.9 418.6 449.9 482.3 438.8 423.0 372.4 347.4 326.4 303.3 283.0 370.2 477.5 589.8 673.9 639.3 568.2 515.0 458.7 447.0 499.5 544.3 524.2 570.7 540.8 475.5 418.9 348.2 313.5 290.8 335.1 387.1 421.7 393.0 310.4 264.5 247.0 253.6 269.0 288.6 298.3 361.7 413.6 435.7 479.7 523.3 548.9 582.0 646.3 677.4 708.9 740.8 710.8 657.7 603.5 579.8 544.5 500.1 433.6 406.9 403.6 400.2 332.2 366.5 393.8 344.1 296.5 253.7 272.4 353.4 472.6 521.7 567.9 609.7 610.7 548.8 486.6 437.7 416.4 432.4 406.9 435.4 469.0 429.4 423.1 418.7 448.9 475.6 477.0 488.9 451.7 366.7 376.2 469.6 510.3 529.3 534.6 558.3 577.2 536.1 545.5 495.3 420.7 315.6 315.4 412.6 499.4 584.8 646.2 601.2 613.4 619.8 564.4 567.2 581.9 508.0 418.6 369.7 357.0 392.1 432.8 399.0 383.5 366.9 357.8 381.2 393.9 399.0 441.9 520.1 542.4 530.9 517.9 487.9 458.8 455.1 435.9 420.8 452.3 482.5 499.9 495.0 546.5 608.0 651.5 570.2 506.2 484.1 483.2 475.6 481.7 514.7 501.4 481.3 433.7 451.1 390.1 347.0 358.5 423.6 432.2 409.6 465.3 550.2 565.6 489.5 434.7 404.0 387.9 412.8 454.9 439.1 436.2 442.0 459.1 509.1 540.2 517.4 535.1 543.8 598.4 649.7 702.4 782.7 881.3 947.6 826.6 745.6 727.3 753.6 716.8 654.0 642.0 641.6 571.4 524.0 494.2 497.7 489.4 473.4 457.2 428.6 428.4 420.8 404.4 418.6 407.0 390.9 380.5 395.7 406.4 398.1 388.0 399.0 384.7 371.8 346.4 337.5 320.9 307.3 309.9 336.0 341.3 355.7 342.6 331.2 310.6 299.2 281.9 276.0 271.5 271.3 285.1 306.3 302.9 312.9 340.5 350.1 331.0 354.0 361.7 339.2 321.2 300.3 281.5 255.1 259.9 257.4 231.1 215.2 214.5 219.3 227.5 248.5 257.1 259.8 253.4 257.1 281.9 302.5 325.1 302.1 280.1 212.4 185.5 175.3 170.9 173.6 174.6 170.4 175.6 197.9 188.9 196.1 210.2 206.1 212.6 226.2 227.1 232.7 245.5 269.1 269.7 291.3 297.7 283.5 277.8 256.4 231.5 227.2 240.6 264.8 290.3 324.7 325.6 288.4 242.9 214.6 182.7 109.4 102.8 108.5 114.5 124.7 149.9 150.9 158.5 176.6 207.9 236.6 268.5 295.0 324.0 345.2 356.6 361.6 365.0 367.1 359.1 338.2 326.5 330.4 330.4 342.2 341.1 354.3 371.5 389.1 404.3 423.5 442.2 457.8 452.7 435.4 417.2 394.8 396.9 398.9 407.0 398.4 376.6 391.3 389.4 381.8 370.8 358.6 362.9 357.8 343.6 333.8 328.2 318.2 307.6 270.7 236.3 200.2 178.3
147.6 159.4 179.6 192.3 199.4 181.7 156.2 196.7 225.4 233.3 239.0 240.0 245.2 234.8 207.7 215.6 213.9 207.9 205.9 216.6 199.2 217.1 222.0 236.1 219.4 242.6 240.4 235.8 255.6 304.7 287.4 247.4 270.3 289.4 300.3 298.8 367.5 396.4 352.8 307.4 303.3 326.2 290.6 276.9 224.0 197.1 164.4 155.4 173.8 198.9 221.1 247.3 294.1 365.9 426.3 392.1 328.7 354.2 338.2 344.5 324.1 277.1 249.5 302.4 329.6 326.3 357.2 372.0 339.3 320.2 274.9 256.8 290.3 333.4 368.5 428.3 511.5 606.8 620.4 575.2 562.1 483.6 416.0 393.4 427.9 461.0 475.6 528.7 572.9 515.8 455.4 383.7 315.4 272.5 276.9 304.7 337.3 327.1 260.7 235.4 265.4 299.0 325.6 335.7 353.4 354.5 442.2 496.1 539.6 599.4 662.5 695.0 734.9 659.2 624.8 657.8 724.5 685.9 607.7 542.8 495.7 473.9 477.0 465.4 406.7 362.1 362.9 425.9 417.1 364.9 297.1 238.8 238.7 300.5 379.0 447.4 517.4 617.6 682.9 623.6 549.3 495.1 447.5 379.3 355.9 405.4 450.7 399.8 365.6 354.3 389.3 396.5 383.1 396.6 387.0 330.6 368.7 418.6 431.9 451.2 474.0 497.4 512.9 468.2 450.1 459.7 373.7 293.1 292.2 374.0 442.4 510.3 574.5 579.0 513.0 521.2 473.0 519.9 560.5 535.3 501.6 414.3 366.1 356.4 379.6 343.3 359.4 345.5 359.7 377.0 384.7 406.0 465.8 465.0 443.2 485.4 462.0 447.4 430.9 419.7 415.7 455.3 478.7 488.8 487.3 516.5 569.6 649.7 633.4 576.5 504.3 451.6 469.2 459.7 435.4 441.4 477.6 485.4 471.5 495.5 447.0 365.4 353.2 386.5 389.1 429.7 480.6 519.7 510.6 429.3 392.6 382.9 419.8 463.5 523.2 492.4 481.7 470.7 503.0 533.2 590.7 581.3 613.6 605.8 626.4 650.8 685.7 745.9 808.2 811.1 781.7 725.9 699.2 722.9 743.3 751.6 711.9 675.0 589.7 537.5 538.2 526.3 518.7 493.0 453.7 448.7 435.6 427.4 418.5 394.8 413.1 410.5 400.3 406.1 408.1 395.3 381.9 380.2 364.2 349.6 343.2 335.1 311.0 317.9 341.1 363.5 373.0 368.7 364.9 351.2 321.4 306.3 299.4 290.2 280.9 270.3 269.0 266.2 278.2 278.6 292.5 301.6 337.3 394.6 419.1 378.2 319.2 295.0 287.7 269.2 237.7 225.0 219.2 232.4 248.9 242.2 248.1 282.2 292.4 280.6 299.8 325.3 358.5 409.3 445.9 404.3 344.0 258.5 218.5 204.2 178.4 168.1 163.7 158.0 164.4 172.4 173.6 177.0 187.1 203.4 208.2 206.2 208.9 220.2 235.1 240.3 239.3 250.2 271.1 250.9 246.6 260.5 252.0 216.2 221.7 245.2 258.5 281.0 293.3 280.9 231.2 206.0 184.1 133.5 110.2 100.1 108.8 121.3 146.0 145.2 155.9 179.6 198.6 215.1 247.2 285.5 306.1 324.3 345.0 330.1 330.5 339.3 330.6 309.8 304.5 320.7 310.0 319.5 322.1 344.5 354.2 357.9 377.7 402.2 417.9 427.2 415.8 398.1 386.2 379.7 370.8 372.6 377.2 372.4 358.5 361.6 346.4 346.6 351.0 336.0 327.0 318.2 309.8 295.4 288.8 265.3 232.8 208.0 174.3 159.8 141.9
134.0 143.3 169.9 183.7 184.8 140.9 183.8 195.2 207.3 201.4 208.2 226.2 249.3 238.2 200.5 193.3 191.2 184.2 168.5 163.3 161.9 179.8 179.3 202.4 181.8 185.8 213.5 248.8 216.4 241.9 251.3 223.3 245.3 243.3 291.8 349.9 384.4 396.8 344.2 294.4 262.9 266.5 256.7 218.4 199.6 189.3 167.1 149.8 171.8 209.8 218.0 235.8 268.1 295.7 316.3 295.8 280.8 286.9 313.1 330.3 288.9 263.9 240.9 240.9 260.0 283.0 280.8 261.8 245.0 255.9 279.6 337.4 410.5 469.5 511.4 551.0 596.6 630.2 569.3 530.4 545.8 465.7 395.7 349.0 396.3 458.6 505.6 513.7 565.5 577.2 506.2 441.0 388.8 303.0 251.0 241.1 259.0 263.0 224.9 248.9 313.0 353.9 381.4 407.6 422.7 414.6 404.8 468.4 558.9 634.3 675.7 631.7 621.8 585.2 547.1 569.5 649.2 690.5 644.5 611.6 586.5 575.0 572.0 512.6 451.2 439.2 431.8 450.0 463.2 392.6 292.1 234.7 233.1 324.9 456.1 484.3 529.9 542.2 632.4 664.6 564.4 507.0 474.1 420.9 364.5 339.0 361.2 354.4 321.2 357.9 332.1 327.0 304.2 300.9 308.7 327.5 350.1 364.7 358.0 412.0 437.8 456.6 412.4 377.2 330.5 350.8 295.0 293.4 327.1 354.4 404.2 462.2 523.9 552.0 486.4 435.2 478.5 577.9 593.4 495.9 470.1 418.7 411.8 360.3 326.5 347.3 336.6 344.6 377.8 427.5 437.7 422.4 413.5 409.5 470.5 448.3 414.0 428.1 445.8 403.4 463.6 469.7 473.4 458.1 496.1 527.1 589.5 608.5 549.7 526.5 497.3 441.1 441.2 423.4 405.5 416.3 414.6 405.6 449.4 452.6 417.9 352.4 372.7 436.2 436.3 476.2 481.3 452.9 430.9 389.1 378.2 422.0 449.4 503.1 560.0 552.8 535.3 532.3 544.6 585.9 624.8 685.0 701.3 689.7 715.1 704.3 708.2 740.7 753.3 736.8 715.8 692.8 679.7 702.4 730.5 774.0 785.0 703.7 614.7 569.2 537.3 527.8 492.7 465.4 488.5 494.7 449.0 485.9 483.4 418.3 388.1 394.3 417.0 435.5 420.2 416.3 400.9 377.6 355.6 343.2 328.2 316.8 321.9 329.2 364.6 394.3 395.1 387.6 360.5 337.5 319.5 318.1 320.3 314.2 302.0 289.0 281.9 266.3 264.7 269.0 271.4 298.4 321.0 346.8 342.7 317.0 274.3 249.0 238.6 230.7 226.4 223.5 236.9 289.9 318.0 261.4 263.3 291.3 310.5 328.3 388.2 427.0 472.5 519.4 530.1 450.8 366.8 303.2 266.7 252.0 223.4 207.4 195.4 161.9 153.6 152.7 163.3 167.7 171.8 181.2 188.9 219.2 242.5 251.6 246.1 223.3 219.4 238.2 235.0 226.8 228.9 244.6 225.7 208.2 215.8 238.0 230.6 235.7 235.6 228.9 210.4 207.4 193.7 162.7 143.0 106.0 99.0 120.2 139.6 144.8 158.3 166.9 176.5 187.4 214.6 244.3 262.8 298.4 325.2 315.9 309.2 308.9 297.9 299.7 292.5 297.3 297.7 297.2 306.2 321.8 330.6 332.3 346.9 379.0 395.8 389.1 380.7 372.6 365.3 362.1 351.3 348.4 348.1 343.7 334.3 329.6 316.1 310.1 303.6 300.8 286.3 275.1 256.0 246.7 238.5 212.3 173.5 153.3 122.8 110.9 101.0
122.9 142.7 157.6 174.7 175.1 126.8 161.7 171.9 167.8 179.1 179.1 218.0 216.5 206.7 201.0 190.3 183.6 176.0 177.4 158.2 144.9 161.7 163.7 175.9 159.3 166.6 199.5 240.9 209.9 197.4 217.0 204.6 208.6 261.0 339.1 375.9 367.9 325.5 288.1 322.9 310.8 237.3 246.1 200.3 182.3 179.8 169.7 149.3 176.6 253.1 224.3 223.4 234.9 234.7 250.6 254.1 254.8 274.6 331.5 324.5 293.9 275.0 282.2 252.2 238.2 218.8 230.1 277.1 324.2 341.2 400.0 451.6 501.1 553.1 601.0 569.9 578.5 554.7 497.1 509.6 553.0 460.9 381.7 321.6 375.9 433.0 485.1 537.1 584.3 536.1 511.7 477.0 420.8 377.5 308.9 247.7 214.9 220.6 209.4 236.3 305.0 400.5 461.0 474.9 497.8 525.3 487.8 489.6 557.7 636.9 621.2 562.2 543.9 511.4 480.9 522.3 594.3 670.7 746.1 761.0 719.5 652.9 599.8 567.3 552.2 551.4 526.1 487.3 498.1 473.3 350.4 271.0 222.4 262.5 342.5 403.6 439.7 468.7 497.2 583.5 573.0 522.9 476.6 427.0 378.7 368.7 338.7 337.0 323.3 305.4 289.2 276.3 275.7 330.2 367.8 380.3 386.1 338.6 363.1 388.1 363.3 381.7 318.8 280.2 272.7 275.1 324.8 407.0 455.7 445.8 486.9 550.2 586.4 497.4 457.0 428.1 478.9 546.7 569.0 490.8 402.2 386.9 374.5 335.2 332.3 392.7 403.3 367.9 346.5 407.4 412.0 421.8 388.4 442.4 451.2 436.8 385.3 394.3 393.6 393.4 414.4 431.5 449.4 477.3 479.4 502.6 507.9 520.2 478.9 457.6 451.4 445.8 416.8 416.9 385.9 384.2 385.0 373.1 420.3 416.4 357.4 341.9 371.0 426.0 462.1 478.7 432.7 410.8 396.3 373.1 408.5 467.9 520.4 585.9 620.7 645.6 631.9 618.9 634.6 690.0 745.5 780.0 781.7 792.9 844.2 815.8 763.6 686.3 680.5 677.2 663.1 652.4 667.2 695.6 731.7 795.6 780.2 688.3 629.1 600.4 557.9 522.1 524.4 499.9 500.2 527.6 482.7 497.7 530.1 466.1 409.2 389.7 373.2 368.4 368.3 377.7 381.5 387.4 371.3 348.8 325.0 324.5 330.4 347.7 361.3 380.1 389.4 370.3 351.2 339.6 322.8 329.1 346.0 337.6 312.7 301.6 293.3 288.0 261.5 257.0 258.9 264.4 258.4 263.6 254.8 244.7 239.3 240.3 240.6 233.1 230.5 230.3 290.5 344.5 312.1 277.0 293.0 346.8 364.7 400.0 460.2 486.0 468.5 442.6 410.6 370.7 320.3 279.2 257.6 244.3 230.5 229.0 209.7 178.8 160.9 150.8 149.5 152.3 157.3 168.2 177.5 187.0 199.0 191.4 191.5 192.6 204.0 215.9 205.4 204.8 226.2 227.2 209.6 190.1 201.7 208.8 214.2 207.7 209.1 202.5 198.2 181.8 166.3 145.6 133.0 110.3 88.0 105.2 132.5 144.2 151.3 159.4 167.1 173.4 201.7 242.2 269.4 260.3 312.5 316.3 298.6 286.4 273.6 303.0 293.8 284.0 289.4 290.9 304.0 312.3 312.8 312.7 319.9 344.7 355.6 351.5 347.7 350.1 350.5 348.4 324.9 310.2 318.8 317.8 311.4 295.6 281.6 259.7 249.1 250.5 246.3 228.7 210.9 184.5 174.7 162.1 136.9 97.2 96.6 -9999.0 -9999.0
114.6 155.7 165.4 168.5 162.9 119.4 133.2 177.8 151.2 150.6 184.5 180.6 177.7 203.8 229.0 253.3 251.8 256.0 242.8 168.3 133.3 151.9 147.9 160.3 139.9 138.3 153.2 163.7 193.2 234.9 238.3 189.1 186.7 239.9 286.3 312.0 309.4 304.0 247.3 280.7 278.3 223.2 235.6 190.6 171.8 167.6 155.9 143.5 166.7 209.1 199.7 193.8 204.3 212.5 222.6 228.2 252.1 298.1 350.5 336.6 317.2 306.8 262.8 238.2 261.7 210.1 270.3 350.5 395.3 403.6 445.2 510.9 543.4 567.8 575.9 525.8 492.1 455.9 473.2 500.7 539.6 488.7 412.8 341.5 297.9 353.3 414.6 465.6 490.4 471.0 491.6 458.8 413.6 354.9 319.6 265.6 203.4 198.2 208.0 236.2 300.0 410.2 529.1 601.7 618.5 659.2 615.7 588.5 577.4 589.4 618.4 588.1 538.2 505.4 452.6 404.7 474.5 576.3 668.9 743.2 710.6 628.6 568.4 550.1 563.1 538.4 521.3 468.3 443.4 425.5 329.3 242.1 211.7 246.7 297.0 338.7 375.7 398.6 428.4 488.9 529.5 520.1 488.7 445.9 464.0 437.5 385.9 411.7 422.1 391.3 329.7 262.5 267.1 285.2 327.9 356.1 307.1 294.8 346.7 366.1 304.6 268.6 271.6 331.3 389.3 368.7 357.4 424.9 476.0 513.1 558.7 586.4 578.9 553.5 549.1 469.5 393.1 420.6 482.9 483.0 411.2 360.5 342.4 317.1 358.8 398.5 430.4 401.3 356.7 348.7 354.0 359.7 364.1 386.1 378.8 382.4 416.1 438.6 399.1 430.0 445.1 488.8 486.3 465.7 469.6 471.3 463.7 463.3 462.7 431.6 418.8 410.2 406.5 381.9 392.3 388.7 373.0 357.8 360.2 359.8 334.5 354.7 384.3 415.4 458.1 491.9 465.5 436.5 406.0 367.1 412.8 496.9 564.8 658.7 755.5 769.3 761.2 714.9 686.9 675.8 662.9 667.1 671.8 726.2 773.7 758.1 716.1 640.5 620.2 628.1 634.3 654.1 680.3 718.9 775.1 834.8 842.0 769.6 702.0 639.4 578.4 556.5 566.7 527.5 520.3 498.8 487.5 464.0 479.8 440.0 417.7 408.6 393.1 362.7 354.5 351.5 350.3 349.1 340.1 329.8 335.6 340.3 349.6 377.4 403.2 402.6 403.5 410.8 375.0 355.3 345.5 343.5 356.2 364.9 331.5 315.7 310.4 296.6 266.6 267.5 260.9 252.8 266.3 255.8 252.4 252.7 260.6 263.7 257.9 244.0 278.5 262.6 261.2 294.4 285.8 292.8 309.1 330.7 336.9 365.3 407.6 412.4 371.0 350.9 324.7 297.3 297.1 292.6 290.3 285.8 292.2 297.9 283.0 248.9 188.5 158.4 155.6 150.0 143.3 152.8 159.6 170.8 184.2 175.9 172.2 178.9 191.9 190.2 186.2 206.0 199.0 204.0 203.4 176.8 188.8 194.4 201.6 193.8 197.6 188.6 190.7 190.8 184.2 166.2 145.8 115.3 93.7 88.1 128.3 142.8 148.2 154.1 159.5 167.8 185.0 217.7 230.1 253.8 286.3 304.4 312.7 264.8 268.6 293.2 281.0 297.4 298.6 302.2 305.8 308.4 306.7 304.4 305.7 324.5 330.3 328.8 329.1 332.9 325.7 319.9 303.6 286.8 287.0 290.5 286.1 273.6 250.3 238.1 227.8 220.5 205.2 192.9 179.7 140.8 112.2 113.6 95.2 76.6 -9999.0 -9999.0 -9999.0
