ncols   371
nrows   41
xllcorner    11.605
yllcorner    42.659856
cellsize    0.005011
NODATA_value -9999
1234.8 1235.2 1296.0 1338.2 1335.8 1283.9 1159.3 1139.8 1124.1 1061.3 1010.8 960.9 989.3 921.2 838.9 782.3 726.5 659.0 610.1 539.1 473.6 471.7 535.2 563.0 525.6 461.8 401.7 394.9 454.7 450.9 476.3 514.7 567.1 560.3 539.0 575.5 544.4 505.4 444.1 418.2 487.1 568.9 611.2 606.6 563.2 529.8 507.0 519.9 503.6 524.3 563.2 542.8 549.8 591.7 654.4 700.6 739.8 785.0 814.4 781.8 760.4 734.0 666.6 612.3 601.5 577.4 518.8 459.2 426.3 400.0 385.4 398.6 389.0 392.6 357.2 383.0 382.3 390.6 380.7 364.9 382.4 327.7 303.9 297.5 294.3 293.9 288.3 278.3 306.8 385.0 453.8 456.4 474.0 505.8 460.9 359.9 243.8 309.9 409.7 468.3 523.3 543.3 547.4 550.0 577.5 572.7 544.5 540.2 516.8 508.3 512.6 521.1 543.6 532.5 545.3 507.2 534.0 544.9 562.6 600.8 643.6 718.6 724.5 642.9 607.2 606.5 579.1 505.0 499.5 480.3 502.5 492.1 459.4 387.9 408.5 462.1 409.0 455.9 533.9 540.5 533.1 505.5 455.8 461.2 425.3 398.5 370.3 328.3 287.9 256.7 238.0 217.5 177.8 162.8 167.6 190.2 209.7 218.3 239.0 288.1 311.7 296.4 268.4 287.6 326.7 369.6 320.6 326.5 391.6 440.7 467.7 530.2 586.3 600.9 637.1 641.6 582.5 528.7 478.2 447.8 421.4 416.7 401.4 412.5 387.4 341.3 332.9 334.0 376.6 383.8 378.2 398.6 388.9 378.2 388.9 396.4 400.3 393.2 387.3 392.2 390.2 381.5 379.3 381.1 387.0 393.6 400.0 384.4 355.7 336.2 317.1 310.1 300.1 293.8 291.4 289.9 287.6 286.6 285.5 282.4 277.8 269.8 225.5 265.1 277.9 296.5 331.6 378.7 440.3 510.6 604.4 742.7 850.0 932.4 1043.5 1166.3 1310.9 1435.6 1345.7 1235.4 1158.0 1137.8 1181.4 1273.2 1237.1 1139.4 1014.7 1046.0 1090.6 1079.5 1061.8 1043.5 977.1 903.8 944.9 895.3 718.2 654.7 649.0 643.6 588.5 553.1 510.2 488.6 606.5 740.0 834.0 990.1 1137.3 1148.3 1014.6 832.0 643.0 532.5 549.3 776.9 861.9 851.8 811.3 776.6 784.3 817.6 936.6 935.4 880.5 931.7 881.8 756.8 784.6 704.7 703.1 807.0 971.8 1001.3 1080.3 1156.5 1197.9 1052.4 1184.4 1321.7 1414.8 1436.3 1490.6 1582.2 1512.8 1382.5 1181.0 966.0 1193.3 1344.3 1487.8 1588.1 1418.0 1260.6 1380.7 1599.7 1734.0 1610.9 1539.1 1578.2 1569.1 1673.2 1801.7 1921.5 2089.9 2138.4 2117.6 1934.4 1680.9 1421.5 1256.7 1378.5 1531.5 1734.5 1859.6 1704.9 1477.6 1302.7 1224.9 1137.4 1071.9 1081.3 1101.7 1012.0 951.1 946.0 964.3 948.1 835.7 780.2 722.6 695.2 703.9 670.5 633.9 646.7 633.6 612.7 604.0 597.9 590.7 571.0 579.2 584.1 606.2 596.1 642.9 661.1 655.9 588.0 511.0
1212.0 1191.8 1234.8 1270.3 1269.9 1251.7 1179.6 1112.9 1107.3 1083.6 989.3 933.3 923.8 927.8 883.4 803.9 708.9 637.8 599.5 573.2 546.3 468.5 430.3 471.2 539.7 506.7 435.5 376.5 409.6 456.4 475.3 485.2 526.4 507.3 471.1 539.2 553.1 488.1 416.0 393.6 447.4 542.9 571.9 544.9 512.2 471.6 469.0 488.5 528.9 535.0 532.2 521.4 534.3 576.4 618.7 670.7 717.9 758.2 808.9 807.6 773.0 779.9 727.8 704.1 623.1 570.4 526.8 476.7 436.3 418.7 417.3 414.8 396.0 383.7 377.9 384.3 389.3 405.8 384.7 407.6 404.6 374.3 359.3 338.4 318.6 304.7 301.2 307.7 353.1 396.5 454.6 475.8 509.2 465.0 382.9 342.7 258.7 278.7 378.1 450.7 500.0 535.4 566.2 573.9 545.9 517.2 499.4 534.7 500.1 452.4 471.0 497.6 522.9 549.8 545.9 524.0 569.9 579.5 594.2 617.4 651.6 726.5 719.6 646.1 585.0 568.8 551.3 544.4 533.6 523.8 505.1 472.8 430.1 390.3 466.6 454.0 427.0 480.5 540.0 551.8 532.8 509.4 503.0 483.9 465.0 448.5 394.1 343.5 311.7 283.4 258.9 243.5 226.1 207.8 182.4 161.3 172.1 204.8 219.2 240.0 265.9 304.8 326.5 345.9 345.0 340.6 300.3 333.7 390.1 475.1 514.4 564.4 582.1 589.8 618.6 665.4 650.2 605.5 541.6 516.2 487.0 446.8 409.8 379.1 344.0 358.6 375.4 406.4 403.7 388.0 398.6 395.5 422.0 402.0 398.8 405.7 415.5 407.6 401.3 395.5 403.4 392.8 387.1 392.4 385.8 399.3 392.6 357.5 340.0 328.4 323.1 324.9 301.1 293.9 290.7 290.0 288.9 288.2 286.9 284.4 278.0 271.7 227.8 247.4 251.6 259.2 286.4 330.6 389.1 474.3 590.0 734.0 853.3 973.3 1140.0 1289.8 1345.8 1320.3 1235.7 1135.1 1073.0 1128.3 1192.7 1259.6 1232.7 1094.0 1011.3 1075.0 1131.4 1128.4 1085.1 1013.4 992.9 972.3 828.7 764.9 841.1 904.7 879.7 827.9 739.5 664.3 540.0 482.1 651.3 850.5 958.8 1075.2 1107.4 1012.3 807.4 591.9 484.3 516.3 623.5 884.9 898.3 868.1 871.7 912.3 889.7 895.6 1017.3 1039.5 989.5 985.0 893.5 863.6 934.5 874.1 766.2 704.0 834.1 855.3 874.4 907.3 974.1 939.9 1164.5 1337.4 1394.9 1460.4 1549.6 1630.3 1623.7 1487.0 1265.0 1050.3 1155.7 1413.2 1591.2 1723.2 1588.8 1393.9 1495.7 1559.3 1616.7 1590.8 1489.5 1469.8 1489.8 1569.0 1718.5 1916.4 2053.0 2191.2 2142.3 1913.8 1668.6 1377.4 1346.8 1504.9 1673.2 1864.0 1879.4 1733.6 1515.2 1351.9 1287.1 1256.8 1170.1 1078.9 1096.7 1003.5 886.5 869.4 928.2 945.1 805.0 718.5 716.2 743.2 692.5 694.4 709.7 737.1 704.7 648.8 694.2 706.5 692.7 660.3 690.0 707.0 704.8 699.8 699.3 676.5 638.2 623.8 550.7
1100.7 1107.7 1176.6 1211.5 1225.6 1203.4 1147.6 1061.4 1074.3 1044.4 978.3 924.2 899.6 884.9 873.4 836.3 783.4 754.6 715.8 672.6 612.0 550.1 502.4 414.7 432.8 496.9 451.3 388.1 376.4 428.5 458.7 490.1 484.0 486.8 437.4 481.3 502.7 456.6 374.9 425.6 496.1 531.1 518.3 477.6 449.1 457.9 484.3 486.4 507.4 487.0 499.3 505.0 544.1 596.6 663.1 686.0 696.2 730.3 790.3 815.8 812.3 795.5 770.4 703.0 666.6 628.2 579.0 517.2 465.4 448.4 463.7 432.2 401.3 388.8 374.6 367.3 351.7 373.0 399.8 368.5 370.6 370.7 381.1 332.6 319.5 312.9 310.2 323.0 378.3 417.5 479.7 506.4 516.5 446.4 364.8 332.3 266.7 256.5 364.7 396.8 455.3 512.9 553.5 569.2 560.2 541.7 510.1 467.0 444.5 479.8 522.7 511.9 496.7 532.4 561.0 549.3 583.4 611.5 652.9 689.0 712.9 747.9 742.3 666.3 606.1 616.9 587.3 550.6 518.0 500.4 449.8 433.3 420.2 466.0 488.6 460.2 434.3 493.0 549.0 526.7 497.9 454.6 479.6 430.1 389.0 368.0 329.3 268.5 232.3 217.5 210.6 216.1 236.4 239.0 219.3 199.6 169.2 166.6 207.0 235.3 283.7 337.2 357.4 320.3 284.5 285.3 298.0 326.6 363.4 429.2 503.6 548.9 577.6 569.3 578.0 603.4 656.7 613.6 547.8 533.6 519.4 474.4 427.4 381.1 367.6 417.8 425.1 447.8 447.1 415.2 426.3 424.7 417.0 442.5 423.8 424.2 429.3 421.4 411.6 403.2 408.8 398.9 395.1 400.8 396.5 394.7 387.8 357.3 334.9 332.2 345.7 325.4 303.4 299.4 293.8 292.2 286.9 272.8 263.0 274.7 276.6 260.6 223.8 236.0 251.0 254.2 248.6 290.1 358.1 427.8 552.1 726.5 844.5 917.0 1078.9 1249.8 1293.7 1177.6 1051.8 994.5 1169.5 1262.1 1229.0 1145.5 1124.1 972.0 1005.4 1066.5 1122.4 1177.5 1149.0 1096.0 1057.1 1016.0 883.2 949.4 987.8 936.9 916.9 802.2 697.5 618.9 503.0 488.8 643.1 770.6 913.7 1040.3 1002.0 796.6 562.9 490.0 654.1 791.1 641.4 764.9 747.5 754.8 871.9 1019.7 1002.8 943.1 1050.4 1136.9 1109.1 1027.6 929.8 1000.4 952.4 891.6 827.3 736.5 714.8 728.8 769.4 784.2 817.3 913.6 1053.2 1197.5 1330.4 1447.2 1520.8 1631.6 1679.7 1604.6 1418.9 1210.5 1189.9 1452.3 1686.8 1782.9 1613.5 1617.8 1576.8 1468.2 1476.1 1488.9 1477.0 1464.2 1549.2 1624.0 1753.4 1871.4 2027.9 2071.9 2099.1 1918.3 1757.1 1498.2 1522.0 1715.3 1852.4 1998.5 1900.6 1712.4 1503.8 1347.8 1280.2 1285.5 1180.6 1053.0 994.3 931.9 861.8 817.6 859.6 884.3 768.8 730.2 808.6 852.9 757.3 726.6 804.5 809.0 732.1 711.3 789.0 844.1 826.5 789.7 769.4 749.5 717.1 714.7 679.7 647.0 595.6 586.9 531.6
993.0 1023.2 1090.7 1123.7 1137.9 1131.7 1095.6 1037.1 1045.3 1042.8 980.8 878.4 844.3 840.0 837.2 826.1 816.6 791.4 738.2 677.8 641.3 606.5 564.0 481.8 389.6 438.7 446.0 418.0 362.1 423.2 458.5 467.4 427.2 471.2 460.2 414.6 406.9 375.4 366.4 450.7 528.4 507.4 448.5 426.1 430.7 447.7 484.2 505.8 474.0 497.0 486.5 511.1 537.7 572.2 615.9 659.9 709.8 740.6 769.9 803.3 842.3 801.5 740.5 692.7 654.6 606.2 584.9 550.9 501.0 469.3 445.9 440.2 453.0 438.6 399.9 391.2 394.2 349.2 350.3 373.4 356.3 329.9 360.9 367.5 358.3 325.5 323.0 335.5 350.6 383.8 453.1 517.4 523.8 513.3 472.3 361.3 262.6 248.8 329.4 400.6 464.9 476.1 504.7 561.2 552.5 521.8 496.7 435.5 515.0 600.2 580.1 541.3 567.1 537.7 555.0 589.3 609.8 635.7 679.0 701.2 707.1 741.7 760.5 705.0 673.7 704.8 649.4 589.7 555.7 545.1 557.6 504.7 506.6 506.6 479.9 457.2 436.7 470.9 510.1 528.0 484.0 420.6 362.0 339.2 311.0 284.1 245.2 254.1 289.4 299.3 275.6 228.6 192.4 203.2 207.6 209.4 202.2 169.8 172.6 239.6 273.2 306.0 320.7 269.6 270.3 314.4 344.3 366.0 383.3 413.5 445.8 504.7 550.6 567.1 565.2 568.5 600.9 613.8 538.1 507.7 496.6 449.9 409.3 392.6 430.0 453.7 465.0 475.3 480.7 456.2 449.9 453.7 439.2 459.1 458.1 453.2 441.2 433.4 417.8 414.3 420.7 417.4 403.8 411.4 403.5 395.4 376.3 357.4 358.3 350.4 344.1 320.5 304.7 298.6 295.0 285.6 257.6 253.2 250.7 243.5 259.7 234.5 230.7 246.2 263.8 279.5 258.4 253.8 307.0 424.7 602.9 700.1 741.3 914.1 1092.3 1204.3 1231.7 1088.0 887.8 1064.3 1174.6 1283.4 1250.5 1137.4 989.6 922.0 1091.1 1180.1 1198.0 1215.3 1193.0 1213.4 1121.3 995.4 963.7 1070.4 995.5 913.3 816.3 719.4 627.1 541.6 447.1 533.6 752.5 777.6 835.2 852.4 692.9 533.9 478.1 652.7 904.2 987.0 866.4 812.1 829.8 809.5 875.6 1050.3 1049.1 1062.7 1036.3 1071.8 1150.4 1120.3 1028.9 1050.4 995.9 937.4 863.6 771.4 799.9 716.0 715.9 750.2 792.9 849.9 942.4 1065.6 1214.2 1310.0 1427.1 1555.8 1660.2 1666.9 1524.3 1353.0 1300.3 1567.3 1802.7 1806.5 1809.2 1783.4 1595.2 1452.1 1407.8 1397.4 1386.7 1484.0 1626.3 1643.7 1721.0 1760.9 1816.4 1925.1 2065.4 2067.0 1954.1 1720.1 1652.4 1875.9 2040.1 2028.4 1859.9 1649.1 1451.1 1290.6 1209.8 1188.4 1116.9 1028.7 950.5 904.0 888.6 855.7 834.2 786.6 764.8 805.1 905.7 915.0 807.1 771.3 838.2 868.5 763.6 775.5 857.9 902.0 847.7 792.1 735.8 700.7 663.0 651.4 623.8 587.9 550.9 534.0 507.5
929.1 958.2 1002.1 1025.1 1028.7 1037.8 1067.4 1035.7 1034.7 945.4 861.9 814.1 761.9 734.1 738.4 736.9 724.3 712.4 702.0 631.3 558.9 526.8 497.9 485.0 402.9 380.1 420.7 419.3 356.5 400.4 428.3 433.0 410.9 462.8 453.4 390.0 350.8 398.4 459.8 506.8 512.3 454.1 419.7 418.1 448.2 474.0 523.6 491.7 447.7 487.0 470.0 499.3 524.5 578.4 626.0 659.9 671.8 712.4 753.5 824.2 831.9 758.9 691.3 663.9 640.2 616.7 584.2 572.9 549.7 501.8 449.4 416.0 413.2 413.3 380.0 361.5 354.4 343.4 337.3 326.6 344.0 318.3 343.6 363.4 342.7 352.8 327.4 351.4 382.3 382.8 440.2 497.1 456.7 426.2 400.6 377.5 306.8 234.7 271.5 358.3 402.2 404.3 493.0 551.9 555.9 496.6 416.3 459.6 567.1 628.0 595.5 561.2 602.7 621.2 570.4 564.9 594.8 613.3 629.8 649.8 674.5 707.7 760.9 708.6 647.9 665.3 650.4 607.5 599.4 604.8 574.1 519.2 493.8 472.5 453.1 439.4 448.4 490.6 501.5 510.0 443.6 409.7 327.0 276.8 280.7 288.9 310.7 380.9 402.8 378.8 335.9 294.9 238.7 192.3 176.8 191.9 207.7 188.4 159.4 214.0 276.9 302.7 269.5 255.6 293.1 338.6 351.5 333.0 335.0 379.1 415.6 444.7 478.4 510.7 540.6 518.8 537.5 564.0 558.4 512.2 495.5 461.7 431.9 482.6 490.8 494.2 509.2 536.6 517.6 485.9 476.3 489.3 467.1 477.2 481.2 466.1 453.7 441.0 423.4 428.5 445.0 432.6 419.0 416.1 406.0 403.4 403.7 372.6 332.2 323.2 317.2 310.7 304.0 299.2 295.4 266.3 258.1 282.3 280.6 251.0 232.5 229.9 255.7 249.8 243.5 247.3 254.1 251.7 267.9 398.0 510.0 534.5 710.3 904.5 1022.5 1051.9 1093.7 1017.4 815.7 955.3 1033.5 1174.8 1125.5 924.2 822.0 988.2 1144.5 1283.8 1315.3 1235.0 1192.8 1178.2 1142.2 1140.6 1081.8 1061.2 976.0 849.3 759.1 673.9 582.2 512.2 440.9 581.1 776.2 701.2 649.1 570.9 470.0 581.0 727.6 904.0 1109.9 1079.6 1014.8 1011.8 932.6 889.2 864.0 1016.8 1080.9 1099.0 1150.5 1150.8 1140.8 1172.5 1129.8 1096.9 1043.9 981.0 858.7 867.4 875.1 811.2 754.8 744.7 761.4 796.0 836.8 989.7 1208.8 1353.7 1437.4 1558.7 1673.7 1719.6 1666.0 1532.6 1468.5 1596.0 1799.7 1890.7 1898.3 1788.4 1588.3 1445.7 1400.8 1399.7 1382.5 1455.1 1526.1 1569.4 1633.4 1665.6 1715.1 1926.6 2073.4 2186.4 2023.7 1840.6 1778.3 1979.8 2135.7 1970.7 1759.1 1553.4 1387.4 1241.9 1145.1 1101.7 1061.5 1007.9 994.6 966.4 955.0 978.4 882.9 798.1 821.5 905.9 1002.1 949.3 862.6 876.1 927.6 898.6 809.3 860.7 911.7 859.9 819.5 761.9 723.6 683.2 655.2 618.6 592.2 577.7 603.1 605.0 582.5
855.6 875.5 904.9 933.4 974.4 1015.2 1049.7 1009.0 998.8 902.8 817.7 743.9 699.0 662.8 655.4 646.1 646.3 623.0 615.1 595.2 568.3 502.0 452.7 432.0 417.7 372.6 363.4 375.9 351.4 391.9 414.7 420.3 398.4 446.1 389.9 341.7 392.8 439.3 490.7 473.5 455.6 436.0 406.6 425.9 498.4 544.4 506.2 412.1 415.8 422.0 473.2 521.2 574.7 615.6 669.8 723.3 710.7 713.9 754.4 793.1 820.7 743.6 675.4 646.2 633.4 645.2 647.2 614.9 575.3 525.6 478.2 442.2 414.4 397.8 405.7 396.4 363.2 335.5 352.0 356.8 324.1 310.5 302.5 333.5 319.2 362.7 342.5 354.3 371.6 389.6 417.9 459.7 421.2 393.3 350.6 330.0 307.6 270.1 236.7 283.0 317.4 380.8 453.7 508.2 530.3 431.0 393.7 523.0 605.9 641.2 585.7 588.2 639.9 664.6 634.1 619.8 597.3 596.7 628.8 650.4 654.2 700.9 757.7 721.3 648.7 611.5 602.2 597.6 610.0 613.7 562.3 535.3 511.6 467.8 464.5 486.0 474.7 505.5 466.1 421.6 400.5 355.3 306.7 335.1 414.3 398.1 389.5 416.2 416.7 374.2 335.2 292.1 251.2 220.0 179.1 177.9 176.2 159.6 173.7 241.7 293.2 267.7 249.2 286.6 327.7 318.2 290.3 291.8 344.6 380.0 356.8 378.1 407.5 441.4 465.7 438.8 496.5 539.6 539.5 531.0 475.4 481.4 506.6 524.6 526.2 566.4 620.7 628.8 589.2 529.2 519.3 513.0 510.6 508.5 494.2 483.3 473.3 450.9 445.4 437.2 456.2 433.9 441.9 429.4 418.1 417.9 409.6 361.4 362.5 354.8 331.9 321.1 308.0 300.8 296.8 265.3 266.2 289.8 284.3 256.4 229.2 264.0 278.1 280.3 267.6 254.7 247.9 265.6 250.9 306.3 358.1 457.9 559.5 699.3 793.9 780.0 903.4 988.1 769.6 867.9 950.2 1129.9 1030.2 793.0 782.4 963.8 1135.1 1271.6 1329.8 1314.2 1258.0 1228.6 1210.1 1198.1 1145.5 1005.4 861.2 750.7 693.2 621.5 530.4 446.5 460.7 662.8 799.3 647.3 447.7 514.3 675.0 867.8 1000.6 1167.2 1279.7 1209.3 1121.8 1042.9 1077.7 1008.7 942.2 966.8 1009.4 1041.7 1104.7 1151.4 1181.5 1190.2 1179.2 1137.4 1107.5 1029.1 866.4 954.9 950.1 914.2 845.8 827.2 809.2 804.0 840.5 976.3 1185.9 1324.2 1428.4 1522.4 1619.7 1731.6 1733.0 1701.5 1581.9 1589.6 1757.9 1880.3 1833.8 1663.1 1498.8 1395.7 1385.8 1400.7 1404.0 1440.7 1469.8 1503.9 1542.4 1575.6 1694.4 1926.0 2078.1 2225.9 2074.5 1909.8 1906.2 2096.2 2242.3 2043.8 1820.3 1595.2 1390.0 1268.7 1194.7 1137.6 1102.6 1087.8 1051.0 962.2 927.9 946.9 878.6 868.9 930.9 1041.2 1126.0 1072.4 987.1 1055.5 1075.1 947.7 858.3 921.5 947.2 883.0 822.9 762.6 709.5 665.1 663.8 637.2 650.7 657.6 707.8 668.2 621.4
779.4 818.2 861.0 919.6 972.2 984.0 988.1 957.0 914.9 857.8 802.0 741.1 674.8 612.6 573.7 546.2 546.0 548.6 521.4 496.4 509.0 507.4 468.3 441.7 423.3 412.6 400.2 379.4 343.8 372.1 393.6 419.5 389.2 385.3 337.9 380.6 446.6 468.5 449.1 451.1 418.8 426.6 404.6 417.0 462.4 455.6 413.2 393.9 470.9 484.8 482.7 533.0 565.4 587.7 643.1 696.9 725.6 751.0 786.1 812.5 779.5 711.8 674.8 658.0 669.8 647.9 599.8 586.6 554.2 530.4 470.7 433.3 400.9 389.6 403.5 355.4 323.4 315.2 317.6 338.6 367.8 346.9 297.2 296.5 325.0 356.8 326.7 353.8 377.6 389.0 418.3 485.7 526.0 470.8 414.0 390.5 397.0 357.3 277.3 232.8 259.0 297.9 322.0 439.1 452.3 362.4 484.0 525.6 625.0 618.2 557.0 598.2 631.3 646.3 617.1 664.8 684.5 669.5 700.5 735.8 726.8 760.9 758.3 692.0 644.3 653.5 610.3 559.1 556.1 548.1 521.8 523.6 487.0 477.0 507.4 490.4 503.6 463.7 433.3 389.0 305.7 323.7 310.4 360.5 422.4 472.4 433.7 372.4 333.8 309.6 276.5 223.6 185.6 175.1 166.2 166.5 161.4 193.0 229.8 280.7 260.7 235.6 280.7 312.2 283.0 261.8 277.6 313.5 330.0 307.3 332.2 353.3 375.7 428.1 403.2 420.7 499.5 551.2 543.8 520.1 484.3 520.8 606.6 573.7 560.7 613.0 710.8 727.7 666.7 599.9 562.0 562.6 599.2 559.9 516.9 523.0 507.4 488.9 472.4 463.6 461.9 458.1 466.9 457.1 442.7 444.7 403.7 375.0 366.4 349.7 347.3 313.4 274.9 272.0 268.4 263.1 285.1 289.9 279.6 234.2 254.5 279.0 282.5 285.4 285.6 258.2 252.2 281.9 257.5 255.7 280.2 341.0 434.6 548.7 567.1 646.4 809.4 844.1 690.7 844.7 861.1 999.1 946.1 720.7 805.6 1005.3 1162.7 1234.1 1284.8 1312.2 1277.4 1199.2 1111.0 1074.4 967.6 863.0 751.5 672.7 634.2 585.0 510.9 416.0 516.8 636.2 706.0 498.1 463.9 714.1 990.0 1083.3 1198.6 1304.4 1385.7 1354.8 1193.9 1163.5 1216.8 1138.1 1025.3 997.1 1083.3 1112.5 1161.8 1193.4 1189.8 1199.3 1210.9 1197.5 1154.0 1092.7 964.4 900.3 1010.1 1006.9 925.5 893.7 899.8 897.2 882.6 933.5 1064.7 1220.9 1386.1 1507.7 1560.8 1668.3 1756.0 1764.2 1664.0 1671.8 1707.3 1656.8 1580.8 1476.5 1406.1 1391.1 1435.9 1415.4 1369.8 1390.6 1414.1 1441.7 1430.8 1509.6 1693.5 1897.3 2052.4 2280.7 2246.8 2056.9 2019.6 2196.9 2359.5 2182.1 1917.6 1732.7 1554.6 1385.4 1296.0 1220.3 1203.5 1156.5 1047.1 984.2 937.6 879.4 921.1 949.4 1037.9 1153.5 1245.7 1254.7 1191.8 1186.8 1105.8 1015.7 946.8 984.8 982.0 882.1 811.9 771.9 734.5 694.2 741.7 718.4 757.4 750.0 755.3 682.2 648.8
760.0 785.3 841.1 907.6 979.3 977.7 976.8 976.2 916.1 819.3 757.7 701.0 631.2 583.3 580.8 554.1 506.9 484.8 468.9 459.1 446.4 453.8 452.9 436.5 420.0 412.1 399.6 419.0 370.1 339.0 340.6 382.5 408.2 370.5 338.8 416.7 418.1 430.5 422.4 456.8 421.6 389.8 373.1 373.7 367.2 370.0 394.5 429.6 480.0 548.2 548.3 515.3 560.6 608.7 609.3 631.2 670.1 717.3 774.7 786.1 723.2 663.0 608.9 579.8 585.4 555.8 519.4 491.1 461.0 430.8 421.7 414.2 376.9 356.1 379.0 379.3 361.4 346.4 310.3 310.3 347.8 326.1 302.4 285.6 307.0 330.1 303.1 315.1 357.3 364.3 399.4 485.5 550.6 562.4 558.5 516.4 529.3 425.5 354.8 271.2 239.3 247.9 237.5 298.0 353.9 322.1 440.1 551.1 640.9 614.2 528.0 555.1 604.9 614.1 588.2 640.1 643.4 680.3 737.0 763.0 810.8 744.3 734.1 735.6 685.8 676.3 633.0 604.6 594.1 581.8 551.3 512.5 493.3 519.7 511.5 459.7 483.2 453.2 411.0 354.2 322.5 410.2 394.5 367.7 404.3 464.8 443.1 356.4 298.6 262.8 207.8 169.2 192.7 198.3 204.2 185.4 194.3 229.5 264.0 272.0 248.5 230.8 254.4 252.0 250.0 255.3 272.4 282.2 280.2 292.2 302.1 312.2 329.7 369.9 434.8 450.1 503.4 536.1 552.6 548.9 515.4 510.0 582.0 574.8 606.7 648.3 755.8 810.5 791.7 733.7 626.1 629.9 627.5 572.4 556.7 604.3 615.9 550.5 483.9 498.2 473.3 486.4 495.9 487.6 454.0 424.6 409.2 413.6 401.5 360.0 313.1 284.4 285.4 290.9 272.4 289.6 298.7 290.2 273.7 236.4 277.8 283.2 288.0 288.5 288.0 259.6 256.6 287.7 285.6 264.1 253.7 270.0 337.9 409.3 522.9 625.1 754.7 671.5 638.4 879.3 834.1 802.0 729.7 673.5 825.2 989.0 1158.4 1320.8 1377.4 1392.2 1350.0 1195.2 994.7 878.8 771.8 696.7 634.8 581.2 519.3 483.5 452.2 449.1 601.0 462.1 468.0 449.2 586.9 745.1 935.4 1095.5 1223.4 1266.5 1331.4 1366.2 1268.4 1296.7 1350.8 1296.2 1168.4 1095.3 1070.1 1088.3 1092.1 1165.2 1185.0 1193.2 1166.9 1136.9 1102.0 1065.7 1009.9 958.5 1021.9 1080.4 1031.9 975.0 999.2 962.9 956.5 958.6 1029.5 1157.7 1310.9 1477.0 1658.6 1700.7 1758.1 1836.3 1818.9 1715.5 1621.7 1611.4 1547.5 1521.4 1505.1 1547.9 1583.3 1475.8 1421.8 1401.2 1384.8 1402.8 1389.9 1468.6 1657.5 1867.4 2022.1 2276.6 2374.4 2192.2 2091.0 2262.2 2452.2 2319.7 2105.8 1955.4 1721.2 1502.6 1375.4 1304.5 1263.4 1138.2 1045.8 967.4 937.8 935.6 986.2 1062.3 1176.8 1285.3 1294.0 1245.5 1190.2 1213.5 1145.6 1018.6 926.0 925.4 915.2 853.9 828.6 797.6 775.7 748.6 750.0 747.4 796.1 763.8 697.9 670.2 659.0
728.5 760.0 824.9 894.0 963.5 978.0 1000.5 955.6 890.9 806.5 718.1 664.5 658.4 665.1 647.3 577.6 521.0 508.1 512.6 504.3 472.2 429.0 424.5 426.2 428.8 426.1 417.3 399.3 390.5 367.9 336.3 331.6 345.6 335.6 324.5 355.0 384.0 408.1 417.4 418.3 399.4 344.7 350.8 382.4 383.0 417.1 465.4 500.1 486.5 522.8 549.7 590.1 625.9 625.3 671.7 680.8 675.1 686.5 732.2 776.9 727.1 664.2 622.2 589.4 524.4 504.4 496.2 493.6 473.2 490.7 518.4 491.4 426.4 367.1 339.0 342.4 343.6 365.0 334.0 300.7 323.9 351.3 319.5 281.0 295.3 303.2 298.5 316.9 336.3 383.4 411.2 473.6 535.1 556.6 580.3 575.7 560.6 500.1 406.3 348.1 374.1 413.8 311.3 228.3 250.9 287.4 422.6 565.1 633.7 583.8 511.4 557.6 562.9 559.7 578.0 593.8 604.2 652.1 715.9 793.8 841.7 744.0 679.3 684.0 685.3 641.7 613.1 602.6 633.2 614.0 596.2 567.9 529.8 463.5 446.3 426.3 418.7 412.3 386.6 341.5 356.3 454.0 433.8 404.5 405.2 459.1 487.7 403.5 340.6 291.9 250.6 198.8 177.1 261.2 245.5 237.8 241.2 241.5 239.3 238.7 222.7 238.7 262.4 265.1 284.0 296.4 276.1 291.3 296.9 320.6 341.2 368.8 378.7 400.0 446.2 485.0 494.5 493.1 537.5 546.2 536.4 544.8 559.1 582.9 627.9 690.2 782.2 881.1 880.5 794.5 753.9 683.8 641.2 655.2 627.5 641.3 685.9 620.8 540.7 505.1 510.1 477.4 472.5 465.1 448.2 437.1 418.7 381.9 349.9 309.3 302.0 324.9 344.3 333.7 307.5 304.1 299.4 291.8 272.1 235.9 279.2 286.3 289.8 291.2 291.6 273.4 256.8 291.2 293.4 292.4 290.7 287.4 299.5 380.0 522.9 607.4 629.9 527.5 714.2 920.0 856.4 667.6 650.4 787.7 919.3 1014.9 1094.5 1253.5 1384.8 1410.6 1298.8 1034.5 919.9 841.3 746.9 693.8 647.8 590.0 564.7 477.6 430.1 558.4 550.2 411.0 461.8 444.0 635.4 851.2 1077.7 1233.9 1338.4 1344.9 1303.0 1245.4 1160.0 1286.2 1352.8 1403.1 1365.9 1263.2 1252.9 1275.9 1197.4 1286.3 1279.6 1208.9 1191.4 1132.0 1061.8 999.0 956.8 964.2 1022.2 1108.6 1120.2 1090.0 1094.9 1075.4 1073.8 1042.1 1075.4 1150.0 1339.3 1563.4 1778.2 1829.3 1795.6 1760.2 1742.0 1753.1 1700.9 1693.2 1674.9 1629.5 1599.6 1589.5 1456.6 1351.2 1367.9 1373.5 1378.3 1384.5 1368.1 1427.2 1635.9 1846.2 1966.8 2194.8 2383.2 2285.8 2200.8 2303.4 2407.1 2318.8 2141.0 1933.5 1695.0 1534.8 1431.9 1347.7 1272.4 1138.6 1023.1 964.6 1018.1 1091.3 1127.8 1205.0 1324.6 1371.8 1310.1 1160.1 1034.3 1118.2 1079.0 1015.4 868.1 816.7 800.3 760.9 808.6 808.0 780.7 749.7 703.3 680.5 704.2 679.0 618.9 615.4 594.8
702.2 745.0 798.2 857.3 923.5 969.5 974.8 912.1 848.7 790.0 732.1 742.5 762.5 721.9 633.3 588.4 583.4 576.7 539.3 495.9 458.3 431.0 416.9 410.6 409.6 409.7 404.9 404.6 404.2 387.3 365.8 342.5 340.4 327.7 317.6 316.5 345.0 358.6 383.9 382.0 367.8 333.5 403.6 421.8 439.5 454.9 522.3 566.1 530.5 543.7 594.1 622.9 580.3 559.8 629.9 675.8 716.1 724.1 740.6 778.8 753.1 693.1 638.4 590.9 583.8 583.2 573.0 561.9 526.3 484.4 458.8 417.5 386.8 373.9 351.1 333.4 314.9 317.9 320.7 295.7 317.5 342.9 307.6 288.9 266.3 298.3 332.9 360.6 382.6 397.8 429.3 450.6 487.0 502.7 526.1 565.2 541.8 534.9 475.3 441.9 499.2 513.5 423.8 286.3 242.1 413.7 527.3 568.1 552.1 492.4 514.3 520.4 529.2 558.6 593.3 630.9 637.1 699.0 778.4 846.6 840.7 768.1 689.0 647.4 645.5 657.5 609.8 575.9 614.5 583.3 550.3 533.5 463.3 405.1 376.9 366.6 359.4 345.7 344.5 352.5 403.3 468.0 481.7 442.7 419.4 465.4 513.4 481.5 413.9 358.5 304.9 237.1 164.5 169.0 160.2 169.0 195.1 212.5 219.6 218.7 223.4 251.6 283.3 290.6 320.8 341.3 335.4 357.6 363.2 376.0 403.5 401.3 392.8 399.1 438.8 474.9 457.5 507.3 535.4 546.8 561.7 576.7 592.4 606.4 686.8 765.3 827.7 909.4 907.6 932.1 863.2 752.7 681.1 731.9 775.6 730.0 719.3 656.0 568.8 516.3 513.5 486.4 411.8 375.1 352.8 342.4 331.1 321.4 323.8 355.2 384.9 378.1 357.3 333.6 313.8 307.2 301.4 294.6 285.2 240.6 270.6 288.3 291.3 294.0 293.3 260.1 267.5 294.6 296.0 296.0 306.3 328.6 328.0 347.4 446.1 467.2 459.4 497.1 632.2 732.9 653.8 582.9 692.0 899.8 1068.6 1163.8 1201.8 1158.1 1221.3 1320.9 1202.1 1026.5 907.0 821.7 760.9 741.1 718.6 661.5 641.0 439.4 461.6 411.9 443.4 437.9 521.3 523.8 560.8 852.5 1059.5 1260.3 1337.6 1350.9 1379.0 1290.2 1093.3 1084.6 1173.3 1224.5 1254.5 1275.3 1192.0 1215.9 1254.7 1302.9 1328.5 1282.4 1253.2 1181.3 1095.8 1021.4 966.0 983.5 1018.9 1101.0 1170.1 1179.6 1179.6 1154.6 1128.0 1088.3 1042.3 1101.3 1284.3 1478.0 1562.7 1549.5 1492.5 1498.7 1583.2 1741.6 1764.8 1751.0 1844.9 1769.6 1658.2 1545.9 1384.1 1355.7 1365.6 1367.7 1366.8 1366.6 1363.3 1376.0 1531.5 1750.2 1859.5 2066.2 2241.1 2301.7 2291.7 2248.1 2222.7 2046.6 1848.2 1641.9 1486.3 1459.5 1418.5 1327.4 1208.8 1099.1 1030.2 1012.9 1106.7 1239.6 1318.7 1372.8 1393.7 1350.6 1155.6 1029.6 929.7 980.9 963.2 1003.0 893.2 762.6 713.1 695.1 689.0 760.6 759.7 725.7 683.2 638.0 618.1 583.4 539.6 556.7 520.5
728.1 737.5 754.7 796.2 855.4 892.7 890.2 926.7 876.1 858.1 823.4 826.9 802.8 732.4 693.2 683.2 625.4 537.1 486.8 483.3 490.2 492.0 467.6 424.6 403.5 398.6 392.9 387.4 379.7 377.2 380.2 389.7 383.9 370.2 362.0 324.3 312.6 313.0 358.6 390.1 336.5 347.1 384.0 424.6 495.7 535.9 587.8 576.7 582.5 603.7 580.7 536.4 505.3 514.8 553.8 601.4 651.0 660.5 674.3 721.3 694.0 689.2 675.4 631.1 590.3 586.3 580.5 569.3 543.5 526.5 498.3 460.8 462.5 444.0 395.2 360.6 329.8 311.0 294.7 287.4 296.5 330.0 337.5 328.3 236.6 311.0 327.4 359.0 391.0 399.4 408.7 443.4 435.8 487.4 494.0 528.6 554.7 512.0 467.9 496.2 499.2 448.2 372.6 255.7 269.9 429.5 437.2 450.2 469.4 447.3 507.7 530.3 549.8 561.1 585.6 604.2 632.7 671.9 713.2 784.5 840.2 783.3 708.5 659.4 630.3 621.3 588.3 504.8 511.9 483.9 457.4 480.3 503.9 512.3 475.9 450.5 410.1 397.4 435.2 453.1 467.8 498.7 526.6 481.7 451.1 476.3 524.4 505.2 469.3 414.0 329.1 285.4 255.3 216.4 199.1 172.7 155.6 185.3 204.2 209.8 218.2 233.2 249.1 271.2 320.4 359.3 335.6 315.8 316.8 331.8 342.5 354.2 404.5 408.9 398.9 440.4 479.1 526.0 534.0 555.4 574.1 591.2 607.8 627.8 672.5 759.8 847.8 906.8 949.2 956.3 934.9 824.7 756.7 835.0 836.8 803.5 729.5 672.3 600.0 505.4 456.9 424.6 377.3 384.1 410.6 379.3 379.0 408.6 412.5 389.2 373.1 357.7 328.8 315.9 315.3 317.7 310.3 298.4 291.7 255.8 259.4 290.0 293.4 297.2 284.0 259.5 289.6 297.9 299.9 303.7 314.0 334.4 357.8 360.2 383.4 419.0 519.4 620.5 629.9 537.1 550.8 655.2 645.7 798.5 1016.0 1124.3 1092.5 1073.7 1149.9 1158.1 1061.3 981.4 914.3 829.3 770.2 671.4 688.6 686.2 657.0 484.1 386.3 530.0 722.5 654.3 670.7 686.5 497.0 719.9 1025.3 1166.7 1180.4 1328.6 1367.2 1290.5 1062.8 935.3 1100.1 1195.0 1227.8 1259.7 1158.1 1085.6 1196.5 1222.7 1300.7 1304.5 1298.9 1213.8 1112.2 1036.9 1016.0 1002.7 961.8 1032.1 1090.2 1073.0 1058.7 1064.7 1011.8 946.6 911.8 1006.0 1126.6 1162.2 1198.0 1267.3 1403.1 1525.6 1542.9 1692.0 1792.1 1787.6 1840.2 1724.5 1521.5 1396.9 1356.8 1356.8 1358.9 1360.7 1359.2 1356.8 1362.8 1379.1 1439.7 1602.5 1713.7 1892.1 2015.8 2133.9 2184.6 2064.0 1916.8 1741.8 1566.7 1406.8 1322.6 1321.3 1314.9 1287.7 1243.0 1152.1 1091.4 1095.9 1200.2 1308.5 1407.5 1398.8 1307.3 1209.7 1021.1 927.3 848.7 858.4 912.0 958.4 840.9 745.6 681.8 647.0 613.2 668.9 745.0 741.9 722.8 704.6 659.1 616.0 575.5 509.8 473.4
830.2 792.2 750.1 766.7 806.6 849.2 874.7 896.6 940.5 939.5 929.5 900.6 832.0 793.8 772.7 705.4 638.7 606.9 552.0 568.2 575.3 516.7 456.3 431.4 422.8 413.0 398.9 392.3 395.4 406.0 409.1 391.3 381.2 390.3 388.6 368.7 343.7 312.5 331.6 367.3 316.7 352.9 389.3 427.4 485.4 523.5 561.6 624.5 633.3 587.6 504.7 471.5 516.2 582.9 629.3 612.8 607.8 634.8 686.5 701.7 659.7 635.7 661.8 671.0 634.4 603.2 595.1 598.3 548.8 522.2 463.6 425.5 407.1 424.1 424.5 394.8 374.5 340.0 316.4 287.7 274.4 297.3 345.2 352.0 258.8 230.6 315.4 385.6 372.4 361.3 366.5 378.5 403.8 460.2 490.4 461.1 467.0 509.8 456.1 396.1 379.3 338.2 343.2 238.7 250.0 291.3 340.5 391.2 410.1 450.8 510.0 556.0 571.5 587.4 619.3 638.4 648.3 666.6 698.2 761.5 806.0 754.7 757.2 744.9 685.1 680.7 613.9 602.8 514.8 507.2 572.9 593.1 572.0 568.5 508.8 438.1 399.9 447.3 511.4 554.8 591.6 622.8 597.2 542.6 498.2 483.2 496.5 487.4 523.6 462.0 372.6 346.5 314.2 278.1 240.4 215.7 179.0 155.0 189.3 206.5 213.9 234.0 257.2 307.5 348.8 318.0 282.6 293.6 331.1 330.1 363.1 402.5 366.8 390.6 449.5 497.2 514.3 513.0 532.3 551.7 571.1 578.3 600.3 672.6 698.0 724.8 784.3 836.2 902.5 999.6 1028.5 982.1 870.2 861.9 765.9 725.1 738.1 669.1 617.8 525.0 448.4 404.8 443.7 466.1 442.3 426.0 418.7 402.5 408.9 391.3 363.9 336.5 323.6 334.9 351.0 348.1 323.8 305.6 300.1 270.8 252.7 291.9 296.2 301.0 285.5 266.1 297.5 301.8 307.1 318.8 329.7 340.0 350.9 369.4 395.6 469.4 592.4 618.4 506.9 528.5 634.5 789.0 814.5 747.8 812.7 890.9 984.2 1106.6 1179.8 1062.2 926.0 889.4 939.2 843.2 747.4 691.3 516.4 414.0 398.4 397.7 459.1 712.1 847.8 754.6 843.5 724.5 479.9 667.2 916.3 1034.2 1111.0 1186.7 1206.4 1099.9 882.3 865.6 990.7 1079.0 1153.4 1188.3 1060.3 1013.6 1091.8 1206.3 1313.7 1285.1 1275.2 1198.5 1072.9 1000.4 999.7 952.0 851.2 909.2 941.8 895.8 858.2 856.4 834.3 813.0 826.2 882.3 973.9 1106.2 1245.9 1417.6 1578.2 1706.4 1717.1 1765.2 1722.2 1658.9 1689.0 1650.9 1485.7 1345.2 1351.1 1351.2 1352.4 1353.1 1353.0 1362.0 1366.6 1386.4 1399.3 1469.5 1611.1 1750.3 1849.8 1991.3 1981.8 1824.0 1665.3 1529.1 1410.6 1298.6 1221.5 1203.6 1175.6 1228.7 1317.8 1268.8 1199.5 1188.2 1292.4 1414.1 1487.0 1439.6 1275.6 1115.2 1021.0 980.7 861.3 780.3 823.1 858.0 827.5 815.2 758.6 652.6 569.5 615.2 720.4 756.4 708.2 680.1 616.3 562.3 577.7 480.8 434.9
934.2 882.5 821.9 765.9 803.7 837.9 835.7 853.8 898.6 955.6 994.8 944.8 902.5 875.3 820.2 758.0 710.2 652.1 612.5 607.9 558.3 508.1 481.5 457.0 431.2 425.1 413.5 414.2 409.7 420.0 395.7 390.8 398.5 400.8 392.7 386.6 357.1 306.6 312.0 334.7 310.3 378.8 419.0 450.7 438.9 493.1 561.6 623.4 615.5 516.4 451.6 486.0 544.7 557.8 593.7 634.9 659.1 670.1 710.8 676.4 640.1 594.3 608.8 651.2 642.1 633.9 607.5 555.8 571.5 569.3 531.1 478.0 448.3 388.7 360.5 377.8 405.9 367.5 323.5 289.9 268.4 272.5 304.9 329.5 346.8 268.2 226.0 269.8 323.6 326.2 323.8 345.8 361.2 372.9 428.6 472.9 436.8 393.0 373.7 354.7 275.7 210.5 243.9 265.7 213.8 262.0 308.7 414.1 540.1 539.0 538.1 572.7 611.2 604.2 606.6 626.3 644.2 666.6 703.9 761.2 768.1 768.1 752.6 791.6 747.3 686.6 682.0 651.2 564.7 620.6 642.2 597.7 564.2 546.0 511.9 458.6 421.6 478.5 559.4 630.0 653.9 664.2 655.6 620.7 570.7 543.5 535.2 514.6 513.3 505.1 397.5 338.0 286.7 261.4 233.6 212.0 201.9 165.7 173.0 200.5 216.1 239.7 278.7 307.3 323.8 279.4 276.2 339.2 351.9 366.7 397.0 379.9 334.5 383.9 414.7 477.5 520.5 501.2 514.4 530.6 538.8 544.3 583.6 659.2 731.1 752.6 799.3 853.9 918.0 1006.1 1081.1 1096.6 1018.5 942.5 778.6 661.0 646.0 580.5 517.2 473.7 450.8 508.0 491.2 432.0 450.6 397.1 385.5 365.5 372.7 367.6 341.9 330.2 346.8 388.8 360.5 339.8 344.6 323.6 305.1 282.9 246.7 290.9 298.7 302.3 294.3 265.6 273.1 303.9 318.1 331.7 343.5 357.8 367.9 374.2 416.6 575.8 650.2 506.7 510.1 661.1 783.5 805.3 934.5 1009.4 970.2 1024.9 1161.2 1174.5 1110.5 919.2 836.9 831.5 960.9 841.0 703.0 616.5 463.1 487.3 482.6 450.2 454.9 663.0 791.2 843.2 959.7 823.1 565.2 504.0 761.8 989.7 1105.4 1156.4 1107.4 1002.9 731.2 870.4 1080.4 1175.8 1189.8 1145.5 966.0 869.3 1016.1 1178.6 1266.2 1179.2 1175.7 1147.6 988.2 922.8 888.6 790.4 740.0 788.2 818.5 755.4 746.3 763.2 758.0 760.9 817.7 931.4 1060.7 1189.2 1312.1 1479.7 1619.4 1712.3 1767.3 1759.6 1635.6 1513.8 1444.5 1455.7 1363.9 1316.2 1344.4 1345.9 1347.2 1353.5 1375.4 1378.4 1390.0 1420.9 1428.2 1442.0 1499.7 1675.2 1853.9 1879.7 1722.2 1650.9 1543.4 1426.5 1340.9 1222.1 1141.0 1107.9 1097.2 1203.6 1281.2 1317.9 1293.9 1307.2 1393.5 1432.7 1395.1 1358.8 1315.7 1199.1 1174.4 1127.8 970.5 845.0 792.1 759.9 754.5 813.9 797.6 694.9 588.9 563.5 598.1 640.0 659.0 592.4 526.7 471.8 484.3 446.0 405.2
974.9 920.3 850.8 792.8 798.6 825.7 848.3 859.5 883.0 896.7 921.5 907.5 900.7 852.1 792.5 716.0 642.6 565.6 524.9 501.3 493.6 534.9 552.0 499.5 459.5 457.1 456.8 450.5 422.4 406.1 397.2 408.5 386.0 371.9 356.0 337.9 333.7 311.7 303.5 302.0 307.1 367.1 401.9 379.7 407.5 463.3 520.7 591.8 586.0 560.0 450.1 456.5 495.9 574.9 638.4 635.7 638.0 662.2 720.1 696.5 646.6 565.2 520.8 560.4 603.3 606.9 606.3 607.5 653.6 644.0 594.9 539.5 499.7 438.2 381.3 333.3 364.0 390.7 353.0 316.2 287.6 261.3 261.1 303.6 344.5 379.0 271.5 214.9 258.8 308.5 311.0 317.6 334.2 323.8 353.8 393.4 428.0 440.1 418.1 366.9 284.3 192.9 204.0 210.5 308.3 426.9 447.4 512.0 543.5 544.4 526.3 565.0 589.8 571.1 652.0 645.9 668.3 710.6 745.4 730.2 709.8 697.4 682.2 730.6 736.8 692.8 710.9 671.4 626.4 628.8 630.1 604.1 579.4 533.1 516.9 458.7 457.7 498.1 569.3 614.3 612.0 616.8 615.6 619.9 628.5 608.5 544.2 492.6 454.4 454.6 428.5 390.1 317.6 267.6 232.4 209.7 188.9 158.3 162.0 170.0 188.1 251.2 297.6 274.2 284.4 258.5 281.6 313.4 289.5 315.8 355.3 318.1 327.9 364.7 393.6 451.0 507.0 505.9 491.2 504.7 507.2 518.5 545.2 616.6 673.5 690.9 755.1 805.7 850.2 933.6 1033.1 1073.8 1036.3 997.0 819.7 678.8 618.9 600.3 543.7 480.1 500.3 561.3 502.0 420.9 407.7 378.4 376.3 372.7 356.2 342.7 340.2 366.6 399.7 372.2 376.3 379.2 370.9 335.1 314.4 306.3 252.8 268.4 299.2 302.9 305.0 296.0 269.5 290.9 325.2 339.7 352.3 368.7 383.7 398.9 481.2 533.8 509.3 461.6 579.9 750.4 916.2 1001.0 988.8 1065.3 1187.4 1166.1 1175.4 1033.1 920.8 804.9 751.9 754.9 915.4 792.4 598.0 411.7 439.4 651.8 827.0 676.8 476.2 467.4 639.4 843.8 1030.9 1003.6 841.0 583.3 620.0 919.7 1023.6 1056.9 1025.8 882.5 654.6 838.5 926.9 958.5 931.0 945.3 909.9 784.3 965.7 1075.9 1096.4 1076.3 955.3 970.4 863.8 773.7 697.2 656.9 654.9 661.3 681.2 685.2 694.3 697.9 722.9 758.0 785.6 856.0 931.5 1028.6 1164.5 1310.9 1474.9 1660.7 1763.9 1689.7 1585.9 1426.3 1359.1 1351.3 1333.7 1305.4 1315.8 1343.3 1348.7 1359.7 1423.0 1393.0 1403.7 1395.5 1420.8 1428.5 1472.5 1633.1 1760.1 1698.5 1631.8 1513.5 1443.4 1369.8 1317.7 1210.6 1089.3 1038.9 1063.7 1175.7 1212.0 1238.3 1276.3 1354.6 1400.5 1296.2 1211.7 1164.9 1147.4 1202.4 1257.6 1233.0 1079.3 957.0 874.6 772.5 682.8 694.8 676.5 625.7 587.9 553.8 497.8 492.9 514.2 484.4 457.8 427.3 474.9 455.1 456.2
943.9 901.9 846.2 839.2 854.8 861.6 889.3 920.7 922.3 875.3 835.9 818.9 795.7 754.8 706.9 647.5 629.8 650.4 667.6 617.0 543.3 462.2 458.7 434.3 420.7 427.2 468.2 454.2 422.1 407.7 403.6 396.1 374.6 338.1 323.3 335.7 335.3 326.1 310.8 301.9 305.3 339.8 361.7 371.5 409.4 445.6 485.6 529.2 532.9 501.0 413.1 466.3 536.8 586.7 631.0 690.0 736.3 697.4 710.4 683.1 617.2 535.5 459.7 477.3 524.0 513.2 541.9 598.4 664.5 679.0 654.3 615.6 543.0 488.0 437.9 364.3 304.1 334.0 325.0 303.7 309.0 280.8 252.3 252.5 312.9 376.0 310.2 214.3 240.1 307.0 284.0 320.6 306.6 306.7 335.3 322.7 351.5 372.4 430.1 418.8 314.1 195.5 268.6 349.6 425.5 457.3 492.1 516.3 521.8 510.2 504.4 549.7 533.6 595.6 636.6 649.0 700.5 729.9 731.8 683.3 655.0 637.9 645.3 649.6 737.4 685.8 685.9 648.8 630.2 620.0 613.0 578.0 569.0 513.0 491.5 522.7 517.5 600.5 629.4 642.9 618.8 562.0 544.9 535.5 555.8 588.6 530.8 490.6 453.1 417.1 414.2 369.9 307.4 284.2 231.5 170.1 155.2 170.6 197.7 214.2 187.1 196.5 262.9 266.8 241.4 247.4 252.7 257.3 268.2 306.9 299.5 296.2 338.8 361.4 378.9 411.6 470.2 511.0 480.5 474.5 481.4 502.3 527.2 554.1 593.8 643.2 692.9 779.4 849.3 876.7 901.0 944.9 969.5 1003.5 872.4 739.7 654.3 596.5 536.6 513.0 549.2 552.9 485.7 428.5 403.0 410.4 419.6 406.3 382.8 348.7 355.7 418.3 428.0 405.1 435.0 383.5 345.5 347.5 350.0 320.3 288.7 254.3 285.3 303.6 306.6 310.2 285.3 290.6 325.6 341.2 346.8 338.4 354.0 372.2 389.5 406.7 423.1 486.7 630.1 793.2 929.3 1009.0 1091.1 1144.0 1159.7 1169.9 1111.0 946.6 794.9 688.2 634.7 668.5 750.7 634.3 449.3 476.9 756.0 924.3 1021.4 837.6 622.0 462.2 658.1 876.8 1014.3 1084.5 960.8 675.2 500.0 651.2 678.3 702.2 819.6 728.4 590.8 621.1 650.2 681.9 652.9 686.5 695.0 731.5 920.2 951.8 856.3 859.9 813.4 702.5 686.8 634.2 599.0 607.6 593.9 594.4 602.1 641.2 652.3 674.2 727.5 736.0 754.0 790.3 831.9 970.8 1158.4 1353.2 1530.3 1648.5 1729.8 1646.5 1469.5 1377.7 1371.0 1352.6 1342.6 1327.1 1304.6 1318.5 1349.5 1367.2 1351.6 1335.8 1376.8 1349.0 1374.1 1385.4 1442.7 1531.6 1635.9 1574.5 1527.2 1397.5 1322.2 1254.6 1216.8 1188.5 1053.4 983.5 1011.5 1118.3 1153.7 1204.4 1279.2 1357.8 1390.7 1289.6 1181.8 1043.1 994.2 1020.9 1092.4 1160.6 1065.9 1076.8 1028.5 910.7 812.6 763.4 703.0 658.6 655.9 588.5 474.3 474.0 469.3 482.4 466.0 450.0 521.4 568.6 603.9
920.9 904.0 873.9 871.3 894.4 908.0 934.3 952.7 932.2 823.3 780.1 764.6 742.0 721.3 681.0 694.4 728.3 758.3 718.9 648.1 575.7 504.4 529.2 552.6 510.9 430.7 392.3 399.8 414.1 410.0 392.3 366.4 341.8 329.4 359.8 394.9 390.6 376.4 356.8 315.7 296.8 321.0 333.9 346.5 361.6 393.2 441.4 454.1 490.1 414.9 401.5 466.5 560.3 614.1 645.9 710.7 719.7 646.9 634.3 659.8 582.4 495.7 431.3 405.5 457.1 423.7 476.5 547.7 567.4 568.1 620.5 630.3 598.5 555.7 476.0 407.4 340.3 297.7 272.6 259.9 255.8 271.7 253.2 240.5 253.2 286.2 291.0 211.3 228.7 309.2 270.6 310.1 272.9 294.4 292.9 301.8 301.9 309.6 359.8 403.3 319.2 203.6 188.7 213.8 336.5 407.0 464.1 485.6 507.1 476.9 475.2 506.7 561.6 594.9 597.8 606.9 635.4 681.3 683.3 665.7 608.9 593.7 616.9 593.7 673.7 638.4 623.2 607.4 620.3 614.1 584.3 561.6 562.0 582.5 519.3 531.8 552.5 635.5 666.3 632.9 627.3 574.1 518.8 483.2 459.6 483.7 446.7 458.3 420.0 371.7 343.6 329.5 254.6 180.6 164.1 163.9 204.6 237.7 288.0 326.4 282.1 227.1 224.4 231.8 244.7 299.2 313.2 297.2 270.0 266.0 275.4 292.2 302.4 344.6 377.6 440.3 486.1 506.1 499.0 458.3 435.8 476.5 500.9 524.4 546.1 607.4 654.4 725.6 772.9 857.3 909.8 1003.7 1093.7 1087.3 939.6 800.7 685.5 621.2 562.3 520.6 517.5 521.3 494.4 462.0 436.5 422.5 396.1 382.7 368.8 352.8 368.3 425.9 438.3 439.0 410.0 386.5 402.9 399.0 359.0 325.8 315.9 275.7 265.8 305.3 309.0 312.4 286.5 276.6 309.7 321.4 313.2 336.0 379.4 398.2 430.0 479.0 518.7 575.1 729.5 918.7 1048.2 1063.2 1141.3 1157.6 1117.1 1023.8 970.4 910.2 800.5 662.5 515.0 582.7 468.5 403.9 496.3 568.4 852.3 1104.6 1190.8 957.9 738.6 531.9 547.8 825.2 1032.4 1126.3 1045.1 865.0 662.1 642.2 652.1 574.5 570.5 568.6 593.1 592.2 541.2 611.3 669.9 625.4 572.1 611.2 701.8 645.5 595.7 595.0 595.9 614.5 615.7 696.4 775.4 852.9 747.3 645.6 621.3 611.0 633.6 678.3 695.3 707.7 721.8 738.3 758.6 850.0 1035.1 1222.8 1343.5 1504.3 1659.6 1687.5 1529.7 1415.1 1507.0 1386.0 1339.8 1339.0 1324.0 1304.6 1336.0 1457.9 1452.0 1442.8 1450.8 1366.3 1361.9 1393.5 1510.4 1632.6 1624.1 1670.7 1508.9 1305.1 1203.2 1127.2 1098.3 1062.4 962.3 945.6 1000.3 1025.2 1111.9 1212.4 1205.2 1213.2 1230.8 1270.5 1225.6 1064.3 966.9 887.6 911.8 984.9 938.9 975.3 1016.5 1046.3 938.5 857.6 783.6 691.5 591.6 516.2 493.3 508.2 545.9 561.3 559.2 503.4 561.3 611.1 714.2
862.7 872.0 850.5 818.4 839.1 877.8 882.4 891.5 926.6 935.7 822.7 826.1 797.6 787.0 784.6 808.1 815.5 781.6 717.6 671.2 613.5 572.2 632.7 610.7 543.4 469.2 426.2 385.0 369.8 363.5 351.5 346.9 346.5 372.9 384.8 396.5 428.7 439.7 407.9 362.7 313.4 292.3 307.4 322.3 333.2 360.5 413.0 414.4 414.7 369.8 400.2 459.7 527.0 562.3 597.4 673.9 650.9 587.2 597.7 635.7 567.5 489.1 407.0 352.2 381.0 354.3 419.3 464.8 467.2 455.7 491.7 544.6 597.3 596.8 555.9 485.6 443.9 375.1 305.9 246.3 208.4 198.1 194.8 206.3 226.0 233.2 245.1 203.2 225.5 297.5 266.4 269.3 260.9 284.0 319.8 314.5 288.5 263.0 296.1 319.9 328.4 313.5 305.5 192.8 250.0 355.8 423.8 476.6 420.7 437.8 448.2 491.4 542.9 581.3 566.4 581.6 615.2 677.2 714.6 629.7 590.7 561.6 580.7 549.8 588.9 578.5 583.7 578.5 594.5 608.2 581.9 548.0 572.8 602.6 581.9 571.3 607.0 672.1 672.0 601.2 599.0 551.2 503.0 465.2 431.8 394.4 361.6 386.3 382.4 338.8 290.5 250.7 167.9 231.5 241.9 249.0 306.0 321.2 374.8 394.0 304.9 285.8 264.3 248.7 248.5 254.7 274.3 317.2 327.3 292.4 276.2 321.9 358.1 371.6 424.3 471.7 504.4 483.1 486.2 472.0 421.0 386.6 454.2 475.8 491.0 534.0 590.8 672.9 812.3 791.9 840.7 987.2 1139.4 1138.7 1069.5 895.0 759.7 653.2 568.1 523.9 501.7 526.6 473.7 431.0 415.4 407.4 391.3 397.9 386.2 362.7 377.5 419.1 423.7 403.7 388.9 390.9 393.3 359.1 350.5 355.9 327.8 300.2 265.8 308.0 312.7 311.8 303.9 273.0 276.5 290.3 310.7 352.3 370.6 394.5 495.7 561.6 567.6 637.5 806.2 992.5 1086.9 1072.2 1147.3 1192.2 1197.3 1126.8 989.2 853.0 707.4 635.9 478.3 377.6 419.0 627.1 736.4 777.9 806.7 1047.2 1218.9 1072.1 867.3 635.1 509.8 751.4 969.4 1131.9 1079.9 969.0 977.9 963.4 887.3 927.2 956.7 894.0 825.8 820.4 785.7 840.0 877.6 904.8 751.5 562.7 625.6 711.0 762.4 755.4 789.3 822.9 823.1 934.5 1037.8 1030.6 868.4 689.6 657.0 628.8 650.0 668.2 673.9 683.8 697.7 709.4 725.4 785.2 895.9 1019.3 1175.1 1387.7 1584.7 1680.5 1601.8 1489.0 1549.9 1432.9 1332.6 1337.1 1338.4 1330.3 1401.0 1570.2 1614.3 1518.4 1436.3 1391.2 1399.7 1461.2 1578.6 1657.4 1618.5 1627.5 1490.5 1283.2 1135.7 1023.2 994.7 961.0 883.8 933.3 935.6 963.7 1056.6 1136.7 1085.4 1042.6 1113.5 1226.5 1180.2 1119.0 1047.5 928.9 849.2 809.2 796.0 823.1 898.1 988.3 955.1 797.7 687.3 587.1 515.3 510.9 520.2 544.0 608.8 660.7 677.1 588.1 569.8 649.4 775.4
788.4 801.6 775.5 735.2 736.0 762.5 794.2 839.5 894.6 982.5 1032.3 932.5 901.0 872.7 887.4 933.8 891.9 846.2 794.1 740.8 682.0 643.1 637.6 580.3 513.9 469.2 441.2 428.4 409.1 393.5 383.7 385.6 401.7 417.3 413.3 423.8 439.1 467.9 442.0 393.7 368.3 326.1 295.1 286.7 294.8 324.5 342.5 374.6 370.0 358.6 368.8 394.2 438.8 471.6 535.3 600.9 560.3 519.0 558.1 609.5 547.1 482.5 414.4 328.0 281.7 263.2 288.6 294.5 330.8 370.3 394.0 447.8 531.1 584.9 535.6 477.6 408.2 341.6 258.6 212.1 215.7 244.9 227.2 193.7 187.9 205.2 206.1 187.7 183.1 222.9 271.9 235.7 266.9 302.5 298.8 308.4 299.5 280.6 251.4 250.2 279.8 283.7 286.7 183.8 284.6 375.9 391.2 396.6 408.4 430.4 415.3 451.1 507.6 534.4 522.7 563.9 595.8 638.6 695.0 663.3 575.6 532.7 571.7 548.7 518.8 541.9 564.8 544.4 564.8 578.8 483.9 481.5 568.5 595.4 614.1 615.8 630.1 670.5 637.2 580.4 543.6 537.7 482.1 442.4 403.1 379.5 326.9 315.8 318.0 304.7 286.3 234.1 161.0 243.2 310.7 332.0 338.4 368.3 403.3 386.0 359.6 344.5 325.3 302.8 271.3 285.9 259.7 274.2 326.2 310.6 277.9 314.7 367.2 396.9 416.1 456.0 447.9 432.3 458.8 453.7 428.9 348.7 404.8 436.5 451.2 489.8 529.2 594.4 657.3 702.6 777.9 929.4 1083.6 1111.9 1084.0 983.6 811.9 709.0 651.8 569.5 558.9 568.9 501.8 459.2 449.3 442.1 426.1 411.2 384.4 370.7 390.4 423.3 430.1 438.0 442.6 426.1 403.9 389.9 378.8 353.6 326.3 306.7 268.9 314.6 313.5 314.1 311.3 279.0 277.5 283.9 298.5 314.2 331.3 358.2 409.9 438.1 495.1 599.1 731.0 894.6 1013.7 1009.4 1086.0 1186.2 1204.9 1150.9 999.3 824.4 662.5 598.1 454.3 394.7 672.9 902.6 1015.5 952.6 844.4 986.1 1139.8 1041.8 755.8 665.1 554.8 676.0 915.6 1095.2 1120.0 1103.7 1112.8 1063.0 1033.2 1066.9 1128.1 1028.2 939.9 966.9 874.5 881.6 811.3 718.9 578.9 661.0 883.4 961.0 953.4 971.2 978.6 985.5 995.2 1075.0 1120.0 1048.7 859.0 726.0 679.0 648.5 657.4 682.2 683.0 688.7 716.6 715.3 726.5 762.4 821.7 925.7 1076.2 1266.3 1460.5 1585.3 1638.2 1598.9 1602.8 1561.2 1344.4 1316.8 1340.0 1386.1 1475.0 1553.6 1499.5 1458.0 1404.8 1406.3 1437.0 1520.1 1627.5 1622.9 1675.6 1618.4 1533.2 1358.5 1199.2 1046.8 946.7 893.8 834.3 831.4 813.1 820.7 853.4 919.8 905.0 989.4 1053.1 1103.5 1066.9 992.3 954.9 918.0 922.2 876.6 787.5 726.3 794.5 884.0 847.8 704.0 629.3 515.1 528.9 610.8 621.5 600.0 638.8 729.3 756.9 664.1 664.2 668.8 726.6
706.6 721.6 683.9 643.8 647.4 692.9 745.9 808.9 873.4 974.1 1061.4 1114.4 1012.0 978.6 1058.7 1091.9 1019.0 904.8 816.8 750.8 708.8 685.8 631.6 578.7 525.8 474.3 431.3 428.3 414.4 419.9 398.2 391.7 396.9 416.4 435.3 472.8 462.1 449.0 446.8 417.0 369.7 374.4 358.7 328.2 288.1 285.8 290.6 314.1 338.0 342.5 343.4 351.7 371.2 409.4 469.0 515.2 469.5 460.0 532.7 560.2 511.0 425.6 351.8 279.4 268.1 317.0 324.6 305.4 259.7 261.4 288.4 374.0 443.5 447.4 430.6 385.0 290.6 218.0 243.4 267.2 285.3 342.3 326.5 264.1 202.6 182.1 179.2 184.6 192.4 176.2 209.9 229.7 261.4 269.5 284.9 270.2 278.6 259.0 257.0 243.3 230.3 195.5 173.9 212.5 320.3 300.7 298.5 370.4 443.2 395.4 385.2 436.6 466.3 486.5 507.0 563.9 581.4 610.9 660.5 662.1 580.7 513.4 513.0 520.5 485.3 517.4 499.5 525.0 562.1 544.9 415.7 474.8 554.2 591.4 616.2 592.3 601.3 634.3 620.8 574.1 501.1 483.4 454.2 420.2 364.1 326.3 302.2 240.4 272.5 244.8 215.6 175.4 154.6 216.3 275.0 304.7 256.6 293.3 306.7 296.4 284.5 280.9 330.6 340.6 333.7 337.1 282.2 271.2 322.7 343.6 296.6 290.6 313.0 340.4 393.6 394.6 378.1 384.4 431.8 408.1 365.6 327.4 387.1 410.7 424.7 462.5 509.9 553.1 611.9 771.5 793.7 904.0 1012.1 1025.2 1057.6 1102.7 966.2 786.5 694.1 605.2 542.9 512.2 540.0 526.0 464.5 443.8 429.2 426.5 395.5 377.6 401.3 433.1 418.5 399.8 390.3 381.9 370.3 355.0 345.5 336.9 327.7 303.0 274.6 315.2 322.0 316.2 316.1 310.2 285.7 287.9 309.9 332.9 387.5 388.4 408.6 481.6 566.1 565.6 610.8 727.0 868.3 985.1 1044.7 1091.6 1124.1 1107.7 925.8 685.7 560.9 520.8 393.9 509.9 761.4 1019.1 1126.5 1011.3 1040.4 1092.1 1130.6 982.7 828.5 927.2 688.4 616.2 813.6 955.1 1054.9 1134.1 1194.9 1151.6 1161.1 1192.3 1182.3 1112.7 1074.0 1019.1 873.3 731.2 587.5 604.7 700.8 745.8 883.3 978.5 1037.6 1048.4 1042.0 1051.9 1084.2 1120.1 1137.5 1088.5 916.6 805.6 712.6 671.3 656.3 671.9 711.8 763.5 785.1 814.5 780.0 757.2 801.5 887.3 1027.0 1260.0 1461.3 1563.6 1618.5 1656.8 1650.4 1576.1 1391.0 1316.5 1392.7 1431.1 1387.0 1374.3 1379.6 1409.3 1419.6 1438.5 1472.4 1570.9 1689.7 1741.7 1676.0 1584.0 1510.6 1415.8 1269.6 1094.6 945.3 857.4 796.2 796.9 828.4 814.9 778.3 763.0 782.2 859.4 900.5 949.5 988.3 946.0 880.3 809.1 815.1 887.3 794.1 662.0 714.9 772.5 785.9 666.1 577.9 526.9 590.5 687.7 740.4 720.4 691.5 748.4 830.0 750.8 786.3 808.7 797.9
619.1 614.6 587.7 590.9 616.7 675.5 729.0 775.8 825.6 925.5 1021.6 1088.2 1051.4 1072.5 1066.9 1017.5 957.4 886.9 816.3 747.9 697.9 676.5 649.3 629.6 581.4 505.6 447.9 455.3 456.2 453.9 432.2 402.6 404.2 410.5 444.3 452.5 443.8 420.2 415.7 432.0 433.1 441.7 415.7 385.1 339.5 310.9 290.0 282.5 307.1 314.4 315.0 330.1 337.0 362.6 395.6 409.9 387.4 435.0 504.2 492.4 468.1 382.7 272.0 294.4 348.7 418.9 450.8 414.7 368.3 333.2 249.0 257.9 294.3 315.4 312.2 300.2 232.5 250.2 331.5 376.3 361.8 401.7 362.7 314.2 263.0 216.7 214.1 215.0 210.4 193.0 169.7 197.2 220.1 258.6 274.1 237.8 284.2 286.5 250.4 229.6 203.3 159.9 177.1 248.8 287.2 251.0 348.1 406.5 431.2 357.4 368.2 398.8 431.6 448.2 533.4 559.7 625.4 702.2 721.3 671.4 633.5 566.3 503.2 465.1 456.3 451.0 499.9 527.4 505.8 508.5 383.8 425.3 521.8 583.8 603.3 551.9 521.6 554.6 580.6 581.4 495.5 400.3 367.5 363.0 349.6 301.8 267.2 232.5 197.5 172.0 155.2 166.9 162.9 166.9 182.3 194.4 182.2 189.5 188.4 189.7 205.8 257.3 293.5 283.5 325.8 355.3 299.1 268.1 296.4 339.2 335.1 291.6 308.9 360.4 355.7 330.9 340.3 387.7 415.1 378.7 317.3 327.6 390.4 399.0 417.9 444.3 484.9 518.9 606.5 744.8 854.9 888.3 958.9 1029.5 1057.4 1083.0 1010.2 827.9 692.7 603.8 555.2 535.8 532.0 515.5 487.0 471.1 424.7 406.5 421.9 398.1 405.3 447.1 420.9 410.4 406.1 394.2 373.7 375.8 362.4 340.0 333.1 286.8 279.9 302.7 340.6 330.5 324.1 329.7 318.2 294.3 331.7 348.4 407.5 477.1 531.5 590.4 661.9 676.0 644.9 731.2 931.8 1031.0 1047.6 1041.7 1004.6 988.4 835.4 691.6 566.6 411.9 384.0 614.8 790.6 981.9 1115.1 1079.7 1137.4 1170.7 1108.9 1052.3 1166.3 1101.4 880.2 648.9 655.8 864.1 985.9 1086.1 1139.0 1116.0 1177.2 1197.3 1181.1 1128.6 1023.5 953.0 822.6 614.8 641.0 684.0 898.4 947.6 936.7 925.7 968.8 1042.9 1081.5 1089.8 1102.2 1129.5 1161.5 1155.9 1064.4 917.2 760.7 710.4 675.2 685.8 699.3 709.8 711.2 784.7 886.1 873.0 858.1 915.7 1005.0 1160.9 1301.1 1374.9 1450.9 1443.2 1560.5 1565.8 1475.3 1466.2 1442.0 1383.8 1364.4 1381.9 1480.7 1491.7 1486.1 1538.2 1510.8 1586.1 1696.1 1757.6 1677.0 1540.9 1426.7 1337.6 1186.5 1037.6 875.0 824.5 848.4 927.6 982.3 948.5 870.7 864.9 776.2 743.6 722.5 752.0 793.3 796.6 766.3 727.1 702.3 708.9 706.2 633.9 634.1 620.6 621.7 588.5 535.2 574.6 642.2 669.9 764.5 809.9 812.3 802.2 875.4 831.5 868.2 956.1 953.8
528.3 544.1 571.1 595.3 640.4 675.4 700.1 731.6 801.7 882.0 969.5 1004.9 977.4 1005.2 969.0 936.9 873.8 816.6 770.7 715.8 662.0 614.9 593.7 585.8 556.4 490.5 458.7 481.6 456.1 438.5 422.0 411.3 411.7 429.2 477.0 473.9 443.0 438.2 427.3 406.7 402.3 419.2 445.4 389.0 372.3 369.0 302.9 281.5 287.5 283.6 278.6 280.6 290.3 290.2 295.1 320.8 340.1 390.7 413.9 417.6 394.8 328.9 267.5 345.9 410.0 475.5 522.4 494.3 472.5 455.6 366.1 310.1 275.1 252.7 248.0 251.5 288.8 336.2 380.6 446.2 473.4 429.5 389.9 341.0 295.0 261.2 255.2 236.7 213.6 205.4 174.6 167.2 177.6 187.7 223.0 221.7 243.6 270.4 288.8 226.5 204.7 172.0 159.8 205.6 194.0 219.2 323.0 385.0 374.2 327.1 370.0 391.3 426.8 475.4 524.7 553.6 598.1 656.7 674.2 628.0 592.0 570.0 537.6 486.6 421.0 358.1 393.3 457.8 440.8 472.7 345.4 420.7 536.4 582.1 588.3 553.7 460.6 474.0 518.3 557.9 523.7 460.7 380.3 304.0 274.1 261.2 201.7 166.0 165.8 227.1 247.7 243.1 242.3 211.5 212.4 265.7 293.6 242.6 221.1 190.5 190.1 204.8 243.5 271.0 307.7 360.4 338.2 313.0 274.3 305.5 352.3 331.0 300.7 309.4 308.7 325.2 357.4 407.3 395.8 346.8 291.7 317.2 370.2 379.1 398.6 421.9 444.1 469.9 564.8 680.2 834.6 935.3 967.3 1024.6 1016.6 1033.0 1032.8 903.9 748.9 641.8 575.6 525.7 491.4 478.3 486.4 466.5 438.9 449.9 472.6 420.4 424.1 457.8 443.3 441.7 428.7 413.6 396.4 378.9 360.8 357.6 298.8 282.1 303.2 296.0 335.5 362.7 340.6 341.1 339.9 312.3 332.0 361.1 380.0 417.9 496.6 632.3 744.1 809.6 768.8 773.9 899.3 1034.4 1007.5 1000.8 838.6 747.4 668.6 642.4 548.8 359.9 405.7 576.0 722.2 889.9 1063.2 1119.5 1166.5 1191.7 1142.4 1135.7 1213.3 1182.5 1008.5 783.0 608.4 843.6 994.6 995.7 1031.0 1122.9 1173.3 1190.8 1154.4 1065.4 998.4 864.8 740.3 586.5 760.5 873.7 852.0 918.2 950.5 966.8 978.8 1022.4 1047.8 1117.6 1179.0 1185.3 1193.3 1232.1 1151.3 968.9 845.4 744.3 693.4 707.1 715.7 718.7 732.3 736.2 851.7 856.9 827.0 841.6 920.4 994.0 1094.6 1233.0 1251.3 1323.0 1482.5 1564.5 1614.7 1581.8 1464.8 1443.1 1418.3 1457.4 1542.8 1577.5 1555.7 1626.4 1598.9 1672.2 1724.2 1723.2 1635.1 1494.2 1336.5 1196.9 1046.4 916.2 802.7 866.6 949.6 1026.6 1093.5 1030.8 1005.0 1011.2 927.8 802.4 755.8 750.6 741.0 700.7 685.0 691.6 661.2 636.9 660.1 609.9 616.1 647.8 694.1 678.9 571.5 617.9 730.5 754.9 782.9 782.8 856.4 913.9 951.2 930.1 995.2 1055.0 1063.0
502.0 553.7 580.0 592.5 626.4 665.2 697.6 746.9 854.3 931.2 963.4 956.3 878.8 916.5 906.4 863.8 808.3 771.5 731.9 685.0 651.1 657.4 626.3 576.9 560.0 550.7 523.1 522.8 483.8 463.9 454.5 458.2 465.1 469.2 514.5 512.7 508.6 497.3 484.3 475.3 432.0 414.4 395.2 426.2 430.9 344.6 293.2 336.4 395.6 389.6 351.4 291.1 275.0 285.2 283.0 271.8 276.0 280.0 285.9 309.0 308.8 267.7 306.0 375.9 445.1 514.0 586.2 590.2 588.2 574.9 484.0 433.7 385.0 379.4 394.3 380.9 396.0 449.9 510.6 536.7 530.4 502.9 444.0 375.1 330.0 288.9 257.8 237.1 229.2 229.6 210.7 184.9 171.2 161.6 160.2 179.4 218.6 274.5 269.9 237.0 217.1 203.7 172.8 173.9 176.4 164.9 299.9 325.1 295.4 327.4 366.7 389.9 430.4 476.1 485.7 533.1 579.6 614.4 584.6 548.9 538.9 516.0 526.6 523.4 519.0 388.0 274.7 413.0 380.4 408.5 331.7 368.6 445.0 545.7 570.9 541.5 429.2 404.3 428.3 424.9 429.5 403.4 325.8 275.6 175.6 158.0 171.1 201.6 251.2 310.9 339.0 312.3 304.3 274.0 254.6 288.5 341.5 358.5 291.4 206.3 221.8 198.9 214.0 283.8 309.3 328.2 339.7 346.9 303.8 287.7 332.0 362.8 344.1 307.4 336.5 347.1 360.1 407.1 390.2 337.2 276.8 306.3 347.7 358.3 376.6 395.6 414.6 425.0 524.9 672.5 809.8 958.0 937.1 971.5 964.0 968.0 952.5 933.3 878.7 777.7 652.0 575.0 525.5 489.9 454.7 460.9 464.2 437.5 462.6 452.0 432.7 449.3 447.6 426.9 409.5 393.4 401.3 401.3 383.7 310.0 301.8 331.9 339.6 308.3 335.7 382.7 359.5 349.9 354.3 342.2 342.2 383.7 394.2 441.3 572.0 726.7 821.7 818.3 830.1 812.8 795.8 906.1 854.7 817.6 720.1 601.2 510.0 538.8 434.0 347.8 411.2 480.7 577.7 741.6 892.4 1120.2 1166.3 1180.9 1184.1 1143.9 1184.4 1193.6 1059.4 842.5 624.2 754.0 1024.1 1206.3 1162.3 1100.9 1111.2 1127.0 1104.0 1024.3 942.9 897.2 767.4 595.0 762.9 946.8 946.1 909.9 930.4 940.6 947.8 948.2 974.9 1008.7 1075.7 1150.7 1184.7 1202.0 1211.9 1132.4 1060.5 911.0 745.1 713.7 756.6 740.3 741.3 744.3 749.3 779.3 811.8 811.4 829.7 871.4 915.5 976.4 1059.8 1277.8 1474.1 1546.3 1588.0 1602.4 1616.6 1589.0 1533.5 1503.4 1569.3 1608.8 1638.5 1634.7 1683.2 1732.0 1715.6 1671.4 1566.2 1378.4 1197.7 1044.2 908.2 826.0 831.1 928.5 1032.9 1090.0 1124.4 1085.0 1131.4 1131.7 1095.5 963.8 901.5 916.4 911.2 877.3 833.1 851.8 843.6 797.7 696.4 675.3 748.4 864.5 870.9 776.4 671.8 635.2 729.8 816.9 896.2 866.9 836.6 894.7 953.6 1010.7 1088.3 1140.6 1125.8
484.3 523.3 542.3 588.7 618.7 667.3 719.2 794.1 873.8 950.8 993.1 891.1 833.7 827.0 819.6 801.8 771.2 740.5 714.0 726.1 704.6 670.6 630.1 584.0 549.5 544.3 538.3 533.0 531.3 544.1 538.0 525.5 507.6 489.4 505.9 516.2 511.6 504.9 498.8 494.3 485.7 473.7 382.9 344.1 340.9 315.5 351.1 419.2 461.3 460.2 434.3 320.1 331.3 361.4 344.2 325.4 345.8 356.4 334.8 310.5 278.2 315.3 385.0 435.2 483.0 548.3 621.3 629.4 623.4 612.3 571.2 518.0 482.4 498.7 546.5 546.4 504.4 542.9 546.2 529.9 563.4 557.8 476.5 406.4 350.8 315.6 279.7 265.3 275.8 265.7 239.5 214.5 205.2 195.1 172.3 155.9 158.8 198.3 236.6 263.5 258.2 240.6 225.5 262.7 194.8 187.7 336.6 272.4 300.0 319.4 344.1 356.5 416.7 441.6 518.6 574.7 596.5 589.9 558.8 522.7 479.7 507.9 514.9 532.4 528.0 376.8 237.1 350.5 352.6 312.3 351.7 319.2 399.8 443.7 468.8 511.7 429.9 376.7 376.0 341.9 338.7 341.8 249.3 156.7 180.9 277.8 281.5 302.3 303.0 340.7 391.6 388.3 358.0 329.1 320.6 337.7 376.3 335.2 289.5 216.3 258.7 268.5 215.7 209.8 234.5 257.7 302.4 334.7 342.1 318.8 299.7 324.6 375.5 344.6 325.4 378.5 404.8 392.2 361.6 320.0 269.9 299.8 330.0 345.8 355.4 373.4 387.7 391.7 453.1 623.3 767.4 916.8 942.8 939.4 961.4 951.3 952.9 919.4 833.6 748.2 661.1 594.4 543.3 499.1 470.5 443.0 446.1 432.4 427.1 421.1 410.0 421.4 436.2 452.9 429.5 438.7 416.0 380.1 333.9 303.6 332.4 346.0 353.7 338.6 335.3 392.2 370.2 363.2 381.0 353.0 397.8 489.0 485.3 496.6 622.2 688.8 705.0 785.0 796.5 770.4 679.3 690.4 671.8 627.5 582.7 526.5 435.9 352.8 383.2 413.0 493.1 592.2 708.3 877.6 882.0 1045.5 1187.7 1199.3 1186.0 1189.1 1205.3 1174.5 1016.3 870.5 663.1 765.7 1016.7 1272.9 1393.8 1310.5 1162.5 1061.0 1058.0 1010.7 971.6 901.5 721.9 595.2 767.0 941.8 961.3 941.0 929.1 961.5 963.2 937.2 936.1 951.9 1000.7 1082.7 1145.4 1156.1 1183.5 1191.9 1099.1 1069.6 871.5 734.4 756.3 782.6 759.5 773.6 777.0 761.4 782.9 787.3 823.9 889.9 972.6 1095.7 1111.3 1176.8 1307.3 1365.1 1392.2 1491.8 1597.6 1590.9 1519.6 1400.3 1459.5 1492.1 1469.2 1398.2 1421.2 1509.4 1537.0 1562.1 1429.2 1205.1 1032.5 890.9 828.8 834.1 928.1 1036.4 1107.5 1143.8 1165.7 1161.9 1201.0 1231.7 1257.3 1135.1 1069.7 1110.0 1134.2 1142.1 1029.3 985.9 944.6 855.6 752.4 779.7 896.5 1013.9 951.3 841.4 727.5 641.0 724.5 800.3 858.2 910.5 932.4 946.9 977.0 1036.4 1123.8 1132.8 1086.3
458.4 488.2 532.7 591.3 640.3 689.5 742.2 827.9 902.4 964.7 1009.8 961.3 885.4 848.3 833.2 834.4 806.6 791.4 771.7 742.5 694.6 657.5 627.4 590.5 609.3 589.7 549.8 525.1 508.7 505.0 509.7 518.1 520.0 494.0 493.0 514.8 512.9 510.6 498.4 487.3 422.0 379.1 364.4 402.6 410.8 425.1 455.6 465.7 475.1 466.0 456.5 361.7 418.1 462.7 439.4 410.6 443.4 449.2 473.5 404.9 311.3 365.7 458.2 516.5 545.4 587.0 612.3 593.6 594.3 597.1 601.5 598.6 578.1 601.4 608.7 616.4 614.6 565.3 544.7 515.1 520.8 544.1 497.2 451.4 386.0 334.3 326.7 310.6 350.5 336.4 308.4 238.1 213.4 204.1 195.4 161.8 154.1 149.0 151.8 187.6 244.3 255.1 245.7 197.7 174.2 295.8 314.6 245.9 266.2 296.7 332.5 379.1 409.2 480.5 542.3 554.5 564.4 548.7 518.7 508.6 452.5 491.0 486.4 508.2 489.8 413.3 231.9 304.2 312.5 298.2 329.2 265.8 292.3 335.5 377.5 449.5 428.8 331.3 272.9 253.1 253.1 251.5 169.1 164.1 185.7 278.7 364.9 365.7 364.3 384.2 426.7 431.8 410.7 390.7 390.9 379.3 367.7 343.5 309.6 243.4 260.9 332.7 312.1 250.7 210.8 216.5 254.1 294.8 340.0 354.5 355.2 321.7 364.4 391.2 377.0 386.9 358.1 349.0 318.5 280.1 259.4 304.9 356.3 364.9 352.7 364.9 375.5 369.0 423.3 549.1 681.0 801.8 883.1 872.3 958.0 985.8 1003.1 1012.4 980.8 864.2 715.4 618.9 535.5 494.6 470.3 454.5 441.4 422.1 411.1 402.2 395.8 406.2 418.3 413.3 437.9 417.5 382.3 328.1 314.6 323.4 348.1 356.0 367.9 357.0 339.9 377.7 380.3 400.8 416.7 381.4 477.6 564.9 586.3 527.5 600.3 704.8 825.8 881.6 868.4 746.6 628.8 537.5 492.5 514.2 486.5 417.8 341.1 395.2 567.9 589.6 561.4 616.6 771.8 967.1 1067.5 1053.4 1187.4 1222.5 1222.0 1243.9 1197.4 1106.6 962.9 888.6 695.2 766.3 913.8 1059.8 1229.2 1297.0 1320.3 1193.9 1024.2 956.8 920.4 838.9 651.2 664.7 853.5 918.1 942.0 962.4 976.8 981.1 967.3 936.0 940.7 989.5 1046.5 1076.9 1077.6 1088.0 1107.8 1131.1 1103.2 1023.8 934.8 803.2 754.7 796.9 789.1 778.7 813.2 786.0 771.4 795.1 829.4 926.8 1080.4 1210.0 1319.7 1456.4 1499.1 1559.8 1449.3 1498.6 1585.7 1560.8 1485.6 1340.4 1260.0 1396.6 1324.7 1324.9 1229.1 1257.9 1395.3 1406.8 1254.6 1048.9 899.6 813.9 835.4 930.0 1039.2 1128.7 1189.2 1206.1 1230.2 1257.5 1289.6 1356.2 1389.1 1331.9 1256.8 1292.9 1336.0 1336.6 1149.9 1008.3 935.2 922.0 838.5 872.3 987.5 1086.6 1039.4 942.9 825.4 681.5 732.2 823.2 837.8 859.2 909.9 951.2 1016.7 1085.3 1074.3 1071.2 1024.7
448.1 492.9 539.7 577.9 622.4 674.7 709.8 786.0 870.8 958.3 1004.7 1016.0 1030.7 998.5 960.1 950.3 864.6 831.5 768.1 723.0 685.2 649.4 618.2 642.7 632.2 593.7 557.8 545.0 545.9 523.9 475.1 459.6 454.7 443.6 438.4 443.8 470.4 465.8 450.0 408.6 420.4 480.3 481.5 483.9 501.4 494.0 490.7 481.3 489.3 478.4 469.0 437.7 443.2 469.9 470.7 472.7 496.2 493.2 490.3 474.6 389.8 350.8 448.5 516.7 497.3 530.7 568.6 589.0 587.3 601.8 608.7 611.1 609.6 617.9 620.6 620.1 622.3 603.6 594.4 555.3 515.3 492.5 451.2 407.0 379.6 348.8 347.0 315.2 329.2 332.9 337.4 271.8 226.9 211.7 182.4 164.5 170.0 176.2 175.7 146.6 159.6 208.4 221.2 156.9 171.6 265.0 218.4 231.6 278.3 290.8 324.4 368.6 406.1 450.4 507.6 526.6 524.1 515.6 493.3 467.3 423.2 464.4 453.2 458.1 444.8 404.7 297.3 222.9 253.1 250.6 271.8 212.4 255.9 287.0 324.3 403.6 445.2 415.8 401.9 279.9 176.1 159.1 171.0 270.3 259.6 213.3 297.9 366.6 413.6 442.5 470.3 483.6 456.4 444.2 419.5 376.5 344.1 316.6 263.8 247.4 298.1 350.4 356.9 314.2 275.2 219.4 216.4 267.2 300.2 331.4 380.7 381.9 355.6 344.6 363.8 373.6 322.9 310.5 280.6 252.9 275.5 329.3 383.1 387.2 360.2 345.7 356.4 337.1 364.0 471.0 591.5 672.5 746.2 773.4 830.8 856.5 888.6 988.2 1032.8 881.3 731.2 624.6 532.9 502.4 475.6 452.7 456.0 430.3 406.7 399.4 391.8 387.9 401.3 396.7 420.3 410.3 359.0 320.6 350.7 355.3 365.7 395.2 392.0 402.0 346.0 373.7 425.1 496.1 488.2 473.4 554.7 588.4 593.2 597.4 662.8 766.6 840.7 917.0 936.1 838.2 697.7 563.5 414.0 412.1 394.2 330.5 372.3 599.2 801.2 822.2 769.4 753.9 832.5 1065.2 1234.7 1222.5 1264.1 1278.2 1260.0 1226.2 1171.4 1052.0 860.9 744.8 697.0 730.2 943.2 1087.5 1267.9 1346.8 1331.1 1298.3 1111.5 920.3 823.0 785.9 663.8 668.3 848.7 827.2 847.2 850.0 881.7 914.6 897.9 957.7 980.0 1010.3 1047.3 1065.3 1063.5 1096.1 1093.7 1066.2 1078.0 1001.6 987.3 930.2 780.6 805.2 818.2 794.4 813.5 852.5 873.5 862.7 869.6 899.0 1065.8 1282.8 1421.3 1561.9 1712.5 1695.5 1601.9 1619.4 1587.8 1494.6 1438.9 1330.7 1149.9 1116.9 1111.8 1149.8 1103.3 1103.9 1172.4 1163.6 1061.5 938.6 825.4 831.5 894.1 972.4 1039.9 1121.0 1189.6 1233.3 1291.5 1347.8 1402.7 1485.9 1510.9 1519.2 1442.7 1450.6 1497.6 1485.2 1246.5 1101.2 1058.1 1034.8 923.3 970.5 1085.8 1143.3 1101.8 979.4 840.5 719.9 772.6 879.8 961.1 919.2 941.9 1018.6 1053.6 1020.0 1021.8 977.1 962.6
439.2 474.4 504.2 546.3 588.0 621.7 668.2 733.1 802.7 884.7 929.0 974.2 1007.2 1003.9 976.5 958.8 912.9 877.2 805.5 731.3 677.8 620.9 583.7 573.8 569.0 546.2 526.5 515.5 533.8 520.0 475.5 531.7 531.9 496.3 501.6 482.4 464.0 467.9 455.5 477.0 476.9 497.8 499.2 488.6 510.3 503.3 500.9 497.3 502.3 488.0 481.8 469.7 463.1 485.8 484.5 491.9 505.4 503.0 511.0 495.9 500.9 444.1 398.5 416.1 434.8 516.4 546.9 562.7 585.8 598.4 604.9 610.2 613.3 617.3 620.4 621.3 622.6 623.6 622.1 577.5 488.1 468.7 457.5 394.8 338.3 298.8 286.8 280.6 254.5 251.0 253.4 265.0 231.9 187.9 179.6 192.3 201.3 187.2 180.8 162.4 140.4 158.9 180.7 143.6 162.6 173.3 189.1 233.7 254.9 279.1 343.7 407.3 378.4 418.5 463.6 486.5 475.6 448.3 444.6 427.2 398.0 419.6 427.5 391.0 371.2 372.8 343.2 188.2 213.0 163.4 182.9 172.0 180.3 184.5 191.1 218.5 239.3 206.1 324.8 336.0 172.4 181.2 270.9 356.1 370.6 332.7 273.5 315.3 366.3 394.7 437.2 478.5 513.5 510.5 474.0 438.9 386.3 338.4 274.3 289.0 358.5 399.2 413.7 386.8 342.0 284.2 215.5 233.1 290.6 354.6 373.2 355.6 314.0 299.3 347.4 359.2 333.9 283.2 252.1 288.7 325.9 351.0 389.5 381.1 342.1 303.1 311.3 336.4 357.2 402.7 466.7 524.4 644.8 777.2 765.2 787.5 834.1 931.9 1035.9 933.6 790.9 666.6 547.6 494.7 462.6 434.5 430.5 426.3 402.2 393.6 380.9 353.0 352.8 385.8 389.2 356.8 330.3 332.3 366.6 375.3 402.3 430.6 453.2 447.3 383.0 367.7 391.3 460.6 540.5 523.9 538.4 572.0 611.8 601.1 631.4 719.0 838.9 928.0 871.6 813.3 727.6 564.0 408.1 355.3 342.5 328.5 441.2 639.2 810.4 917.6 979.3 970.3 929.9 1088.8 1275.7 1353.5 1351.3 1372.2 1321.8 1256.7 1172.1 962.4 833.1 861.9 775.4 719.2 932.9 1116.2 1313.0 1376.1 1344.6 1301.6 1156.0 1030.5 871.9 781.1 663.8 633.5 637.0 627.6 699.7 779.2 800.3 816.7 835.8 866.6 886.7 928.6 964.0 982.9 1031.5 1077.2 1090.6 1057.2 1014.2 959.5 903.4 842.3 797.7 815.0 831.1 829.1 815.8 854.9 917.4 954.4 960.4 937.4 1034.7 1220.8 1357.9 1486.6 1688.8 1731.9 1674.0 1628.9 1559.3 1529.2 1500.9 1445.3 1306.5 1194.6 1147.3 1130.6 1079.1 988.3 977.7 945.8 911.5 858.7 815.1 823.0 868.5 917.6 949.7 1015.8 1102.9 1210.9 1305.2 1402.0 1438.1 1507.2 1571.9 1631.9 1627.2 1587.1 1627.7 1642.9 1459.2 1323.7 1177.6 1108.7 1052.1 1117.9 1107.2 1090.9 1023.6 884.9 850.5 769.9 895.5 987.4 1051.7 1097.1 1099.9 1089.8 998.6 922.1 911.2 875.2 871.5
450.3 450.8 496.1 516.5 551.3 595.2 639.6 693.3 732.8 775.4 843.8 908.8 944.3 935.0 913.3 904.4 896.4 839.6 819.4 743.6 678.9 633.4 595.4 560.2 532.1 528.3 534.1 540.5 517.1 484.2 510.6 529.8 519.4 525.4 519.6 515.4 504.5 512.1 509.3 506.1 488.4 513.8 518.1 495.0 520.6 512.2 509.8 506.3 500.8 486.8 493.4 472.3 474.7 500.7 499.3 500.9 506.1 510.2 511.8 519.4 578.3 581.8 547.1 491.2 506.0 536.7 557.6 570.9 582.1 593.0 604.8 611.9 616.2 620.7 622.3 622.9 623.4 621.5 618.6 537.0 454.7 421.5 363.2 301.8 312.6 309.9 270.8 251.6 249.7 239.8 226.1 206.2 198.9 199.3 217.6 220.0 200.1 163.9 153.3 148.6 142.8 138.1 146.6 137.9 140.0 154.7 197.8 221.0 231.2 267.2 306.9 331.6 350.2 380.1 407.2 425.0 413.2 395.2 387.3 378.1 380.1 349.9 371.0 351.9 323.0 321.7 319.1 201.5 145.6 142.5 136.2 141.2 170.8 216.4 264.9 301.3 333.6 273.5 175.1 168.0 197.3 268.5 285.3 346.4 412.6 436.2 374.5 325.3 338.7 383.1 436.3 490.2 544.2 579.1 522.6 465.3 405.3 365.1 313.0 275.5 345.8 419.2 446.8 369.0 319.9 288.4 250.5 217.5 233.1 287.7 291.3 318.9 294.1 309.5 330.4 314.9 338.1 284.8 251.1 301.5 309.8 340.9 339.1 346.3 322.8 285.5 334.6 365.4 376.3 405.5 477.4 538.2 635.0 777.9 777.0 762.6 793.6 843.4 935.3 887.3 758.8 627.1 513.5 479.2 468.8 433.1 414.9 411.6 415.8 391.4 351.5 345.5 343.5 337.1 336.5 365.6 426.0 449.7 415.1 415.4 443.2 464.0 449.3 418.4 437.0 425.1 434.6 560.1 559.5 590.1 641.7 663.6 725.6 722.9 649.0 694.9 793.8 880.8 911.8 833.8 724.7 660.2 443.9 317.1 338.7 468.5 548.9 572.8 670.0 773.6 885.7 1004.8 1115.0 1228.9 1336.0 1432.3 1396.3 1334.0 1238.4 1179.8 1045.4 1008.8 1007.7 912.4 892.1 710.9 876.7 1111.8 1200.9 1225.1 1222.0 1281.5 1280.6 1161.7 985.8 892.1 828.6 833.8 801.0 758.0 662.0 700.2 750.1 829.1 855.3 849.0 866.2 910.0 1001.3 1071.1 1070.8 1081.0 1070.0 1032.1 1000.3 949.6 896.7 923.7 943.0 914.0 872.0 874.3 852.7 851.7 956.2 1037.5 993.4 959.3 1017.1 1165.3 1337.2 1455.4 1615.0 1673.6 1680.5 1686.7 1727.4 1702.6 1619.8 1550.6 1480.1 1433.9 1384.8 1302.2 1177.2 1023.2 951.7 921.0 922.1 915.3 849.7 821.6 901.5 1008.8 997.3 986.3 1012.5 1099.6 1178.8 1256.2 1303.2 1395.1 1484.8 1579.9 1637.1 1691.2 1723.8 1628.9 1458.1 1360.7 1255.0 1202.5 1166.5 1119.9 1045.2 951.1 913.1 907.3 972.4 894.5 971.9 1097.2 1179.3 1194.7 1124.5 996.5 916.5 903.4 923.5 893.6 872.2
455.6 430.8 473.6 489.7 520.2 565.8 608.9 625.6 652.9 689.2 740.1 800.7 842.3 843.1 848.2 902.2 889.7 827.3 706.8 681.5 653.5 629.3 600.6 569.5 547.0 529.1 531.1 529.1 518.0 525.7 540.1 535.5 534.2 534.2 524.8 513.1 512.9 516.2 519.7 513.6 496.3 528.0 521.8 504.7 521.3 521.3 518.4 507.0 504.7 498.6 480.3 489.3 484.5 502.8 504.8 504.0 509.4 515.1 514.6 549.1 607.1 607.0 549.6 530.7 543.5 547.6 551.1 556.1 567.3 587.4 604.2 611.2 617.3 618.7 619.2 621.3 617.9 619.2 597.5 479.6 389.4 340.2 312.2 351.3 468.0 443.7 373.3 353.0 359.6 325.2 300.3 280.6 265.6 253.0 237.0 229.3 196.9 184.4 196.7 192.6 191.0 175.9 143.7 135.5 135.4 150.3 167.5 191.8 224.7 252.0 259.5 295.9 317.9 326.3 363.8 367.7 366.8 357.1 347.3 343.0 349.1 312.8 351.7 312.9 279.4 311.9 260.4 187.6 147.8 134.9 170.4 229.3 291.6 347.6 409.0 426.4 466.1 435.8 349.9 208.0 342.0 368.1 342.4 375.7 430.4 456.2 433.6 413.4 368.8 407.0 466.0 505.7 556.9 599.2 573.1 514.3 449.6 406.7 377.8 320.8 295.6 374.1 403.6 388.7 353.0 333.4 302.0 267.0 224.8 220.8 227.8 258.3 265.0 280.7 274.7 285.4 299.1 249.7 268.8 315.2 305.8 299.2 285.2 280.3 274.5 271.5 321.2 348.6 347.6 367.1 414.4 475.8 585.6 770.5 761.2 720.0 709.3 650.1 745.0 740.2 646.5 565.6 502.8 452.2 454.1 429.6 413.3 397.5 381.0 355.0 361.7 390.9 400.2 393.0 415.6 468.6 562.6 546.7 508.8 472.0 480.6 467.8 472.9 443.1 405.3 431.3 583.1 781.7 784.5 756.1 694.3 750.2 766.1 806.0 766.1 729.3 782.2 881.3 913.5 890.2 801.4 630.8 423.5 309.5 394.4 535.6 695.7 832.0 879.2 928.8 968.6 1125.0 1247.1 1338.8 1401.1 1453.2 1355.9 1290.9 1318.6 1301.0 1293.5 1219.0 1052.5 959.4 880.7 724.4 851.6 1056.0 1085.4 1050.1 1062.2 1080.5 1081.3 1052.4 1099.1 1025.2 926.6 907.1 913.1 870.8 786.5 650.2 674.3 810.6 820.3 798.6 810.0 846.3 946.5 1068.4 1079.7 1116.5 1117.3 1082.4 1106.3 1030.4 1019.9 991.1 969.8 975.0 961.5 932.4 884.8 859.9 895.7 918.0 947.3 988.8 995.9 1124.8 1240.2 1341.0 1492.3 1618.2 1722.6 1770.8 1739.1 1740.6 1703.5 1645.6 1614.6 1562.2 1489.2 1354.5 1200.3 1062.6 984.3 978.7 1005.7 953.3 851.1 857.3 958.8 1103.0 1147.6 1107.1 1088.2 1110.5 1136.9 1184.1 1228.7 1323.1 1435.5 1524.2 1611.9 1706.2 1769.6 1624.7 1416.0 1289.2 1203.1 1129.7 1078.3 1021.9 983.8 998.4 1015.6 1126.6 1169.3 1029.5 1057.3 1170.3 1210.8 1168.1 1062.8 941.6 949.7 977.2 1036.2 1017.9 1015.0
449.5 419.5 435.6 451.7 505.3 535.1 544.6 566.6 601.5 633.8 668.8 701.9 743.3 775.6 816.3 865.8 918.0 871.8 770.6 626.2 602.5 611.2 586.3 551.9 536.0 544.2 543.2 534.8 531.0 535.7 539.4 534.3 539.0 536.3 532.3 507.9 511.6 512.3 526.3 510.6 505.6 520.3 516.8 528.0 512.5 532.0 524.4 521.7 509.1 495.3 491.7 493.1 488.3 507.2 506.4 506.6 511.4 516.2 520.0 573.8 609.9 615.0 591.3 569.4 574.6 577.1 583.7 576.8 571.0 585.5 601.6 610.7 613.8 610.9 608.6 607.9 603.8 602.4 558.2 425.9 368.9 364.1 380.8 410.2 504.9 520.8 487.5 481.3 469.3 391.8 360.5 347.5 324.8 278.2 251.1 238.0 194.2 209.5 246.4 259.8 292.3 305.7 237.8 159.7 138.2 141.3 134.5 140.0 185.4 210.9 249.5 294.1 267.9 296.5 304.2 321.2 323.5 316.5 331.7 319.0 344.4 307.3 308.9 324.5 269.7 259.6 276.5 186.2 141.8 154.7 229.8 301.9 387.1 421.3 449.2 491.3 519.7 473.6 373.2 256.4 423.8 476.7 427.0 436.3 473.9 516.2 521.8 486.0 431.9 425.4 474.8 512.9 553.0 593.1 593.0 542.9 513.5 471.0 421.8 362.7 298.5 308.5 361.5 407.5 428.1 429.7 378.9 335.8 292.6 264.7 249.4 228.3 229.5 232.3 234.9 233.2 234.7 235.0 247.8 254.6 247.0 248.5 254.6 271.5 279.4 267.3 272.3 279.0 314.3 358.7 408.2 515.8 586.7 689.1 785.6 795.7 797.8 706.3 566.9 572.8 523.2 477.8 450.4 427.4 396.6 383.4 378.8 366.8 365.8 372.2 411.1 419.0 447.2 467.8 524.0 552.9 534.6 610.9 615.5 561.5 555.0 526.6 546.5 457.8 438.0 564.9 663.6 806.4 867.5 874.4 786.8 745.6 811.2 841.5 841.9 814.7 780.9 861.7 895.5 912.4 806.9 591.3 387.4 311.9 428.4 554.0 733.9 936.9 1032.8 1083.8 1116.7 1221.4 1397.4 1535.5 1562.0 1551.1 1495.9 1461.8 1385.0 1357.6 1290.5 1131.7 931.6 837.0 808.9 762.9 859.2 1084.1 1056.2 984.0 1003.0 1041.5 986.9 880.3 949.6 962.3 947.6 860.2 808.8 756.3 719.6 647.7 642.0 667.3 729.0 788.6 811.8 825.2 838.2 892.5 940.5 980.7 1060.2 1125.6 1176.6 1133.5 1139.3 1121.0 1054.4 988.4 997.3 960.5 884.2 942.6 1047.3 1069.9 1104.2 1230.9 1126.2 1111.4 1223.4 1398.8 1585.7 1703.7 1797.1 1797.0 1748.4 1780.9 1712.5 1634.4 1546.9 1467.6 1374.1 1243.2 1127.0 1046.7 978.0 931.7 954.3 898.4 870.1 932.9 1039.3 1143.4 1245.1 1234.7 1188.6 1204.4 1245.2 1301.4 1329.1 1331.9 1442.7 1584.8 1669.8 1742.6 1795.7 1644.7 1449.5 1356.6 1233.2 1106.0 1046.1 1078.1 1120.8 1148.6 1263.1 1365.8 1349.6 1239.9 1243.5 1291.3 1243.4 1151.7 1010.3 946.4 1000.0 1088.1 1137.0 1151.0 1162.0
427.8 410.7 409.2 425.3 469.7 504.9 530.7 588.7 623.2 634.5 612.3 638.8 681.8 742.5 774.6 776.0 830.9 875.9 795.0 711.6 649.9 628.1 573.6 552.7 541.8 546.7 528.9 522.4 524.3 537.2 536.7 532.1 536.8 538.2 533.5 509.5 521.9 508.8 526.3 509.1 519.8 514.4 528.9 530.4 518.3 532.4 532.8 522.7 526.4 524.6 512.1 503.3 491.9 508.7 507.1 511.6 514.1 516.9 522.9 577.2 607.3 624.6 638.0 641.8 633.4 619.2 598.5 603.1 579.3 583.7 595.9 604.4 611.6 607.9 603.7 597.3 588.8 576.2 512.0 464.7 491.2 489.5 520.3 526.5 534.8 540.2 521.7 499.9 449.4 378.2 334.6 306.3 280.4 246.9 229.1 212.3 207.3 255.2 300.8 360.6 377.5 338.0 201.3 176.8 209.5 211.2 163.3 131.3 142.4 172.6 219.7 228.8 249.1 272.7 248.4 274.9 296.2 281.1 305.3 286.9 319.7 362.3 260.2 268.2 301.9 274.0 214.5 172.0 136.8 176.4 205.3 264.7 317.7 356.3 404.1 488.4 537.4 526.8 495.5 308.3 461.5 543.4 506.9 497.5 517.2 561.5 563.6 527.5 480.4 452.1 471.8 520.1 562.6 600.6 613.4 593.3 557.5 527.6 476.0 413.2 362.2 293.5 331.6 378.5 410.2 448.8 467.7 384.3 315.4 287.2 300.1 280.6 305.7 303.9 281.5 295.1 302.5 300.5 274.5 270.2 293.2 330.3 340.3 355.0 371.8 347.5 331.3 318.5 280.8 343.2 391.4 467.8 573.4 696.8 786.5 798.5 743.1 742.8 626.4 560.1 503.3 490.3 472.6 442.5 420.0 403.4 376.5 443.7 474.5 472.5 478.2 447.7 486.1 552.6 647.5 667.5 638.2 667.2 678.4 623.7 648.5 562.0 449.7 441.4 509.9 592.3 721.7 816.5 895.9 945.1 906.1 758.7 804.5 893.1 907.9 835.8 806.4 895.3 967.1 939.2 758.4 545.0 393.4 313.4 399.8 532.1 743.1 810.6 790.8 842.3 951.9 1124.7 1304.0 1506.4 1673.5 1661.4 1582.7 1485.2 1396.4 1241.9 1058.4 958.4 940.3 948.6 1004.2 832.8 938.8 1107.7 971.0 919.3 967.1 980.5 847.3 725.4 731.3 720.9 712.2 716.7 712.3 693.1 652.9 666.8 649.3 639.7 704.2 748.9 789.5 864.9 922.8 944.5 942.1 957.2 974.4 1047.1 1127.7 1186.1 1270.6 1255.3 1149.0 1122.0 1048.9 930.9 965.2 1104.8 1137.5 1194.5 1221.8 1312.3 1278.3 1158.5 1249.6 1402.4 1572.0 1676.1 1733.0 1797.6 1743.0 1739.5 1710.1 1655.6 1570.3 1443.2 1329.5 1219.6 1117.4 1042.5 1000.6 962.0 904.4 848.8 909.4 1009.7 1117.6 1210.4 1299.0 1335.4 1284.9 1294.1 1344.9 1384.9 1445.0 1474.2 1472.7 1584.6 1734.6 1813.5 1861.1 1716.8 1544.7 1420.9 1268.2 1149.9 1220.2 1292.8 1355.0 1335.1 1398.4 1545.3 1550.9 1468.8 1445.0 1333.9 1244.9 1139.2 994.8 987.0 1059.6 1160.8 1273.7 1303.0 1287.4
433.1 408.8 398.0 415.2 460.6 515.9 549.0 610.8 649.2 601.9 591.4 619.2 644.8 676.7 690.3 692.1 726.4 743.0 712.1 677.1 630.0 596.4 612.4 637.3 627.3 634.1 626.8 601.0 593.6 531.0 535.3 535.8 534.4 528.3 519.6 514.1 520.7 514.4 529.4 518.6 511.3 528.4 529.8 541.3 534.4 534.6 537.5 521.0 533.3 526.1 515.3 515.4 493.8 510.6 509.0 513.1 513.2 515.8 520.5 545.8 598.2 620.3 641.8 649.9 643.8 626.6 601.6 609.5 595.6 593.5 601.3 603.2 612.6 611.0 608.0 597.6 583.9 586.6 576.9 577.5 579.7 573.5 565.4 557.1 551.1 551.4 539.0 515.6 464.6 422.5 403.9 396.6 326.6 298.9 321.6 300.0 237.7 238.2 265.3 276.1 274.1 223.7 188.3 287.4 364.2 321.8 234.7 174.8 133.1 131.0 165.3 219.1 248.3 245.6 219.9 246.1 258.6 258.3 300.6 302.8 253.9 326.3 285.1 212.0 206.2 231.8 183.9 145.3 149.9 180.8 190.7 243.8 340.8 436.8 476.2 504.4 567.9 584.5 546.8 429.0 396.8 501.5 557.5 588.3 603.6 628.7 592.4 540.1 518.0 489.9 494.4 537.1 562.8 604.0 613.7 602.8 551.6 504.0 460.5 418.7 408.6 320.6 351.4 354.9 372.0 412.2 438.7 387.5 327.4 309.4 307.7 322.5 323.1 291.9 309.4 324.6 342.0 313.1 307.5 289.0 293.3 322.2 371.8 419.9 403.0 366.8 350.5 336.6 290.5 332.6 379.1 465.1 590.0 697.5 741.6 731.1 693.9 669.5 624.2 533.4 497.8 517.8 489.5 465.4 449.9 391.8 394.5 442.4 479.3 483.1 513.7 505.2 546.7 657.6 735.0 768.1 754.3 714.6 668.8 687.8 583.6 464.0 442.9 531.3 630.2 552.6 649.3 843.7 860.6 906.4 1018.6 916.4 844.5 956.3 968.8 888.3 864.8 915.4 1029.1 892.1 690.8 532.0 438.9 311.2 352.6 445.1 551.5 512.2 667.8 791.5 861.9 966.7 1170.7 1384.7 1592.8 1673.1 1586.9 1498.0 1411.7 1316.6 1205.2 1246.2 1121.2 1053.6 978.7 825.3 970.4 1076.6 989.3 812.4 745.7 769.8 804.5 905.8 927.6 905.5 911.4 828.5 799.7 779.7 733.3 727.6 714.1 653.8 659.5 689.5 750.9 798.5 866.2 937.3 974.0 985.1 992.0 995.5 1037.7 1133.7 1259.8 1278.5 1168.9 1147.5 1094.1 962.8 997.5 1142.0 1194.2 1216.9 1292.7 1410.5 1414.2 1260.7 1271.6 1336.2 1441.7 1566.4 1729.2 1830.4 1759.4 1668.7 1651.4 1644.9 1557.6 1429.3 1308.4 1191.5 1079.8 998.1 959.0 934.4 864.2 875.8 950.0 1056.7 1168.9 1269.6 1348.9 1396.8 1404.5 1394.8 1445.4 1458.8 1494.0 1538.3 1542.2 1557.9 1664.9 1779.6 1910.3 1841.1 1677.7 1507.0 1352.0 1233.3 1343.7 1487.5 1581.2 1577.1 1617.0 1661.6 1586.3 1500.5 1450.6 1365.7 1265.6 1173.0 1021.2 1016.8 1100.4 1203.8 1325.9 1383.9 1375.1
454.9 407.4 392.2 398.7 440.0 484.9 522.8 578.6 602.6 572.9 582.0 601.3 608.9 591.6 595.9 606.7 640.1 628.2 613.7 616.0 604.7 567.4 573.3 589.5 597.9 614.3 627.1 592.9 589.9 594.0 593.4 534.2 531.2 523.2 535.8 525.8 525.1 515.3 534.2 530.1 517.8 534.1 521.6 542.6 541.8 536.5 536.5 532.9 538.9 530.9 514.5 513.7 499.7 508.8 515.1 513.0 513.8 514.4 518.4 543.3 586.2 605.8 622.6 641.4 642.4 618.9 604.2 608.0 605.0 603.7 604.8 608.8 620.8 622.3 606.5 596.6 601.9 597.5 598.1 596.8 593.6 585.9 580.5 568.7 567.6 573.0 562.9 491.4 488.5 505.6 500.8 471.5 434.9 435.3 381.5 334.9 279.2 292.4 335.8 296.3 288.9 286.5 213.9 324.7 378.1 382.4 344.7 285.9 205.3 139.5 137.3 216.0 220.5 217.3 209.6 214.5 231.3 241.1 259.7 253.0 222.2 254.4 241.6 243.3 161.2 166.9 145.4 140.4 174.3 190.1 216.4 263.5 348.2 420.3 480.0 489.5 568.9 590.9 602.2 601.2 562.9 525.6 533.3 564.0 591.6 615.3 589.3 549.6 552.6 526.0 536.5 542.3 604.7 613.3 546.5 513.0 475.3 450.7 425.2 389.0 363.4 316.2 399.3 404.9 385.9 385.0 419.2 434.8 367.6 326.5 355.3 346.1 308.7 304.2 370.6 391.1 377.2 345.4 311.8 301.7 289.7 316.0 356.2 409.3 404.7 374.6 361.8 334.1 342.5 356.0 396.5 489.3 528.4 621.7 697.7 713.3 683.6 676.8 633.1 575.7 504.7 443.1 423.0 412.6 401.2 394.8 458.1 436.8 457.6 502.5 551.3 577.5 534.3 636.6 743.8 798.0 776.7 730.4 698.2 641.7 492.6 447.6 513.9 532.6 634.2 671.1 624.3 735.4 893.1 900.0 988.3 1077.0 923.5 996.6 1007.8 946.1 932.9 1000.0 1072.0 920.0 715.3 571.5 430.6 320.3 499.6 515.1 435.8 458.2 663.7 754.5 837.1 916.8 1050.2 1209.3 1446.4 1629.3 1621.3 1525.8 1439.1 1370.6 1336.1 1383.0 1210.0 1080.8 1027.7 855.3 1017.0 1108.9 1031.0 902.0 760.4 879.2 941.1 957.1 972.4 960.9 903.3 926.8 932.3 889.1 871.3 808.0 771.3 696.0 760.8 736.6 699.5 716.2 738.7 773.5 823.3 882.7 953.3 1047.6 1079.8 1156.7 1267.2 1359.5 1317.3 1202.8 1181.6 1100.2 1005.4 1028.8 1170.4 1282.1 1322.3 1311.6 1349.3 1349.9 1384.8 1453.1 1514.4 1652.7 1752.4 1749.5 1682.4 1627.8 1569.6 1560.2 1562.0 1444.6 1340.3 1211.0 1099.7 1032.1 973.9 928.1 853.9 909.5 974.8 1060.9 1156.8 1229.0 1296.6 1386.8 1480.8 1512.5 1555.2 1555.1 1568.3 1594.9 1632.2 1660.1 1653.9 1731.7 1898.0 1989.8 1881.2 1704.9 1505.4 1372.1 1499.5 1672.0 1779.8 1780.3 1754.3 1687.1 1581.1 1464.7 1328.5 1260.4 1185.3 1124.8 1072.6 1027.5 1103.2 1184.3 1302.2 1367.5 1401.1
470.2 409.6 386.7 389.9 411.6 444.7 478.8 523.9 536.2 530.4 552.8 554.1 557.9 537.9 544.0 580.3 610.2 580.9 549.3 562.9 563.1 555.5 552.7 553.1 565.8 586.3 589.6 571.7 585.7 596.0 597.3 594.0 527.5 537.3 533.4 533.0 533.8 520.8 529.2 534.2 530.9 543.4 537.4 546.2 549.8 544.8 531.4 544.9 539.2 531.5 527.2 525.5 509.1 508.8 517.0 517.0 516.7 518.0 523.2 542.6 585.7 596.8 606.1 608.7 615.3 625.8 621.7 611.1 612.0 602.9 603.7 612.6 614.6 611.0 608.9 612.5 611.5 608.7 606.7 610.1 615.1 590.9 588.6 581.1 588.2 588.9 577.5 518.0 528.3 521.0 512.9 513.9 512.2 494.3 459.0 417.1 378.5 362.4 433.6 402.1 395.2 358.7 245.7 308.0 388.7 391.0 381.2 359.9 292.5 214.2 142.4 141.8 134.9 138.5 160.0 175.3 196.7 196.2 203.8 177.0 176.3 168.3 147.6 131.9 134.9 137.7 146.8 174.5 184.1 236.2 298.3 315.9 320.9 361.7 408.3 442.0 510.4 574.1 676.1 745.2 747.3 660.4 623.2 672.0 606.7 581.6 561.4 567.1 588.4 569.5 560.9 560.6 584.0 564.5 518.6 451.2 426.0 404.2 403.3 396.5 349.1 351.7 415.6 438.8 434.7 425.7 445.6 447.9 414.3 373.9 406.2 368.4 334.8 304.6 326.4 364.5 386.8 341.8 319.8 304.1 304.7 309.2 355.8 412.2 411.9 395.3 379.4 346.5 357.0 383.8 477.7 631.4 682.2 638.3 695.5 731.0 714.9 625.8 568.8 531.8 449.2 484.6 504.9 520.7 515.5 492.0 490.2 446.1 470.0 487.2 563.3 606.3 594.4 728.6 737.4 710.8 739.2 733.0 672.3 577.2 487.9 516.6 519.3 564.1 594.3 719.6 785.4 873.4 987.7 1050.1 1057.1 1109.2 1037.0 989.3 909.9 933.0 861.0 870.3 884.9 825.6 715.0 578.3 342.5 411.2 614.3 791.4 784.1 646.0 645.4 622.7 663.7 829.1 986.0 1026.0 1176.3 1489.7 1622.2 1593.8 1518.1 1445.1 1374.7 1336.6 1171.2 1025.2 985.7 885.4 1091.0 1123.7 1063.4 917.5 765.7 967.3 977.4 1001.3 973.1 1018.3 1001.3 1006.0 1032.0 969.6 924.1 947.3 848.5 742.6 792.3 880.8 888.7 836.8 778.1 765.5 772.6 807.5 818.8 887.1 1023.7 1127.8 1237.6 1341.0 1358.1 1283.2 1227.5 1193.2 1114.5 1012.4 1062.5 1214.3 1315.4 1272.4 1296.7 1346.1 1423.1 1471.4 1543.7 1682.0 1721.0 1624.6 1515.5 1490.7 1444.4 1393.0 1484.6 1432.5 1333.8 1206.9 1100.1 1049.6 991.1 912.9 861.4 914.4 970.9 1036.5 1102.2 1156.3 1208.7 1308.0 1436.4 1533.8 1621.3 1640.2 1650.7 1684.9 1735.6 1782.3 1757.0 1760.4 1861.0 1966.2 2051.2 1886.6 1711.0 1603.7 1713.1 1798.1 1761.6 1716.9 1674.6 1555.5 1469.9 1359.5 1243.7 1238.1 1255.7 1135.1 1061.0 1047.4 1109.2 1167.1 1248.2 1322.4 1395.2
471.7 404.7 380.0 387.6 401.9 405.8 430.5 469.7 486.7 488.6 495.5 518.2 513.5 500.4 529.9 586.9 608.6 573.7 524.7 524.6 533.4 543.9 534.8 557.2 547.8 557.9 547.0 567.5 581.3 592.0 599.7 596.8 593.9 539.9 536.2 539.5 541.9 523.2 522.7 532.8 529.8 541.3 559.4 563.5 560.5 542.4 541.3 555.6 547.6 531.8 530.6 527.6 522.1 515.8 518.5 521.9 521.2 523.2 528.3 551.5 599.6 617.0 621.1 614.7 605.7 604.4 605.2 609.3 608.2 606.9 619.8 622.5 615.2 611.3 610.9 609.9 613.3 620.6 620.2 628.3 613.5 607.8 606.8 596.8 595.6 598.9 594.8 556.8 535.8 529.6 521.7 534.1 526.9 512.0 505.5 471.2 439.1 441.7 466.8 441.6 422.1 399.6 300.1 268.9 343.7 386.1 368.0 327.3 318.3 278.4 182.7 218.0 208.8 172.3 132.1 125.9 124.5 111.9 116.0 113.6 117.7 123.2 154.7 192.7 210.9 189.0 186.9 206.6 234.2 270.0 306.2 339.0 367.5 396.5 463.1 507.5 567.6 675.7 733.4 776.2 736.0 674.8 702.9 696.7 648.7 589.0 540.6 532.9 546.9 558.4 554.2 590.9 612.6 567.3 503.1 485.7 466.6 415.6 419.9 413.4 328.6 408.0 470.3 485.1 464.7 447.8 436.3 437.8 457.0 443.3 413.3 342.4 327.5 323.2 361.9 367.1 370.7 336.5 310.5 333.1 307.5 330.8 339.9 406.3 419.7 402.4 388.3 349.1 359.0 405.0 495.2 614.5 697.0 657.1 682.5 747.2 715.4 638.2 553.5 475.4 477.4 578.0 560.1 586.1 607.8 527.1 503.4 482.2 518.6 554.9 546.8 643.4 641.6 728.1 788.0 712.1 634.1 590.5 574.5 518.1 547.3 572.9 480.1 528.6 583.9 687.9 856.1 942.6 1024.2 1061.3 1105.7 1170.6 1051.9 906.4 803.0 856.6 818.9 705.0 668.7 593.9 668.7 533.7 333.4 476.3 693.0 892.4 972.4 919.4 1032.0 941.0 756.3 711.2 770.2 799.2 898.4 1182.9 1414.8 1544.4 1563.1 1471.4 1317.5 1182.9 1069.9 996.1 985.2 1032.8 1072.7 1162.8 1137.1 939.0 775.3 985.5 1025.8 1027.3 988.8 1093.5 1072.4 1025.6 1082.0 1141.0 1038.6 971.8 937.3 838.8 779.8 845.1 977.1 994.7 936.3 881.0 851.2 846.7 842.1 898.4 909.6 999.7 1085.2 1120.8 1206.0 1292.8 1281.0 1236.7 1232.6 1200.3 1094.2 1051.3 1191.6 1229.6 1302.3 1362.3 1386.3 1457.0 1596.1 1667.1 1699.9 1590.3 1478.8 1376.1 1261.3 1220.1 1273.2 1322.0 1247.1 1142.4 1060.3 993.2 972.5 898.2 861.0 879.3 933.5 994.7 1072.8 1150.7 1223.5 1326.8 1442.7 1543.4 1626.8 1705.0 1744.1 1773.6 1829.2 1894.6 1911.3 1885.4 1906.7 1964.3 2064.6 2035.2 1944.3 1872.5 1874.2 1830.4 1691.9 1571.9 1480.8 1380.4 1318.9 1308.8 1297.5 1351.1 1301.7 1174.2 1101.2 1072.0 1135.9 1218.2 1271.9 1346.2 1396.4
436.5 390.0 372.6 377.3 390.2 404.7 425.0 439.7 450.8 461.4 472.3 485.8 484.8 489.3 525.1 561.6 573.8 530.6 514.3 520.2 539.1 535.1 513.4 522.0 521.2 526.7 537.8 557.8 578.5 592.9 600.0 603.8 604.4 603.6 603.0 536.4 539.7 537.0 539.5 543.2 533.3 541.7 571.3 571.1 544.9 551.3 550.8 559.3 553.1 553.6 535.9 528.7 537.9 519.6 522.5 525.2 528.3 544.2 543.1 552.2 601.4 614.5 617.9 609.7 605.3 605.9 614.3 609.5 606.5 617.3 634.3 639.6 645.4 641.6 632.7 619.9 626.4 623.9 624.2 627.7 619.3 632.7 619.4 618.9 615.0 608.6 586.6 573.2 564.1 546.6 550.2 547.5 538.2 529.2 494.2 456.4 451.5 443.1 423.7 417.6 414.8 391.4 328.8 302.7 356.8 385.3 367.2 355.2 289.4 238.8 210.3 215.5 269.4 271.4 205.8 234.6 165.5 127.3 110.3 138.2 183.3 214.7 259.6 297.3 301.2 227.5 196.4 214.7 239.9 258.3 275.6 299.0 348.5 435.5 521.1 599.9 636.9 674.5 767.2 845.4 848.1 769.0 747.0 764.8 701.1 603.3 553.3 534.3 516.8 513.5 530.5 536.9 562.8 563.4 540.0 494.0 453.5 420.2 448.1 461.5 349.0 381.3 433.7 481.9 461.1 406.0 405.9 406.1 424.5 429.8 452.1 419.4 395.8 360.7 392.6 383.0 342.4 322.5 348.7 349.2 319.1 356.9 407.9 430.1 412.5 393.4 385.6 350.6 364.0 494.9 645.4 734.3 802.3 754.7 768.0 746.9 674.3 600.8 536.4 530.1 519.2 580.2 625.2 649.0 599.5 510.6 559.5 507.6 558.5 607.1 625.3 620.9 695.0 791.7 783.8 715.5 649.3 556.6 541.1 597.8 601.9 540.6 536.3 555.7 589.3 704.2 819.1 940.2 1043.2 1115.1 1134.6 1185.5 1050.8 848.5 656.1 597.4 597.1 557.6 503.4 478.9 575.0 405.6 353.5 586.8 789.1 966.7 1097.5 1127.4 1321.5 1367.8 1219.8 1097.5 955.1 909.1 908.8 1018.2 1199.1 1331.2 1424.1 1410.7 1321.6 1243.2 1173.2 1053.5 1079.3 1141.9 1138.3 1156.9 1141.3 955.8 778.8 939.0 1070.1 1053.5 1003.5 1090.2 1210.9 1156.1 1062.1 1182.3 1221.9 1137.5 1039.8 1000.6 905.7 797.7 910.5 986.8 1038.1 932.5 1019.4 1000.2 920.5 955.7 1032.2 1013.3 1006.9 1052.7 1029.8 1081.8 1182.8 1288.6 1372.9 1375.0 1266.5 1161.0 1079.5 1153.5 1362.6 1344.7 1393.0 1559.6 1666.9 1657.4 1733.8 1692.0 1542.3 1364.5 1243.7 1147.4 1099.8 1121.7 1097.9 1030.1 988.3 966.7 945.1 893.1 891.7 918.9 903.9 969.0 1050.4 1144.9 1233.0 1337.5 1425.1 1477.3 1575.7 1654.4 1674.3 1745.7 1840.7 1952.4 2025.4 2047.4 2045.2 2071.0 2089.3 2034.8 1967.1 1926.6 1813.7 1729.5 1602.7 1508.9 1404.2 1337.2 1398.2 1460.7 1484.0 1388.6 1340.3 1218.3 1253.7 1162.1 1141.1 1185.5 1278.9 1361.4 1446.3
408.0 377.3 366.1 369.5 413.3 438.3 449.7 442.4 446.5 471.8 491.6 473.8 469.0 483.2 499.9 520.6 511.9 502.2 524.9 499.3 503.8 485.2 488.1 499.3 504.3 540.1 549.3 535.1 535.4 555.4 586.9 605.2 606.8 609.9 610.8 539.5 543.5 561.7 566.4 564.5 553.8 555.9 567.6 564.1 553.5 568.7 551.9 562.5 568.4 562.2 540.0 545.0 528.7 532.0 531.0 526.3 537.2 559.8 569.1 563.1 578.3 584.1 588.9 588.7 595.9 670.5 679.8 684.9 683.8 686.1 645.8 654.9 664.2 658.2 647.8 635.2 646.3 646.1 644.4 633.9 623.1 626.2 626.8 626.9 610.5 603.8 597.5 584.6 577.2 575.6 563.4 558.5 539.2 515.0 518.0 510.8 481.9 460.4 470.1 453.0 433.6 427.3 406.0 392.5 407.4 387.2 383.0 382.6 376.3 354.8 282.4 274.9 308.1 260.3 218.5 269.8 253.6 217.1 149.8 110.7 183.7 240.0 282.4 318.3 300.8 241.2 240.3 238.6 261.4 263.6 276.2 306.2 354.6 433.2 532.6 611.6 650.4 709.0 807.0 866.2 875.1 797.9 738.9 701.3 630.3 630.0 609.5 555.4 523.8 495.5 502.4 509.6 525.7 528.0 510.3 503.9 462.9 457.7 512.5 505.9 417.1 386.6 380.7 389.0 399.7 420.4 455.1 435.2 402.3 404.4 428.3 425.4 442.2 432.8 430.6 416.0 403.3 369.5 379.7 403.3 363.3 379.3 434.3 419.2 402.4 396.6 383.4 358.8 365.7 445.4 585.6 686.9 789.4 793.6 802.1 774.1 705.4 581.4 579.5 604.2 547.1 552.5 620.2 681.8 599.7 586.2 571.6 534.3 624.3 712.7 741.8 787.4 813.1 872.9 887.2 799.5 654.1 558.0 644.7 681.5 641.2 657.4 540.3 652.9 574.7 731.8 860.8 968.7 1081.3 1101.2 1171.2 1203.9 1143.0 998.9 808.5 610.8 477.9 415.2 383.0 348.4 347.4 330.0 448.9 638.7 800.4 978.7 1112.7 1212.2 1357.6 1490.6 1541.3 1504.4 1403.1 1227.7 1176.8 978.9 1049.6 1187.1 1299.2 1318.3 1325.0 1315.2 1204.3 1146.3 1101.6 1127.7 1138.0 1091.4 1056.2 973.6 814.9 882.0 1063.1 1078.0 1028.7 1095.5 1215.1 1236.0 1103.5 1179.7 1344.1 1349.1 1248.2 1091.9 865.6 870.0 999.9 1048.4 1060.1 983.6 1085.9 1076.8 969.1 1020.4 1127.1 1156.1 1178.0 1185.0 1194.6 1115.7 1097.8 1251.4 1418.6 1543.9 1499.0 1402.9 1232.4 1108.4 1209.9 1307.4 1473.3 1614.3 1605.3 1655.1 1711.6 1703.3 1564.7 1394.4 1277.6 1200.1 1148.9 1077.1 1040.6 1062.3 1031.7 1008.5 957.2 931.6 1000.0 1005.5 897.7 941.4 1024.0 1115.2 1199.7 1295.1 1354.6 1330.2 1409.1 1485.4 1566.0 1673.1 1786.9 1901.7 2017.2 2110.9 2162.6 2208.6 2122.2 2019.7 1898.3 1787.2 1657.5 1562.6 1503.6 1508.5 1452.5 1455.4 1582.8 1636.4 1646.3 1517.1 1435.1 1316.6 1386.9 1335.2 1230.5 1182.9 1248.0 1376.0 1455.7
403.9 377.4 361.5 374.8 425.9 453.3 464.6 469.8 473.0 498.4 489.1 468.0 476.7 474.3 477.1 497.2 506.6 512.2 508.1 474.7 477.1 504.5 514.4 532.1 548.2 571.2 575.2 558.6 563.7 565.9 566.7 594.7 605.8 616.0 619.4 553.3 545.2 554.4 563.2 569.9 546.8 567.2 571.9 566.6 562.1 564.5 566.8 556.7 569.3 555.6 549.9 538.8 537.4 535.5 522.6 530.1 536.9 556.5 550.0 528.8 509.4 557.2 562.4 586.2 634.3 663.7 666.1 675.2 676.3 693.8 712.8 712.2 719.3 741.4 673.2 665.0 667.2 663.1 657.0 646.5 646.3 638.3 626.9 623.1 614.7 616.3 605.3 598.2 588.0 569.4 557.4 542.4 534.8 526.2 542.1 519.6 526.7 518.0 495.6 463.9 457.4 449.1 419.6 425.7 409.2 392.2 393.2 388.6 388.7 375.4 298.9 352.0 347.2 322.9 291.1 286.4 279.4 275.7 202.8 109.8 176.6 237.6 276.1 304.4 325.7 315.3 303.0 268.4 300.8 272.9 267.6 288.7 327.7 382.6 431.5 496.8 557.3 617.1 690.6 750.6 864.6 746.8 679.4 652.4 688.2 707.7 628.2 584.5 537.6 492.3 478.6 496.2 502.9 498.9 498.4 513.2 517.6 531.1 555.0 596.4 548.7 549.6 533.4 500.5 496.8 447.9 463.9 440.2 427.0 407.8 423.0 424.0 426.0 434.1 436.4 439.7 445.3 436.4 435.4 445.7 444.0 436.4 440.5 420.8 404.7 394.4 378.0 360.4 362.5 396.4 492.2 665.8 773.1 775.4 779.7 756.9 699.0 609.4 602.5 641.9 560.6 594.9 606.6 684.0 658.5 586.3 591.2 593.5 743.2 850.5 841.4 818.4 856.1 912.0 833.1 773.9 623.9 739.6 792.6 804.6 749.9 635.7 562.3 613.4 639.2 676.0 730.9 819.8 966.0 1111.5 1157.2 1189.7 1223.1 1084.9 882.0 634.8 546.9 546.0 443.2 386.3 320.7 305.5 413.1 512.8 662.3 834.2 1011.5 1178.0 1302.7 1411.9 1507.4 1561.5 1581.2 1486.1 1356.0 1228.2 1148.7 1160.0 1199.1 1207.6 1288.2 1343.4 1386.8 1341.0 1173.9 1104.5 1044.6 1021.4 965.6 923.7 799.3 879.2 1049.2 1101.8 1051.2 1041.1 1125.5 1229.6 1159.2 1190.3 1290.6 1350.6 1163.2 1004.5 866.6 1001.9 1021.2 1083.7 1097.8 1062.8 1084.8 1027.9 992.9 1125.6 1231.7 1276.4 1267.1 1247.7 1230.7 1162.6 1118.1 1253.3 1428.9 1590.7 1680.1 1598.3 1451.7 1259.6 1164.8 1248.2 1430.7 1598.3 1639.8 1599.8 1639.7 1651.7 1600.2 1493.5 1408.9 1314.8 1226.3 1110.1 1111.9 1089.5 1051.8 1008.4 968.3 991.8 1082.6 1062.2 929.8 911.7 987.4 1074.3 1160.3 1246.6 1260.5 1230.4 1311.4 1436.8 1558.4 1677.9 1794.7 1913.3 2038.4 2143.9 2210.4 2254.8 2135.3 2026.9 1873.9 1697.1 1610.4 1613.4 1592.7 1660.1 1618.3 1609.3 1759.3 1791.3 1768.7 1619.9 1508.8 1459.0 1545.9 1497.3 1369.6 1233.6 1259.2 1407.5 1423.7
468.2 402.5 356.9 371.7 424.6 449.9 461.8 468.7 471.4 483.4 460.0 469.6 462.6 466.2 482.9 492.7 505.5 477.7 464.7 472.5 477.8 506.1 531.8 568.8 576.9 588.2 591.2 594.9 598.0 593.9 590.5 597.8 607.7 614.4 624.8 626.3 556.9 552.5 564.1 572.9 552.0 568.4 575.6 567.6 568.5 567.4 570.7 560.8 563.1 570.2 546.9 557.3 536.5 517.8 503.0 502.7 497.1 494.9 536.2 513.0 497.4 512.8 518.1 538.8 581.8 594.7 607.3 631.7 641.1 648.0 653.3 660.1 701.9 739.0 764.8 759.2 756.7 755.6 679.7 669.0 657.5 640.0 638.8 639.0 635.1 624.2 609.3 592.6 572.6 566.2 559.4 544.7 550.3 561.7 548.4 552.1 535.8 527.3 519.4 519.8 483.9 470.9 452.5 451.3 423.0 418.1 395.8 393.9 385.0 350.3 307.1 361.6 374.5 359.1 348.7 332.4 310.3 277.1 206.6 118.2 202.4 259.7 299.7 328.1 318.4 328.8 312.3 314.0 323.3 300.6 287.1 311.5 340.4 358.1 387.2 437.4 510.0 593.1 677.5 769.3 855.9 737.8 708.2 687.6 741.2 730.7 630.0 550.9 498.2 472.2 462.1 483.7 480.9 476.6 485.6 508.7 553.7 559.5 543.8 597.1 583.9 545.8 552.6 537.5 537.6 514.4 471.6 446.8 432.4 433.9 446.9 431.8 430.3 429.7 443.4 448.5 444.8 444.5 442.6 443.3 447.9 461.6 453.9 434.5 404.4 382.5 375.9 359.6 363.2 382.4 478.0 659.5 777.6 780.0 780.9 765.7 702.9 624.1 634.0 645.1 627.4 627.5 701.5 662.4 629.7 543.5 582.3 645.2 792.8 828.9 845.2 807.1 762.5 755.9 734.5 707.2 768.3 921.6 868.5 796.2 674.6 588.6 624.1 690.4 739.8 747.5 892.2 961.3 990.8 1044.1 1116.6 1258.8 1209.1 1001.5 786.6 679.7 680.3 622.5 607.7 504.3 353.4 295.4 382.5 543.2 672.8 786.8 912.5 1048.1 1223.7 1374.3 1499.7 1522.6 1530.7 1525.5 1490.4 1365.4 1375.1 1297.3 1219.9 1217.5 1236.5 1265.8 1323.7 1265.5 1127.1 1073.1 1138.8 1173.8 1048.5 950.6 797.6 967.7 1094.9 1133.3 1128.7 1097.6 1142.8 1254.9 1297.6 1272.2 1227.4 1197.6 992.3 997.9 1104.9 1191.0 1209.0 1199.4 1160.9 1109.2 1079.5 1094.3 1084.6 1174.0 1270.4 1358.6 1385.9 1335.2 1253.0 1165.8 1123.0 1173.4 1286.4 1449.4 1623.1 1686.6 1625.5 1438.8 1241.8 1251.1 1360.2 1490.8 1525.7 1571.2 1625.2 1633.6 1601.8 1544.0 1446.3 1336.0 1220.0 1189.8 1183.2 1109.1 1083.5 1016.1 995.5 1065.4 1136.1 1055.3 923.4 923.8 973.7 1056.9 1133.3 1157.6 1154.6 1204.6 1310.3 1422.1 1562.9 1690.3 1802.9 1933.6 2082.3 2216.6 2306.5 2289.5 2184.7 2027.3 1830.1 1702.4 1718.7 1812.6 1780.2 1855.3 1826.1 1801.2 1799.5 1774.1 1722.2 1616.9 1524.3 1496.5 1525.0 1506.8 1429.7 1308.4 1264.9 1383.8 1447.9
466.3 421.3 362.1 360.7 398.9 433.3 447.0 451.7 433.4 439.2 430.8 446.4 453.5 462.9 477.9 495.2 506.0 444.2 454.0 459.8 458.0 481.2 525.1 573.7 596.7 599.2 602.4 608.8 609.9 612.4 610.9 607.1 612.0 615.3 619.6 620.1 622.1 566.3 578.7 567.2 560.9 576.9 578.9 566.4 581.4 576.1 568.0 575.9 572.1 561.6 614.5 594.2 564.9 559.7 532.3 525.9 510.0 509.0 501.5 479.4 470.5 487.3 494.3 506.1 522.4 528.4 541.2 562.2 570.5 575.3 578.7 589.4 628.1 670.4 724.7 747.6 739.0 745.5 752.0 683.0 673.2 662.0 662.0 637.7 632.1 624.1 589.9 581.3 585.0 584.3 570.8 573.7 577.3 568.3 560.0 544.4 543.5 539.9 534.5 526.5 513.3 498.4 480.3 456.9 431.3 413.7 401.2 382.6 355.9 334.8 353.2 354.4 362.7 373.2 374.4 360.9 332.9 274.5 226.1 133.8 146.0 224.9 269.7 321.8 323.0 302.7 268.8 282.4 305.4 276.1 301.6 285.6 300.2 334.1 354.6 402.5 492.2 606.6 729.6 785.3 848.1 798.4 819.2 777.0 705.2 656.1 576.7 514.1 491.9 473.6 464.8 458.8 466.9 466.7 479.8 483.4 516.7 523.8 496.8 523.7 529.0 509.8 501.2 503.9 522.5 506.8 491.5 472.0 473.5 455.9 436.4 434.0 457.4 449.1 427.1 429.7 428.8 438.2 446.0 445.4 442.0 460.8 429.0 415.2 398.5 390.5 372.7 368.6 372.7 451.4 592.2 657.8 770.6 798.8 748.2 729.2 775.9 684.1 683.9 704.8 675.3 650.8 672.1 621.7 573.1 512.4 557.1 661.4 802.3 805.4 784.8 802.8 809.8 822.0 843.8 895.7 944.2 986.9 870.1 685.7 613.9 689.0 664.8 694.7 738.0 796.2 887.2 969.7 1083.5 1159.3 1189.1 1288.6 1266.2 1030.0 829.5 846.0 879.1 807.3 787.3 627.4 460.3 395.5 309.3 446.2 547.1 610.9 758.5 934.2 1116.3 1258.1 1342.6 1366.1 1360.7 1385.7 1341.5 1281.4 1303.9 1326.9 1308.0 1291.9 1290.0 1295.4 1285.2 1204.8 1098.2 1038.0 1078.4 1142.2 1071.6 888.7 820.0 1047.1 1099.3 1121.8 1195.3 1178.4 1166.2 1256.7 1303.7 1325.6 1324.1 1330.5 1170.0 1067.2 1171.9 1256.7 1278.1 1297.0 1285.8 1249.6 1201.4 1194.1 1248.0 1205.7 1293.0 1403.9 1443.4 1332.5 1236.0 1198.7 1216.0 1225.8 1244.8 1287.7 1423.6 1565.8 1617.4 1504.6 1338.3 1314.1 1347.3 1406.9 1525.6 1590.5 1605.7 1598.5 1545.8 1449.2 1344.3 1280.7 1254.2 1249.8 1198.8 1147.6 1104.8 1069.0 1043.1 1116.5 1108.3 1009.0 907.8 930.4 976.1 1043.7 1070.4 1080.0 1133.4 1215.4 1336.1 1449.4 1572.6 1660.6 1779.2 1917.4 2074.9 2262.5 2392.5 2347.8 2175.4 2011.0 1858.9 1816.7 1913.7 2027.8 1987.7 2029.6 2006.0 1937.2 1825.9 1681.2 1602.1 1573.3 1569.0 1527.7 1480.2 1427.1 1397.1 1356.9 1303.6 1369.2 1442.3
420.1 394.5 357.9 359.3 388.6 407.2 409.7 411.9 420.2 417.4 424.3 467.3 472.1 474.3 490.2 502.9 481.1 428.6 472.5 484.3 459.1 484.7 525.9 571.8 588.6 594.5 602.2 614.2 618.2 620.2 621.1 619.7 617.9 618.3 621.2 628.0 627.6 630.0 574.2 579.2 566.9 582.7 581.2 570.9 583.6 587.8 578.4 646.1 638.7 622.2 606.1 596.1 567.0 560.5 526.3 491.3 486.1 486.2 483.4 469.6 466.7 475.5 471.5 474.3 482.6 484.7 494.5 504.3 511.1 518.4 527.3 538.0 559.4 582.0 631.7 670.8 687.3 706.9 720.9 742.0 683.2 677.1 663.1 623.8 609.6 601.7 603.7 604.3 603.5 601.0 596.1 595.4 588.3 573.2 567.1 562.7 553.8 545.4 536.6 529.1 518.9 483.2 482.5 457.5 457.9 427.5 382.2 374.1 392.2 405.9 360.1 323.4 314.6 344.8 357.6 363.9 346.0 315.1 294.5 245.8 140.4 147.4 240.6 284.0 277.5 263.7 241.6 277.0 250.7 282.6 259.5 252.8 289.8 331.0 354.8 399.5 472.2 542.8 610.2 712.9 851.2 926.6 935.6 808.2 708.5 630.8 566.1 532.6 510.8 485.3 474.3 457.3 450.8 451.7 475.1 455.2 459.2 473.6 474.1 480.2 484.0 485.9 473.4 497.7 497.2 491.0 493.8 488.5 502.9 478.5 473.1 457.5 466.7 460.9 448.5 456.2 447.2 460.7 473.4 463.9 458.8 449.5 427.0 413.1 394.4 382.2 375.9 380.0 382.9 474.0 624.8 684.7 768.8 755.5 788.9 822.7 839.4 741.9 680.7 707.2 726.1 648.9 609.9 551.9 498.8 476.1 532.6 635.5 785.5 859.1 856.0 920.3 950.8 957.5 946.7 921.5 906.5 897.3 740.6 679.6 792.5 776.1 699.6 700.1 712.0 760.1 784.8 910.9 1061.4 1151.3 1248.7 1251.2 1159.9 978.8 887.8 983.3 1013.5 971.8 874.6 753.4 593.8 530.0 315.7 323.6 428.4 504.4 647.6 825.6 1015.6 1066.7 1117.3 1157.3 1174.3 1253.9 1292.3 1354.1 1394.7 1341.4 1323.0 1336.8 1326.3 1321.5 1328.2 1304.4 1174.0 1049.3 1024.0 1002.6 994.4 801.3 869.2 1028.5 1150.9 1220.8 1247.9 1237.5 1185.8 1179.8 1224.3 1301.7 1388.7 1435.9 1354.4 1149.1 1232.1 1293.6 1309.4 1290.3 1311.7 1287.7 1233.4 1211.3 1298.4 1318.2 1298.5 1353.1 1334.9 1288.9 1255.3 1242.6 1217.1 1257.2 1324.1 1318.3 1388.8 1465.3 1477.7 1545.9 1591.3 1517.4 1460.5 1475.6 1604.1 1571.2 1570.0 1534.5 1449.8 1344.3 1245.5 1215.3 1259.8 1203.9 1146.6 1126.5 1116.6 1075.0 1080.9 1078.6 1060.9 997.3 915.6 950.0 980.5 1012.7 1031.0 1048.9 1100.9 1176.8 1305.5 1431.6 1555.6 1662.5 1752.5 1883.3 2034.5 2195.5 2293.8 2293.3 2197.4 2139.1 2037.1 2007.4 2113.1 2137.9 2032.0 1996.7 1951.7 1860.2 1721.7 1676.6 1699.0 1715.6 1732.2 1710.0 1609.2 1515.0 1505.3 1536.4 1458.9 1432.9 1431.4
409.1 379.9 348.7 355.8 378.0 382.1 378.7 388.7 395.4 411.2 426.0 477.0 488.5 492.3 493.4 464.6 429.7 475.1 504.0 514.2 510.8 517.6 531.0 556.5 577.0 589.2 600.7 610.2 614.4 617.0 618.9 622.7 628.4 625.9 631.0 636.4 641.6 646.7 649.3 582.8 585.1 575.0 586.0 584.7 592.6 591.9 650.8 651.7 637.5 626.2 614.0 592.4 570.2 555.8 528.9 491.3 466.5 467.7 464.7 456.2 449.8 454.9 451.1 449.8 448.6 452.2 457.8 460.8 465.5 472.1 481.4 495.8 512.1 530.8 571.9 595.6 642.8 680.1 706.1 724.4 737.9 739.9 652.1 622.3 607.9 614.3 630.0 633.0 632.4 621.7 609.8 596.3 589.0 586.1 584.4 573.2 558.6 556.0 540.2 530.4 518.5 490.6 475.8 472.3 469.5 446.1 421.7 404.4 424.8 357.6 297.6 317.0 267.3 259.6 294.3 347.0 342.2 310.3 283.1 283.5 212.5 113.4 205.1 234.8 233.9 229.8 226.8 240.1 240.3 251.5 234.2 261.2 304.5 342.6 379.4 427.5 474.9 504.9 546.5 606.2 724.0 903.4 966.7 807.0 700.4 619.7 580.3 593.2 560.9 497.3 467.3 467.1 458.3 446.4 443.6 440.7 457.9 476.2 483.6 486.5 474.5 463.2 452.6 464.3 467.8 492.4 469.3 472.0 469.8 476.1 468.0 477.8 483.4 452.2 447.9 443.8 444.9 447.8 466.6 481.7 462.8 451.6 413.8 396.0 397.3 389.6 390.7 393.9 396.2 414.5 502.8 613.6 656.9 743.1 806.5 850.7 806.7 751.0 753.6 709.8 712.2 635.1 538.1 516.8 463.6 476.4 540.9 647.2 775.0 922.5 957.4 967.0 976.4 952.0 919.8 906.2 869.3 754.7 727.4 839.4 880.4 804.5 766.2 711.1 711.7 691.2 795.7 891.1 1014.5 1091.8 1184.6 1207.5 1070.8 896.1 839.3 1026.0 1138.2 1121.4 958.8 772.9 641.8 569.9 419.5 310.7 507.9 686.6 813.6 982.9 1148.4 1163.8 1101.2 1196.3 1272.0 1337.5 1435.1 1462.5 1449.8 1436.8 1412.0 1463.6 1419.6 1360.5 1346.8 1295.4 1217.5 1047.8 995.2 970.5 1001.0 830.6 915.0 1051.6 1104.3 1182.0 1212.0 1223.2 1250.7 1193.4 1167.6 1205.7 1318.3 1353.6 1285.8 1203.5 1281.8 1310.2 1291.6 1224.7 1209.4 1246.6 1203.9 1256.8 1349.7 1375.2 1373.6 1350.9 1319.0 1340.7 1354.0 1316.9 1232.1 1263.9 1293.6 1368.5 1513.3 1600.1 1637.3 1637.0 1736.2 1801.1 1664.1 1610.4 1581.3 1553.6 1465.3 1389.2 1310.0 1236.2 1177.1 1150.2 1145.1 1124.4 1101.8 1077.5 1065.5 1031.0 1051.1 1048.0 1002.1 970.3 929.6 946.9 980.5 1000.2 1014.9 1033.4 1071.8 1131.1 1219.3 1303.3 1435.8 1578.7 1658.8 1787.7 1926.5 2014.8 2078.0 2107.1 2183.9 2266.5 2237.3 2177.8 2234.7 2150.6 2035.8 1987.8 1915.2 1819.0 1797.0 1827.5 1896.3 1963.2 1954.0 1897.3 1786.9 1706.1 1731.2 1743.5 1641.7 1550.6 1461.5
