ncols   431
nrows   34
xllcorner    10.0675
yllcorner    44.03875
cellsize    0.005010
NODATA_value -9999
128.7 198.5 186.3 214.9 261.0 288.4 291.2 344.9 421.0 476.1 517.9 513.7 562.7 596.3 518.5 447.0 492.9 578.9 657.8 662.0 573.8 541.9 421.8 463.4 562.0 632.5 679.2 747.5 799.8 834.2 874.8 926.2 1030.4 1070.7 964.9 909.5 913.0 888.6 908.8 910.0 824.0 728.6 857.7 919.4 802.1 689.2 631.5 734.7 789.3 921.8 1019.2 1151.5 1311.3 1332.4 1323.6 1281.2 1258.9 1293.4 1380.8 1349.1 1360.3 1489.3 1573.4 1566.5 1491.4 1440.7 1388.7 1323.5 1245.9 1111.9 1162.2 1220.2 1264.7 1379.2 1499.3 1424.4 1303.7 1131.7 1179.2 1300.8 1460.1 1475.8 1547.7 1596.2 1534.8 1438.0 1377.8 1331.5 1287.4 1235.8 1183.6 1148.0 1210.5 1288.5 1337.7 1389.2 1399.1 1383.4 1324.1 1288.3 1260.4 1275.4 1330.2 1299.9 1261.2 1162.7 1044.4 955.5 898.9 845.6 795.1 911.4 1038.9 1165.8 1262.6 1360.8 1477.4 1497.2 1458.3 1460.1 1461.9 1493.9 1567.9 1602.1 1634.2 1661.5 1680.2 1722.7 1695.1 1711.2 1623.7 1542.6 1433.2 1365.7 1315.0 1220.6 1159.7 1180.8 1222.8 1129.4 987.5 941.5 852.8 758.2 714.1 625.3 621.4 664.3 691.3 737.0 775.3 811.9 822.3 761.8 689.4 631.2 542.3 577.1 671.0 735.5 780.1 841.0 924.0 1000.0 1074.1 1147.0 1140.8 1160.7 1126.0 1045.7 970.2 922.5 894.1 829.5 752.4 711.6 733.6 786.9 813.2 790.8 790.9 831.2 768.6 677.1 606.8 553.3 515.7 489.0 440.4 387.7 323.5 355.8 431.6 499.5 529.4 479.8 404.5 318.8 420.5 527.1 630.3 693.1 816.5 918.4 951.6 844.1 802.5 785.9 758.7 699.6 619.8 550.3 508.1 512.0 540.0 549.4 525.7 459.1 482.6 610.6 684.2 689.2 593.7 463.3 400.2 530.1 636.7 731.1 784.3 749.5 665.0 593.2 657.4 692.3 724.3 767.8 827.2 895.7 896.4 830.2 686.7 638.5 709.9 691.6 710.3 724.1 738.5 779.9 797.7 828.3 868.5 787.6 701.6 616.1 588.5 680.3 736.2 784.6 823.6 831.1 833.4 866.6 917.3 933.0 855.3 789.8 742.8 709.1 668.9 653.8 677.6 731.4 765.1 777.4 787.2 812.1 846.8 773.8 630.9 603.1 686.2 628.4 560.4 543.0 488.8 372.3 256.7 332.1 372.6 399.4 426.1 461.2 492.5 581.6 669.6 678.4 633.2 662.2 629.6 599.1 647.8 553.8 577.6 558.7 477.1 443.6 408.6 306.5 270.5 373.0 442.1 403.0 452.3 504.4 536.9 513.3 464.5 401.0 334.8 297.7 351.6 396.2 423.7 466.5 507.5 487.9 397.7 380.6 366.9 356.8 327.2 250.3 249.0 223.1 193.4 148.8 189.2 209.9 207.2 218.8 238.7 240.2 242.9 351.8 328.1 355.0 296.4 241.9 162.3 158.5 200.2 227.0 245.4 236.1 234.0 192.3 230.3 261.1 213.3 220.5 247.9 239.8 229.0 208.9 137.8 162.9 247.4 202.7 189.3 179.7 237.3 262.9 211.5 188.7 184.9 189.9 167.8 150.6 139.3 132.6 128.5 127.6 126.0 123.6 118.3 115.7 105.4 79.0 76.1 72.6 79.7 115.4 114.1 113.6 112.3 109.4 105.9 101.5 99.0 97.7 95.1 90.1 55.4 83.9 94.9 96.3 96.7 99.8 99.8 102.2 103.4 104.1 104.0 103.0 101.6 100.6 99.6 99.9 99.5 98.8 99.0 99.0 99.5 99.5 99.9 99.3 98.7 98.6 95.6 -9999.0 -9999.0
108.2 213.2 223.4 219.9 225.5 202.2 205.1 253.6 401.6 394.0 434.4 398.3 461.0 448.2 397.9 420.7 493.3 562.2 536.2 568.6 484.4 379.5 447.2 535.7 547.3 560.4 602.3 646.3 697.2 721.6 742.2 870.8 954.2 969.1 898.3 836.1 824.2 822.5 820.5 885.9 858.0 704.6 793.3 842.2 797.0 714.5 607.6 693.5 759.8 868.5 925.4 1049.0 1214.2 1263.5 1244.6 1190.6 1167.7 1247.9 1279.8 1268.5 1308.7 1456.2 1622.8 1546.1 1379.2 1338.6 1257.5 1165.9 1182.8 1087.2 1082.2 1281.2 1425.3 1502.4 1503.7 1378.7 1339.6 1160.8 1049.6 1232.2 1307.5 1465.0 1596.7 1655.6 1586.6 1473.2 1406.4 1359.5 1302.1 1269.7 1234.5 1244.5 1280.1 1279.2 1270.2 1281.0 1291.9 1320.7 1295.6 1220.6 1170.7 1128.1 1165.9 1181.9 1106.2 1047.4 1020.8 954.3 893.8 814.3 836.7 945.1 1035.3 1128.9 1241.4 1333.9 1425.4 1506.3 1606.2 1654.7 1666.9 1707.9 1739.4 1767.7 1807.8 1846.6 1838.0 1860.3 1834.4 1759.8 1625.1 1528.3 1439.4 1371.1 1304.6 1205.5 1114.1 1044.3 1011.3 1016.8 975.6 854.1 721.6 669.6 633.0 592.8 719.5 822.4 761.2 824.1 919.6 965.0 951.1 913.3 799.1 797.5 644.7 563.0 651.5 716.8 790.3 845.8 905.8 961.8 1033.7 1098.8 1106.6 1153.8 1115.3 993.6 881.3 799.4 746.9 720.6 682.3 647.2 665.5 693.9 718.0 698.2 733.5 770.8 754.0 692.2 625.2 546.6 479.6 442.3 376.4 331.8 370.3 431.5 477.8 521.3 486.2 421.4 344.1 340.6 429.5 516.6 636.8 723.7 786.6 884.3 1028.4 897.0 804.1 748.1 695.5 652.6 601.8 553.2 573.3 602.7 632.0 641.4 585.5 497.6 478.4 574.1 664.0 733.2 623.8 521.3 402.3 502.9 600.6 719.6 823.9 806.7 701.4 666.2 745.2 731.5 735.1 748.2 811.8 879.6 818.9 739.4 631.7 701.0 783.6 807.9 798.6 772.2 768.6 803.8 857.0 863.7 880.0 861.7 777.8 685.8 617.9 702.7 762.8 822.7 876.6 914.5 928.2 958.6 982.2 950.0 914.2 857.1 811.2 769.1 735.7 785.5 817.9 862.8 901.6 930.0 929.7 939.2 893.4 767.2 685.3 685.0 748.7 643.7 539.6 507.3 513.3 416.1 257.5 358.6 413.8 466.4 542.1 598.9 580.9 614.2 687.8 661.8 588.8 595.0 555.1 581.2 603.2 513.4 549.4 543.2 457.6 350.3 284.3 321.4 402.5 486.5 533.6 465.9 510.9 581.1 534.5 450.2 443.2 341.5 336.8 404.2 480.1 500.8 521.5 444.7 440.1 437.3 408.4 312.4 327.7 275.5 220.2 170.2 160.6 163.4 177.1 190.3 248.4 269.3 234.7 260.5 319.4 303.0 236.0 273.3 344.5 318.7 286.3 253.7 156.1 167.3 261.0 319.5 317.6 288.0 234.3 217.2 243.4 276.8 229.8 258.3 247.4 225.5 228.5 184.6 132.1 232.9 247.2 219.2 268.7 208.7 242.4 226.0 197.1 193.2 223.8 232.6 183.4 158.7 143.9 132.9 130.0 129.2 123.1 111.3 81.4 81.2 75.8 102.1 114.4 79.0 88.2 117.0 116.7 115.2 113.5 109.7 106.4 101.6 98.8 97.2 97.0 83.7 60.8 92.7 95.9 97.2 97.5 99.6 100.9 103.6 104.5 104.6 103.5 101.9 101.5 101.1 101.1 100.2 100.4 100.3 100.7 101.3 101.9 101.8 100.5 99.6 99.4 99.5 95.9 -9999.0 -9999.0
158.4 275.7 227.7 200.1 193.9 242.8 283.1 214.9 330.5 296.5 254.5 280.8 339.1 341.1 415.4 492.4 436.5 373.6 346.1 364.5 352.6 381.6 415.2 436.4 458.7 506.9 530.0 559.7 577.4 628.9 731.7 832.0 883.1 936.2 858.7 880.8 848.2 788.8 747.8 777.6 768.3 681.6 707.3 753.3 748.3 691.3 591.0 669.0 742.3 792.9 848.9 960.8 1127.4 1200.5 1135.8 1033.8 1092.3 1154.3 1175.7 1196.4 1171.3 1239.2 1475.8 1535.8 1402.4 1269.8 1217.0 1116.9 1019.4 983.2 1114.2 1334.8 1364.8 1388.7 1416.4 1283.6 1170.6 1100.6 968.2 1106.9 1227.0 1382.4 1548.8 1685.8 1672.9 1592.7 1474.0 1416.1 1387.6 1348.6 1333.7 1319.2 1271.8 1222.8 1177.8 1165.4 1194.2 1224.7 1240.5 1221.4 1144.2 1095.1 1046.3 1105.5 1035.4 931.4 907.9 860.4 893.4 868.1 839.9 944.3 993.4 1092.3 1207.2 1309.9 1402.0 1507.0 1584.9 1653.0 1617.8 1663.8 1795.8 1886.2 1943.1 1963.9 1961.6 1889.4 1794.3 1716.2 1648.0 1551.9 1470.4 1427.8 1390.8 1279.6 1161.4 983.3 907.0 876.9 844.7 749.4 815.3 823.6 756.6 683.9 784.1 992.3 931.3 964.2 1082.7 1145.4 1133.2 1080.6 934.5 880.9 713.6 577.3 654.0 713.2 771.9 824.0 874.8 934.9 985.3 983.4 997.8 1046.7 1046.5 966.9 850.6 766.5 707.4 655.7 610.3 583.8 588.8 598.3 605.8 613.4 656.8 682.3 689.8 650.0 595.5 517.7 430.8 361.3 346.8 405.0 472.7 516.5 561.4 554.1 482.2 412.8 342.0 427.6 479.3 539.1 611.5 649.1 702.4 755.1 835.6 878.7 819.3 755.5 702.8 639.6 605.0 622.5 670.7 705.3 722.9 689.0 601.2 514.1 480.8 580.5 639.4 710.8 639.7 556.2 441.2 455.7 587.0 683.6 755.2 793.9 697.4 765.8 851.6 867.2 883.2 835.7 855.9 911.0 889.0 784.7 664.1 756.7 800.2 885.1 891.2 869.8 874.1 841.9 878.1 932.7 957.1 922.1 817.9 746.2 685.7 738.9 782.9 835.7 881.5 935.3 993.3 993.1 939.2 877.3 834.9 815.4 814.6 797.2 786.3 822.9 828.4 911.8 955.9 976.3 987.0 932.0 916.0 875.5 790.7 791.3 687.1 542.7 528.2 447.4 401.9 355.5 254.0 383.0 452.1 532.9 586.2 635.0 707.3 706.7 664.3 583.0 564.0 532.4 518.8 566.4 544.8 468.3 523.7 502.8 441.1 294.1 323.9 406.4 456.1 525.2 548.0 539.2 600.5 644.5 520.2 441.3 346.3 372.1 460.0 491.5 515.9 490.9 487.6 411.8 372.9 368.1 362.9 295.4 235.9 195.5 178.2 204.4 247.3 248.9 285.0 232.1 334.8 389.8 334.9 269.5 369.9 361.7 271.7 345.3 327.9 252.0 236.9 222.2 153.0 172.8 229.7 343.0 389.0 311.8 258.2 287.8 313.2 285.4 251.3 281.9 282.3 237.4 209.4 177.0 142.7 248.6 245.7 253.5 254.2 260.1 251.4 255.1 250.9 246.4 234.0 239.2 194.8 160.3 139.1 130.5 102.8 88.6 92.7 90.5 101.1 124.1 119.5 120.2 119.7 103.4 76.8 120.4 119.2 117.2 114.4 111.9 106.8 102.9 99.7 97.3 95.5 66.6 65.6 85.6 95.1 98.1 98.9 99.7 100.8 103.2 105.5 106.0 103.8 102.9 101.5 101.2 100.5 100.7 100.9 101.3 102.0 103.0 103.9 103.2 102.7 101.8 101.2 101.0 98.3 -9999.0 -9999.0
221.1 390.9 355.0 265.1 292.7 348.0 334.6 215.7 227.7 288.4 341.0 294.5 262.2 369.3 445.5 380.5 311.2 320.2 437.2 527.3 566.3 554.0 542.7 477.2 433.0 449.0 463.7 490.3 537.7 611.4 692.2 760.2 836.4 927.9 935.9 930.4 869.8 796.3 738.2 699.4 678.6 658.4 643.6 699.1 725.8 667.2 576.8 667.3 744.5 808.5 862.5 936.9 1036.6 1078.0 1067.8 954.7 977.6 1045.4 1102.4 1092.6 1053.2 1100.4 1313.4 1424.9 1353.7 1196.2 1044.2 957.1 948.6 1036.5 1183.4 1155.8 1143.0 1233.9 1242.9 1169.3 1029.5 900.4 1020.3 1187.5 1341.9 1452.5 1608.1 1623.3 1637.5 1663.4 1626.2 1537.1 1476.9 1421.0 1386.2 1322.2 1304.5 1275.1 1232.0 1168.3 1112.9 1101.3 1115.4 1127.4 1139.7 1124.7 995.7 972.8 978.7 1017.3 994.0 980.3 943.1 895.1 911.5 870.2 916.4 1034.3 1136.6 1201.1 1318.5 1467.2 1445.9 1434.3 1471.0 1562.6 1696.3 1795.9 1933.1 2100.9 2130.7 1992.7 1829.9 1728.6 1634.8 1548.9 1498.6 1425.4 1314.2 1175.1 978.5 847.8 838.2 819.5 827.6 943.3 1053.4 956.8 799.2 750.6 935.9 1135.9 1111.8 1066.4 1147.8 1238.1 1088.0 960.7 804.4 651.4 624.0 646.9 646.5 689.9 740.9 798.1 862.9 889.3 889.3 887.5 908.4 934.5 903.1 846.3 772.6 741.8 687.3 631.8 581.3 540.1 504.1 516.1 513.8 553.3 586.9 621.4 615.8 574.6 515.4 456.0 366.3 379.5 452.5 509.5 553.2 608.4 634.1 582.6 511.3 448.4 356.4 416.7 471.2 487.3 525.7 581.6 623.3 675.8 743.2 800.1 831.0 810.6 781.2 676.0 653.1 697.4 745.2 783.7 740.0 664.1 587.8 506.5 496.8 555.2 627.2 700.3 667.6 607.9 519.8 422.4 557.9 648.7 701.0 750.8 729.0 818.6 904.3 970.0 987.5 935.7 974.2 1007.8 944.1 802.2 716.1 805.4 855.0 899.5 971.9 989.5 995.4 956.7 950.6 1008.6 1045.6 971.8 852.1 779.6 747.3 820.6 830.0 868.9 925.6 971.6 979.7 943.7 896.2 839.9 783.1 739.8 731.3 714.6 706.4 698.4 751.2 784.4 888.7 867.3 918.2 839.7 839.4 879.3 819.9 826.2 746.2 711.3 596.6 491.7 431.4 280.8 322.4 433.7 529.2 560.0 601.4 682.5 734.8 633.0 577.9 557.9 517.4 473.3 463.8 470.9 451.9 423.2 449.6 442.4 429.7 317.5 351.0 483.7 446.0 520.8 592.7 669.1 616.9 593.0 479.5 374.2 401.8 520.1 547.6 544.0 520.4 426.5 456.3 407.0 359.8 335.6 292.2 202.9 189.6 229.4 277.6 327.9 360.5 359.1 372.0 251.4 321.9 394.9 426.1 319.9 338.0 411.6 373.2 342.9 286.3 328.0 307.2 256.9 192.5 165.6 168.8 274.6 324.3 279.3 325.0 382.6 397.1 347.5 326.3 315.7 272.4 251.7 228.8 179.5 151.4 238.7 269.0 242.8 200.6 219.1 241.7 235.0 284.0 276.7 247.2 208.4 169.1 143.8 116.0 96.3 90.9 102.7 105.6 138.9 136.4 132.2 128.3 127.2 123.9 88.2 74.9 106.5 121.2 119.3 116.3 114.1 110.5 104.9 101.0 97.6 94.6 81.4 55.4 52.7 74.1 95.9 98.4 98.7 101.6 105.2 107.9 106.6 104.5 103.4 102.2 102.2 101.0 101.9 102.2 102.7 103.0 103.8 104.0 104.5 103.2 102.6 102.4 103.6 101.1 -9999.0 -9999.0
244.3 443.4 415.4 315.2 335.3 358.3 381.4 275.6 251.2 385.3 409.4 463.3 376.4 292.8 274.3 292.3 348.3 408.3 488.5 580.1 710.0 753.0 700.4 599.3 475.9 533.0 538.6 596.0 584.4 614.6 655.4 712.3 803.4 909.1 967.5 925.2 860.5 780.9 826.6 790.1 711.2 642.8 614.4 651.4 652.0 634.6 562.5 699.7 747.8 804.1 825.4 819.5 864.9 932.2 912.6 879.2 870.0 965.1 994.5 966.5 952.4 1003.8 1074.5 1140.5 1014.1 898.7 897.6 1045.4 1109.1 1166.7 1204.6 1058.7 992.1 1033.9 1068.9 960.8 833.7 895.4 1046.6 1183.0 1316.9 1434.4 1483.2 1410.8 1455.8 1567.1 1630.3 1621.2 1582.0 1496.9 1408.6 1393.2 1392.1 1326.4 1279.6 1227.9 1179.2 1135.7 1065.4 1046.3 1058.0 1042.7 1055.6 1164.8 1206.1 1232.1 1173.1 1069.3 957.9 983.0 1052.6 1022.7 1045.6 1026.8 1011.0 1019.5 1213.8 1303.1 1307.4 1346.3 1452.5 1529.8 1617.3 1730.9 1864.3 1986.5 2064.9 1961.0 1773.2 1649.4 1544.2 1534.0 1429.3 1252.7 1076.6 1003.8 916.3 993.9 1038.3 1094.0 1151.1 1231.5 1256.6 1043.4 813.3 786.7 973.9 1173.5 1263.9 1233.5 1271.3 1289.1 1020.6 772.7 651.1 706.2 741.5 747.0 723.9 722.4 774.2 820.2 852.4 802.8 806.8 801.8 813.3 850.1 822.6 779.3 735.6 682.5 641.1 586.2 540.0 501.6 450.3 439.0 451.5 479.8 509.2 542.8 537.8 486.9 433.5 368.0 371.7 455.7 542.7 618.2 660.4 699.9 709.6 646.6 571.5 504.6 404.7 369.2 431.3 486.8 546.5 600.0 644.3 683.3 722.5 773.0 833.3 830.0 763.3 712.9 723.3 773.9 814.1 776.7 705.9 645.5 586.8 537.3 505.6 565.5 643.2 729.4 733.1 676.6 584.6 455.9 497.8 607.2 687.7 734.2 761.9 801.0 889.2 973.7 1037.8 1035.8 1090.6 1038.0 948.8 834.7 734.7 830.8 899.2 973.1 1033.6 1090.9 1146.8 1085.7 1049.0 1096.1 1117.0 1018.6 896.5 815.0 818.1 885.3 917.9 920.4 947.7 926.9 895.0 869.5 868.4 823.2 762.0 715.6 674.5 646.2 609.8 615.9 651.0 704.3 767.3 808.2 814.3 740.2 753.1 783.5 715.2 807.2 791.6 685.1 553.9 457.5 350.6 263.6 364.0 485.6 578.9 674.9 722.2 705.0 702.9 625.5 560.7 514.9 537.6 573.5 552.1 515.2 485.8 474.8 487.0 438.9 342.4 316.4 397.3 528.9 497.9 547.6 616.8 676.7 627.1 521.2 449.9 390.1 473.6 556.3 544.6 466.6 482.4 404.8 397.3 389.7 315.8 245.1 200.3 207.1 291.1 333.8 377.3 399.1 452.7 395.4 304.2 289.1 311.3 384.4 436.8 383.5 391.5 471.5 393.0 342.8 358.3 299.0 258.6 273.6 254.3 194.0 168.6 265.8 310.8 322.3 374.6 450.8 481.2 441.5 396.3 340.7 313.8 262.3 240.5 223.8 163.4 235.5 251.6 216.5 195.6 190.0 182.8 197.7 209.5 242.9 227.8 172.7 145.6 118.7 98.1 124.4 135.9 154.0 164.6 165.7 158.3 154.0 140.2 135.6 130.1 100.5 83.5 96.5 124.5 120.8 118.1 115.9 112.2 108.2 103.7 99.7 96.7 98.0 95.5 65.1 65.7 95.4 99.4 100.2 102.6 107.3 110.1 108.5 106.6 105.2 103.5 102.7 102.6 102.0 103.0 103.2 104.1 104.7 105.9 105.3 104.3 103.6 103.4 104.5 102.9 -9999.0 -9999.0
203.4 407.0 475.3 421.3 389.8 425.2 440.6 344.3 232.5 270.0 331.4 423.9 491.3 464.6 386.1 364.3 417.9 492.9 535.9 636.3 686.1 818.3 740.6 634.0 531.5 538.9 605.5 687.0 779.8 830.0 779.6 743.2 769.1 859.3 932.4 892.5 876.7 876.2 887.6 829.6 730.5 695.2 608.7 555.8 545.8 546.5 544.3 551.2 635.3 718.7 750.5 717.1 713.1 772.2 821.9 848.4 795.0 854.0 855.0 914.8 929.6 914.3 890.3 885.3 802.4 924.0 1025.6 1083.4 1241.0 1228.8 1103.7 1015.7 921.3 911.4 820.4 774.2 868.0 1020.0 1083.4 1203.7 1310.4 1380.7 1309.5 1257.8 1384.0 1439.8 1435.9 1527.1 1630.8 1652.2 1580.1 1493.3 1441.9 1423.3 1358.1 1314.6 1279.8 1203.4 1122.2 1199.1 1233.1 1219.7 1237.0 1345.7 1398.4 1384.4 1270.9 1119.8 1012.8 1128.5 1172.8 1240.9 1274.6 1209.6 1109.5 992.5 1119.5 1185.7 1233.8 1308.9 1409.3 1499.3 1614.0 1670.2 1726.5 1815.0 1894.6 1904.4 1747.7 1587.4 1455.5 1402.3 1336.6 1069.2 1015.3 1040.8 1094.2 1150.0 1170.7 1200.8 1262.0 1369.6 1261.5 1041.7 900.9 803.1 890.4 1015.5 1189.9 1364.4 1384.6 1215.7 982.1 763.6 723.3 763.9 818.9 836.8 797.9 798.7 832.7 820.5 769.3 720.6 718.2 728.0 724.7 741.0 744.4 745.9 695.8 648.2 603.1 562.0 509.3 427.4 431.9 437.9 417.1 393.7 390.5 417.9 414.0 371.1 374.7 403.3 483.0 515.9 603.3 716.3 781.5 774.1 716.5 648.9 569.8 503.5 430.8 373.6 448.7 524.9 605.8 664.9 718.1 771.8 792.3 830.3 879.4 868.6 818.4 787.6 797.2 838.5 849.1 778.6 724.0 672.4 601.9 541.2 526.2 591.7 666.2 735.3 766.9 678.3 608.7 524.9 466.0 593.4 652.3 715.3 805.8 869.2 884.6 941.6 1022.1 1108.7 1154.9 1073.2 986.4 898.8 753.9 802.8 867.4 944.5 1039.9 1144.6 1218.7 1235.2 1167.7 1193.8 1179.9 1063.9 942.4 860.4 901.9 957.5 1016.9 1027.4 931.6 868.4 816.2 775.4 789.0 783.2 729.8 672.4 676.9 684.6 645.4 559.1 590.5 620.9 635.2 684.0 700.1 664.4 656.7 665.7 632.5 647.3 599.2 537.8 417.9 390.7 287.0 332.1 418.4 511.6 606.7 705.9 731.4 631.4 624.2 575.3 578.9 647.3 717.7 727.7 655.1 669.3 635.8 610.2 527.3 422.0 324.3 445.5 477.9 553.2 556.3 621.0 670.9 585.8 550.3 470.5 393.8 508.2 578.1 529.9 459.7 416.6 427.5 413.3 353.8 331.9 271.3 200.3 249.1 335.7 424.5 400.0 411.3 478.9 450.1 375.9 305.3 383.4 369.4 343.0 411.0 454.7 429.5 451.8 431.6 420.8 322.9 339.0 354.2 368.5 272.9 186.4 170.9 274.0 323.6 326.2 400.2 438.5 512.8 511.4 468.6 439.2 381.5 338.6 304.2 239.8 180.6 231.6 266.6 260.9 236.8 212.7 190.1 187.6 173.6 174.7 176.6 150.6 123.8 97.4 115.3 150.0 168.4 198.3 193.8 189.9 171.1 155.5 146.9 141.8 138.8 121.6 91.1 98.7 125.5 122.4 119.4 117.8 113.8 110.6 106.9 102.7 100.8 99.2 88.4 56.8 91.2 98.7 99.5 101.0 103.9 108.3 109.1 110.4 108.4 106.0 104.9 103.7 103.0 103.3 104.3 104.2 105.2 106.3 107.4 106.7 106.7 105.0 103.7 105.3 104.2 -9999.0 -9999.0
217.5 343.6 404.5 434.0 460.8 473.0 475.3 381.2 271.0 250.7 341.1 366.7 400.4 490.7 488.3 423.6 462.2 542.1 575.8 649.9 719.6 747.8 764.9 722.4 620.9 569.2 617.2 697.8 798.6 920.1 959.2 899.1 844.9 904.0 937.5 915.1 884.9 852.6 832.1 812.0 674.2 617.7 591.0 628.7 635.5 600.5 556.4 523.3 539.2 607.8 664.5 641.0 680.2 670.8 751.1 855.6 792.2 780.8 867.8 910.9 884.3 816.0 778.2 704.0 836.0 888.1 944.2 1068.3 1103.4 1083.7 998.1 876.6 747.8 727.3 779.4 955.6 1116.3 1209.9 1236.1 1181.7 1189.1 1183.3 1171.5 1117.7 1168.9 1231.3 1318.4 1433.5 1538.4 1640.7 1667.8 1597.8 1531.1 1470.5 1360.1 1290.7 1240.8 1183.7 1163.7 1289.9 1342.4 1376.3 1391.7 1480.6 1540.2 1443.2 1197.3 1064.1 1154.1 1282.1 1328.8 1378.8 1435.6 1320.4 1142.1 1005.1 1050.6 1111.5 1120.1 1178.8 1311.5 1476.3 1502.7 1638.7 1720.3 1765.6 1858.7 1841.5 1706.4 1516.9 1387.5 1262.1 1142.1 1103.2 1187.2 1217.9 1269.3 1364.6 1360.1 1383.5 1432.2 1415.6 1251.2 1166.7 1045.0 871.7 932.0 1172.4 1289.1 1392.2 1248.8 1077.9 982.4 757.3 828.6 866.6 885.3 910.1 874.8 861.5 827.5 770.9 704.6 652.8 653.5 651.5 650.5 660.6 653.1 670.4 614.8 570.6 528.3 500.3 446.9 457.5 525.2 544.3 516.0 479.1 428.7 364.9 388.7 436.5 463.8 508.9 606.4 661.1 659.9 721.9 800.5 774.6 717.9 650.6 587.4 517.8 434.3 377.2 458.0 534.0 591.0 649.9 713.1 783.4 853.9 924.6 935.0 906.8 883.4 878.4 869.8 898.9 873.3 803.2 729.8 660.1 597.8 540.0 529.4 584.0 639.8 708.5 748.0 675.4 600.7 547.2 463.4 575.3 638.3 704.9 783.0 869.5 942.7 1013.0 1086.2 1163.3 1200.2 1122.2 1010.8 909.7 780.4 804.4 903.1 958.8 1003.0 1076.7 1157.7 1246.5 1290.4 1253.8 1136.8 1055.6 1003.1 956.7 980.4 1078.4 1135.7 1014.7 921.6 857.6 802.3 716.7 668.4 652.9 638.1 602.3 572.1 608.2 601.0 551.0 593.3 630.3 670.5 708.7 700.0 678.2 682.9 646.5 601.4 538.0 496.1 394.0 297.7 315.6 345.1 414.7 490.5 601.8 720.2 722.5 653.9 628.6 619.4 642.9 730.0 782.3 734.6 650.7 590.6 604.6 609.9 608.6 485.8 354.5 364.9 482.0 565.3 603.3 641.8 715.7 656.5 585.7 495.3 422.8 489.6 577.6 571.6 479.9 442.8 433.8 404.5 353.2 395.8 300.1 211.8 286.9 367.9 357.2 408.4 485.9 465.8 460.8 384.0 339.2 342.3 398.3 424.2 399.3 380.5 451.0 501.5 475.1 512.2 461.9 426.9 445.3 433.9 352.8 256.5 177.6 197.4 275.9 345.1 323.5 367.1 410.3 425.0 478.7 511.1 477.8 432.3 378.9 302.5 213.0 258.8 286.1 284.2 265.5 240.0 225.5 240.8 250.2 202.4 177.5 156.0 139.3 101.7 103.9 126.1 192.4 220.5 228.1 215.3 187.5 171.7 161.9 153.7 129.2 118.5 85.9 107.1 123.8 126.0 124.3 121.8 119.2 116.4 113.4 109.1 107.0 105.3 100.9 70.9 61.8 94.6 101.2 102.4 103.5 106.2 108.7 109.0 110.2 108.8 107.1 107.4 105.4 104.7 107.2 106.6 106.1 106.7 107.2 108.0 109.1 108.5 107.4 105.7 106.2 106.1 -9999.0 -9999.0
199.2 400.8 397.7 428.0 481.9 478.1 465.8 379.6 306.9 251.5 332.0 414.9 431.7 425.6 430.7 419.3 465.3 439.6 435.9 479.8 523.2 583.7 726.5 777.7 755.4 721.3 630.3 709.1 759.7 845.1 933.4 907.4 856.5 899.5 891.0 819.5 787.3 753.8 713.3 683.8 619.8 667.7 725.4 758.9 732.5 709.0 675.4 604.6 503.1 486.9 530.6 530.0 538.9 557.9 608.2 683.3 706.3 762.6 862.7 839.0 807.8 735.1 685.8 644.4 736.0 824.9 905.7 926.4 998.5 1028.0 875.0 729.8 640.3 781.4 896.8 1009.7 1147.6 1219.1 1134.1 1094.5 988.9 949.7 968.2 1052.2 1218.5 1341.4 1407.1 1495.8 1527.3 1580.9 1692.4 1688.7 1594.6 1446.1 1304.9 1272.0 1328.2 1286.3 1240.4 1334.5 1426.5 1520.7 1548.2 1573.7 1499.0 1329.8 1168.4 1098.7 1267.6 1404.0 1498.9 1519.4 1397.5 1222.0 1105.2 1073.2 1081.7 1076.1 1152.9 1251.6 1254.9 1306.7 1472.5 1636.9 1767.4 1884.3 1903.3 1766.4 1661.0 1494.2 1397.6 1385.1 1217.7 1269.1 1337.9 1386.7 1450.4 1578.5 1569.3 1532.0 1490.3 1407.7 1354.3 1220.5 996.5 871.7 1015.5 1263.8 1404.9 1400.9 1230.2 1010.5 826.7 866.4 958.6 973.2 977.7 996.0 962.5 899.8 850.5 820.1 777.6 698.4 614.2 582.3 579.4 574.7 557.8 539.3 489.4 473.0 491.6 497.4 515.5 553.9 602.4 604.8 577.9 517.2 445.7 370.7 433.9 494.3 541.3 578.4 679.6 786.5 811.8 839.3 826.3 763.6 718.9 670.1 594.9 490.5 409.0 406.7 484.9 523.1 578.9 666.0 744.3 819.3 831.3 834.5 859.1 890.2 927.6 952.4 950.7 941.1 878.3 809.5 743.8 682.4 612.4 544.2 551.4 602.9 655.7 718.1 724.1 666.9 604.1 523.1 473.2 562.0 601.7 650.2 708.7 769.3 848.1 916.7 1004.8 1113.6 1165.5 1140.3 1050.4 952.1 861.2 806.4 884.3 1016.0 1101.7 1167.2 1231.5 1261.4 1308.7 1248.7 1111.5 1055.9 1037.1 1028.0 1069.6 1143.5 1077.5 995.9 924.6 838.9 764.7 702.8 649.3 602.3 565.7 536.9 532.2 545.3 528.5 537.8 590.8 620.6 648.5 688.4 737.4 760.6 729.4 648.3 567.6 590.2 471.0 354.8 334.9 416.8 467.8 474.4 528.6 664.2 772.7 692.9 717.8 728.8 666.7 726.0 769.9 716.9 652.1 563.4 518.9 496.0 476.8 460.0 409.3 339.3 431.9 512.7 557.0 638.6 743.0 701.7 617.8 522.9 447.8 522.7 588.6 640.3 533.0 523.2 581.7 547.6 500.0 407.0 305.1 246.9 242.0 363.0 416.1 449.9 451.7 508.4 423.1 372.7 405.1 401.7 421.2 400.1 406.8 480.0 469.7 507.0 462.2 416.8 466.5 423.8 408.1 385.3 342.3 233.3 198.2 180.0 275.3 311.2 375.4 368.1 328.3 372.4 424.2 448.9 396.9 384.2 344.9 326.3 246.6 241.0 337.9 369.3 350.2 314.3 296.7 282.1 305.3 296.9 257.3 204.8 148.0 127.4 114.3 166.3 212.9 257.1 260.1 237.4 213.7 194.5 183.8 168.3 148.8 91.1 98.2 113.1 133.0 131.2 128.6 126.7 124.1 120.6 118.6 117.9 113.0 109.8 107.3 104.3 71.5 56.4 94.9 104.8 105.6 106.9 109.4 110.6 111.4 111.0 109.4 107.9 107.0 107.4 107.7 108.2 108.0 107.1 107.9 108.0 109.2 109.7 109.1 109.7 108.4 108.1 107.8 -9999.0 -9999.0
203.5 297.9 321.3 426.4 435.9 489.3 496.7 410.8 356.9 294.2 264.0 320.8 363.6 364.8 337.6 356.9 370.8 396.8 460.5 467.6 613.7 653.5 695.9 811.1 817.0 775.9 807.9 750.0 801.3 866.2 928.7 919.6 816.1 798.2 784.6 757.8 714.2 647.9 699.1 677.9 697.8 777.4 812.5 872.8 838.5 782.2 721.2 670.7 632.4 548.8 521.6 514.7 459.7 461.3 525.2 577.5 581.7 722.5 804.6 775.6 738.8 690.2 641.8 606.5 670.1 733.0 771.9 811.0 887.6 918.3 793.7 620.0 728.2 832.5 942.4 1013.8 1138.5 1093.6 939.4 898.7 847.8 937.0 1034.3 1170.3 1363.0 1388.6 1419.1 1474.3 1544.8 1621.7 1673.2 1587.2 1473.5 1359.6 1315.6 1402.7 1470.6 1309.8 1283.5 1393.5 1500.9 1602.8 1673.9 1572.1 1450.7 1302.7 1206.6 1119.1 1208.0 1335.3 1448.0 1411.9 1287.6 1214.8 1118.0 1139.7 1198.9 1182.8 1207.7 1275.8 1344.2 1369.2 1372.4 1499.3 1655.4 1817.0 1944.4 1856.0 1734.8 1588.7 1534.5 1501.4 1321.4 1406.7 1489.1 1555.0 1589.8 1631.2 1505.9 1365.7 1251.8 1171.5 1111.8 1029.5 959.0 939.6 1083.3 1293.5 1406.7 1417.7 1202.4 910.1 947.2 1067.0 1157.9 1106.9 1079.1 1087.4 1100.7 1027.5 919.4 854.5 780.4 711.2 659.2 612.4 535.8 504.3 522.8 536.0 562.4 587.6 605.8 609.4 627.2 634.7 617.8 577.9 526.9 479.8 403.0 391.4 476.2 547.7 605.3 654.5 754.4 839.2 903.3 875.5 794.4 726.4 665.2 617.8 564.0 421.3 418.2 437.6 459.6 478.8 516.1 574.8 657.2 733.5 738.1 760.8 812.8 869.2 930.3 988.7 991.9 956.4 937.0 902.7 765.6 690.2 616.9 551.7 586.1 665.6 721.7 750.6 691.0 630.8 561.2 474.8 540.5 627.4 686.1 718.7 743.7 798.4 834.0 878.2 950.2 1029.9 1096.7 1129.2 1059.2 1003.6 979.9 896.8 851.6 984.3 1085.0 1189.2 1282.0 1241.5 1188.2 1156.4 1041.7 990.6 962.4 982.0 1038.4 981.6 940.9 971.4 946.9 861.5 817.2 764.7 728.6 661.9 618.1 606.2 622.0 588.5 507.5 606.3 660.1 697.1 723.7 761.2 809.0 755.6 613.0 549.3 471.8 380.5 328.4 361.0 488.0 550.6 482.6 499.3 603.3 693.9 781.7 752.1 812.3 770.2 761.3 817.7 780.7 687.7 671.2 691.2 630.1 612.0 599.9 520.2 398.3 357.9 488.9 583.6 602.9 615.7 661.1 622.1 522.9 471.3 530.9 616.6 686.0 690.6 564.9 606.3 628.3 484.4 401.7 301.1 229.1 257.4 384.9 495.2 497.0 564.4 543.3 447.5 412.8 423.4 479.6 418.8 513.7 457.2 491.5 494.6 472.5 466.8 389.1 367.6 434.9 419.8 338.8 243.3 201.1 202.7 212.1 271.0 278.6 343.8 406.9 408.5 345.8 369.4 438.7 450.6 350.2 330.2 292.9 234.9 241.4 284.7 362.8 410.8 381.9 343.3 322.4 323.9 296.1 243.2 197.2 160.3 113.1 147.5 183.4 227.8 268.9 267.5 250.3 231.9 209.4 188.9 178.0 145.1 101.3 97.1 132.4 147.5 165.8 157.1 147.4 137.6 131.9 129.3 131.4 130.0 123.2 114.7 110.2 99.8 61.7 57.6 96.1 107.3 107.3 109.2 115.8 114.6 124.9 113.0 112.6 108.3 110.5 116.8 109.7 109.4 108.9 112.2 110.3 110.2 110.5 110.8 111.6 110.9 110.5 110.3 110.4 -9999.0 -9999.0
299.8 445.3 294.5 424.6 524.0 550.6 537.0 463.3 382.8 396.0 383.3 337.7 275.4 364.2 447.0 570.0 638.4 474.6 612.0 499.5 688.2 851.4 869.9 911.2 968.6 895.2 906.9 852.2 846.3 809.7 800.0 781.2 739.9 694.9 692.3 666.7 645.5 705.8 813.9 825.5 798.2 864.3 921.7 993.3 921.5 857.4 795.8 686.9 615.9 674.8 687.5 605.8 532.0 448.6 449.4 502.6 521.2 582.5 641.5 691.9 701.9 684.0 635.2 589.8 616.6 633.3 667.0 743.2 811.9 811.3 646.5 620.2 775.8 914.9 1036.5 1036.6 1021.7 1046.5 862.5 772.2 885.3 1014.8 1172.8 1250.1 1293.7 1251.4 1225.9 1303.0 1369.8 1510.4 1650.9 1586.3 1548.5 1457.2 1412.1 1506.1 1560.9 1393.0 1294.1 1412.6 1600.1 1708.1 1686.0 1529.5 1407.6 1285.4 1214.8 1139.2 1206.5 1323.4 1414.4 1390.4 1300.8 1203.0 1209.5 1167.5 1243.0 1296.3 1284.0 1329.1 1394.0 1466.6 1433.9 1477.2 1562.0 1690.5 1844.4 1900.4 1789.6 1690.6 1619.9 1466.5 1452.6 1516.1 1602.9 1706.0 1668.7 1534.8 1398.8 1321.7 1287.5 1218.0 1146.8 1083.1 1024.0 1012.9 1172.4 1333.5 1423.8 1370.8 1175.1 964.3 982.0 1134.1 1258.1 1284.1 1205.7 1218.8 1242.3 1170.9 1026.8 926.6 889.5 814.9 731.2 634.9 528.8 597.0 654.0 643.8 662.9 698.0 698.0 689.7 707.3 693.0 638.6 583.4 520.1 472.7 384.0 426.3 498.0 553.7 607.8 673.0 762.8 855.8 874.9 820.8 764.8 693.5 630.2 581.4 510.5 430.8 424.1 506.8 536.1 548.1 541.7 551.6 593.0 649.7 702.5 757.6 817.8 884.7 957.3 939.3 910.7 879.0 843.9 840.1 750.9 672.7 586.2 567.4 626.8 697.0 768.6 780.6 716.0 631.9 523.3 498.5 582.8 653.6 727.8 799.8 848.3 886.2 921.4 946.0 946.5 1004.7 1081.9 1151.3 1146.5 1124.7 1079.6 982.4 877.9 976.5 1070.2 1142.1 1196.5 1176.4 1100.1 1037.7 994.2 947.2 910.3 876.9 847.3 851.0 867.2 898.9 932.6 934.3 881.8 850.0 844.8 741.8 694.7 723.2 773.0 678.3 521.4 568.0 702.1 690.1 759.9 761.7 723.4 668.8 548.9 421.6 343.7 347.9 400.9 439.8 515.3 653.4 675.7 536.9 553.0 608.2 704.8 816.8 848.8 828.0 766.6 753.3 725.4 685.7 644.4 599.7 548.3 518.1 501.6 468.3 405.1 360.6 484.1 596.9 716.6 710.9 645.8 544.0 508.2 580.0 623.4 660.7 746.3 663.0 656.3 646.0 567.1 565.7 489.1 359.0 243.2 372.6 449.1 547.4 621.3 581.1 521.3 442.2 511.7 491.0 511.8 471.6 544.2 567.7 511.0 441.8 372.8 371.6 413.3 334.6 303.9 285.5 233.0 223.3 256.2 299.0 361.0 412.2 331.7 350.2 410.5 383.3 422.2 432.2 478.4 440.6 365.2 269.8 275.9 302.2 354.3 340.9 342.1 301.2 297.4 312.3 304.8 259.5 223.8 191.6 164.9 135.6 116.6 210.7 263.3 230.1 237.0 229.1 248.8 219.5 195.5 180.4 164.3 149.5 103.5 103.9 158.0 207.4 198.6 180.2 164.6 154.7 147.1 144.9 142.9 137.0 127.4 116.1 112.2 105.5 65.8 59.2 82.3 106.9 110.6 122.1 121.1 128.1 149.8 124.1 129.3 121.1 119.5 122.1 111.9 111.0 118.0 118.8 113.2 117.8 116.5 112.7 113.0 112.6 112.6 113.0 112.5 -9999.0 -9999.0
329.4 391.6 313.9 447.9 565.8 601.8 499.7 451.4 595.9 600.9 591.2 511.7 334.9 547.7 751.7 814.1 868.2 680.1 742.6 620.9 579.6 768.1 978.4 1142.7 1156.4 1074.6 950.6 773.4 757.1 742.6 757.2 768.4 770.6 751.5 751.2 692.5 744.0 802.7 857.7 912.7 946.3 931.6 1019.2 1078.1 993.4 932.5 829.9 697.1 716.2 743.7 715.6 641.2 581.4 529.8 450.7 415.4 452.1 483.8 524.0 560.6 658.9 670.5 624.4 571.3 577.0 598.0 594.3 623.7 703.4 709.3 563.4 739.0 891.4 967.9 995.9 880.2 786.4 840.0 738.5 835.1 1028.4 1144.9 1238.2 1275.0 1113.5 1071.7 1088.8 1198.1 1353.0 1513.5 1623.7 1698.8 1639.1 1575.3 1532.7 1541.4 1560.9 1449.5 1329.7 1378.2 1547.0 1678.8 1652.8 1534.9 1438.9 1302.0 1211.2 1179.6 1257.0 1397.7 1468.5 1418.2 1329.4 1271.6 1326.9 1261.6 1240.3 1337.3 1394.8 1417.5 1470.7 1561.1 1582.0 1551.3 1602.3 1679.9 1742.8 1848.1 1898.5 1751.3 1670.4 1638.8 1670.5 1663.2 1729.7 1780.8 1650.4 1565.6 1489.8 1460.4 1379.1 1297.2 1233.0 1180.5 1108.9 1089.9 1289.1 1418.1 1411.7 1204.9 1054.7 1016.2 1039.5 1084.3 1171.5 1208.4 1253.0 1315.6 1383.5 1305.3 1181.0 1117.4 1101.5 993.5 760.0 627.7 564.7 656.0 718.5 751.1 755.9 797.7 787.8 755.7 705.5 669.5 654.5 622.0 581.5 519.5 434.0 409.1 487.9 559.3 610.6 665.3 736.7 814.0 840.0 777.4 713.2 650.1 570.4 529.6 451.6 414.0 474.9 527.7 591.2 642.6 636.6 608.2 638.1 719.7 762.7 776.5 831.5 902.5 928.1 885.5 829.6 791.3 751.4 752.2 742.6 712.0 597.3 586.1 652.2 699.6 753.0 762.6 680.8 612.5 525.7 529.2 629.5 689.4 765.3 836.3 902.3 973.4 1007.5 1052.4 1074.1 1079.6 1134.0 1188.0 1224.3 1165.4 1077.6 970.5 930.2 998.6 1058.1 1138.6 1192.6 1155.1 1093.4 1018.8 967.4 925.1 880.9 839.2 782.3 774.9 798.8 813.8 856.2 856.0 839.5 860.6 871.9 790.6 743.5 712.1 747.2 667.9 551.0 497.9 598.7 589.8 725.9 760.1 633.4 506.6 428.3 352.3 418.4 498.4 565.2 578.8 540.4 620.9 765.6 690.0 610.4 624.5 734.6 866.3 955.9 877.2 796.2 713.4 669.1 644.3 609.7 581.8 579.4 574.5 570.7 501.9 377.1 438.2 567.2 665.2 676.6 620.9 540.4 585.5 639.5 710.1 701.2 742.3 670.0 616.6 618.4 546.8 530.4 499.5 497.7 398.4 255.6 390.2 502.0 594.7 657.5 561.6 482.8 521.7 593.7 597.6 612.3 594.3 574.4 556.5 492.6 456.2 410.6 333.8 293.4 245.9 237.0 223.4 225.1 314.9 332.5 341.2 425.6 471.6 385.2 424.6 397.9 399.7 461.9 479.4 429.1 386.2 283.1 295.7 383.8 399.1 376.5 280.4 278.4 260.6 232.1 221.4 247.6 242.6 202.2 180.5 133.4 126.1 207.4 298.9 306.0 248.4 194.5 191.8 192.4 194.0 181.6 167.1 155.5 130.2 107.7 136.1 219.1 226.6 221.3 214.0 191.8 170.3 161.9 154.9 149.1 140.7 124.5 116.1 112.0 100.1 68.2 93.9 103.2 109.7 119.9 165.2 134.5 137.3 177.2 155.7 164.2 170.9 154.0 124.4 117.8 122.9 125.8 119.3 120.3 129.4 121.2 116.3 114.9 114.1 115.4 116.2 114.9 -9999.0 -9999.0
306.7 373.5 325.3 447.9 507.3 558.3 483.7 597.7 795.7 810.4 680.8 495.7 406.2 464.3 680.9 847.6 1014.3 940.0 904.7 701.0 650.2 720.9 977.6 1259.9 1308.0 1139.2 911.4 972.6 986.2 963.3 970.0 962.2 953.9 893.7 885.3 760.8 740.7 825.7 913.2 969.9 1015.5 1033.1 1098.6 1070.5 951.3 824.2 791.7 805.5 919.5 878.3 754.3 682.6 635.1 603.0 554.5 458.8 417.2 433.1 415.0 492.8 613.3 609.5 597.8 534.5 516.6 547.7 531.1 560.8 630.0 601.5 569.5 759.2 868.6 906.4 888.5 741.7 665.3 674.8 756.9 901.4 1049.0 1051.0 1163.3 1052.9 968.7 956.7 1090.9 1258.2 1436.7 1422.0 1510.1 1593.3 1647.6 1686.7 1659.7 1656.9 1562.6 1478.1 1396.5 1367.1 1466.3 1580.0 1691.6 1633.7 1491.9 1316.8 1200.2 1230.6 1314.8 1417.1 1528.8 1517.7 1393.5 1413.4 1455.7 1368.2 1308.4 1362.5 1460.0 1510.2 1500.8 1514.9 1533.3 1491.6 1528.9 1652.3 1690.2 1745.4 1813.9 1667.4 1569.0 1540.8 1558.7 1578.2 1632.3 1701.1 1704.8 1694.0 1623.3 1539.1 1438.5 1370.7 1315.2 1262.9 1174.5 1193.5 1358.7 1487.2 1303.9 1100.1 1167.2 1270.8 1207.5 1154.4 1138.2 1188.8 1268.3 1378.6 1472.6 1439.0 1329.5 1253.6 1221.3 1058.1 858.9 643.2 630.9 723.0 762.1 788.6 818.9 862.3 814.8 746.7 683.2 622.0 577.0 554.2 513.1 488.1 468.5 409.1 440.5 508.4 561.2 627.9 716.5 795.9 818.9 765.8 709.2 644.8 569.6 493.5 420.0 448.8 510.7 569.5 622.0 674.3 716.2 715.3 720.9 735.5 793.9 839.8 874.5 916.9 881.1 811.1 763.8 725.3 683.4 657.5 638.8 636.9 608.3 602.0 633.7 703.4 770.9 737.1 664.7 599.0 498.9 545.7 610.0 668.6 742.4 813.9 896.5 983.4 1027.1 1008.8 1001.0 1028.4 1082.4 1148.4 1167.0 1101.5 1042.3 946.1 1026.8 1117.1 1184.3 1282.2 1278.0 1203.0 1189.2 1120.5 969.9 905.0 857.4 814.6 773.4 717.9 713.8 751.1 793.8 761.0 735.2 788.5 820.0 766.2 699.3 621.0 668.4 595.2 528.3 480.4 466.2 488.6 563.2 673.8 546.7 407.1 338.1 420.0 521.7 598.2 658.2 719.6 715.9 686.9 735.1 790.8 750.1 847.2 867.5 993.8 932.7 818.5 810.8 793.0 812.8 784.6 768.5 759.1 713.8 675.5 563.0 444.0 389.9 531.5 586.4 674.0 702.4 677.9 558.2 658.2 694.1 702.5 764.6 696.8 621.5 534.4 498.3 474.9 442.4 428.0 407.2 418.9 293.4 296.0 432.0 551.2 620.2 551.0 537.5 546.9 647.6 644.4 554.1 543.6 481.9 489.0 495.9 412.3 373.5 270.8 292.2 339.6 276.1 238.1 248.6 369.3 429.5 411.4 423.6 503.5 458.9 428.9 510.0 468.1 461.1 476.2 368.7 336.1 292.0 411.2 460.9 422.3 331.9 276.1 263.5 249.5 221.6 202.2 193.0 187.1 179.3 150.0 133.2 220.4 307.6 271.6 241.1 213.5 234.4 259.6 240.0 232.1 191.5 165.1 148.1 121.6 143.7 233.4 280.5 262.4 241.3 214.1 201.6 183.0 163.1 151.3 146.6 141.9 124.7 118.8 113.1 106.0 69.0 87.1 110.6 115.0 147.4 196.7 154.2 145.4 192.1 218.1 231.7 203.4 164.7 134.3 126.9 158.8 163.7 128.6 132.6 152.2 130.3 118.9 117.4 118.0 117.3 117.9 116.4 -9999.0 -9999.0
333.8 488.1 367.6 372.6 507.1 550.6 509.3 623.6 756.7 866.6 649.1 659.5 687.5 447.1 457.7 673.6 917.7 1142.9 1172.2 1041.1 947.7 862.1 974.7 1292.9 1290.3 1002.6 1008.4 1246.1 1310.6 1192.1 1100.4 1054.6 1020.2 1041.0 1036.6 873.9 737.1 787.0 858.0 976.7 1083.1 1136.4 1149.1 1031.7 899.1 916.0 1013.0 988.9 999.5 941.2 851.1 720.2 645.3 592.3 542.0 445.4 478.5 494.5 387.6 443.5 499.9 536.5 575.9 541.3 477.5 497.6 496.6 550.4 576.7 494.6 591.4 671.1 742.9 799.3 773.7 615.9 705.2 820.3 926.4 895.6 827.7 904.7 1019.5 904.6 853.1 1045.4 1261.2 1326.6 1357.2 1239.9 1288.0 1419.1 1544.8 1661.4 1711.7 1693.1 1658.7 1638.3 1532.3 1493.8 1515.3 1544.7 1685.4 1653.8 1475.5 1298.4 1202.0 1296.3 1398.8 1494.0 1586.4 1568.6 1430.4 1514.0 1550.9 1470.7 1393.6 1348.1 1421.5 1462.1 1419.5 1384.5 1384.4 1371.9 1411.9 1479.3 1465.0 1510.1 1595.5 1565.4 1392.6 1302.8 1344.5 1424.7 1490.4 1482.1 1551.5 1660.3 1744.7 1614.7 1511.8 1455.2 1374.5 1325.6 1272.4 1308.6 1388.7 1502.4 1275.4 1166.2 1280.0 1383.3 1393.4 1389.1 1292.9 1312.1 1335.1 1384.3 1437.6 1445.7 1256.2 1133.2 993.9 887.1 798.5 615.6 709.8 842.4 918.9 915.3 915.1 885.1 826.3 768.7 695.1 624.6 566.7 518.8 531.0 518.7 561.1 568.3 425.0 485.8 577.6 667.5 701.4 697.7 740.9 718.1 653.0 597.7 540.0 462.0 434.0 494.2 545.6 605.0 650.0 689.4 722.7 759.6 793.3 804.9 834.4 877.3 923.9 879.6 824.0 771.2 724.2 684.1 689.5 678.1 653.7 645.5 659.7 674.9 682.3 736.9 747.1 711.1 673.5 607.9 507.4 586.9 629.8 680.0 741.8 804.6 874.1 898.4 906.2 899.2 920.1 990.0 1066.0 1128.4 1176.8 1136.5 1055.1 966.9 1062.6 1138.8 1221.8 1228.3 1195.5 1141.5 1146.4 1107.1 999.5 925.0 857.8 777.3 730.1 693.4 649.1 678.7 714.5 675.7 663.4 720.6 759.8 748.6 624.6 547.7 530.2 547.7 588.4 624.8 582.3 517.3 447.0 504.5 540.2 416.8 360.7 469.5 496.3 529.6 584.6 668.2 782.2 856.7 911.5 869.4 893.9 987.8 1026.0 1040.4 986.8 871.8 800.8 719.1 688.6 710.9 722.8 693.1 687.9 605.7 507.5 395.5 446.7 504.0 575.0 683.4 729.9 656.8 580.6 635.5 694.3 752.0 754.1 654.0 575.2 563.1 549.5 469.1 486.1 456.9 459.8 385.1 319.1 256.0 352.5 488.2 576.8 607.8 608.0 586.5 622.7 549.5 490.2 475.0 445.4 437.3 431.2 337.3 271.4 343.3 453.9 343.2 252.4 367.4 324.8 286.0 411.1 465.4 517.9 513.7 471.8 523.6 553.1 473.8 519.9 467.7 438.4 388.3 306.1 416.4 464.2 383.3 344.4 387.0 388.4 356.4 311.7 249.3 200.6 175.0 137.9 135.3 223.5 278.4 309.0 249.2 233.7 241.3 307.1 299.5 244.7 198.0 163.4 142.8 114.8 137.0 211.6 293.4 293.5 283.9 265.6 218.8 199.7 166.8 162.7 152.1 139.7 130.1 124.0 117.7 100.9 81.2 74.7 82.2 115.0 125.7 161.6 212.3 203.7 154.9 221.0 297.6 253.0 209.1 170.9 144.3 143.9 178.1 167.4 132.1 140.2 154.9 122.0 119.3 118.6 119.2 120.3 118.1 115.5 -9999.0 -9999.0
307.2 525.9 431.0 346.7 375.2 397.3 452.7 521.8 740.1 873.2 838.1 894.9 945.2 742.3 558.8 545.0 775.0 939.5 1047.0 1149.5 1273.0 1345.4 1205.8 1358.6 1310.8 1070.5 1169.8 1366.1 1534.4 1370.5 1307.2 1260.8 1164.5 989.3 885.6 796.1 753.9 783.0 912.8 1006.1 1144.2 1235.2 1149.0 1029.0 907.7 953.6 991.7 974.2 923.1 793.2 724.7 675.7 634.3 538.9 487.0 468.3 563.5 553.1 446.2 376.2 430.5 482.8 527.6 546.9 489.0 482.4 481.2 513.7 507.1 442.9 529.6 600.5 677.7 705.5 605.8 630.0 830.6 891.6 873.4 736.0 674.7 736.3 795.6 754.6 899.8 1060.7 1209.4 1369.6 1304.5 1132.7 1168.4 1275.0 1325.9 1436.6 1451.5 1609.7 1782.5 1763.1 1666.9 1657.1 1662.1 1681.6 1650.9 1540.9 1409.2 1302.4 1233.6 1355.5 1481.8 1623.6 1678.1 1598.9 1482.7 1605.1 1616.9 1551.6 1482.5 1424.1 1457.3 1438.6 1376.4 1331.5 1275.7 1260.9 1307.8 1335.6 1284.3 1347.0 1386.3 1410.9 1349.5 1172.3 1237.9 1301.2 1304.7 1336.6 1431.5 1542.0 1687.9 1712.7 1622.6 1551.6 1477.9 1404.1 1380.8 1443.1 1484.2 1449.8 1217.9 1328.1 1444.3 1523.1 1588.0 1595.6 1491.5 1556.4 1410.1 1269.8 1143.2 1188.6 1121.2 951.0 867.1 699.3 725.0 715.0 832.5 913.2 977.0 1077.1 1101.5 1009.4 923.8 841.9 756.8 644.6 583.5 609.1 642.7 613.9 628.9 609.8 512.7 419.0 471.4 565.1 589.2 656.4 719.0 676.7 605.3 556.5 511.8 445.5 453.3 485.4 523.1 549.3 579.3 616.5 657.2 708.5 767.6 834.8 891.0 936.2 920.4 842.9 860.5 865.7 765.9 845.0 903.5 890.5 819.3 758.6 746.5 763.5 761.0 790.3 742.4 677.0 578.5 562.3 546.8 614.6 690.6 726.8 766.5 802.2 847.0 818.5 826.0 809.3 860.2 904.6 955.4 1033.3 1097.8 1088.5 1046.2 1014.8 1030.0 1127.1 1160.7 1095.2 1031.3 1019.6 1009.0 989.7 955.9 911.0 845.9 784.0 727.1 671.3 631.7 609.6 632.9 612.8 614.1 647.8 615.8 589.9 589.7 723.3 705.0 737.4 776.4 703.8 587.0 573.6 578.0 491.2 419.7 364.2 461.7 596.4 656.9 566.7 666.6 725.5 734.5 827.8 952.9 933.0 931.6 942.6 903.2 966.8 978.3 948.9 853.2 808.9 746.7 651.6 605.9 560.6 517.9 509.0 416.8 448.8 533.1 547.6 632.5 733.7 719.7 696.8 622.6 623.3 683.8 721.7 750.5 662.6 627.2 618.3 544.2 589.8 584.9 584.6 485.7 398.5 289.7 291.9 372.3 424.4 467.9 519.6 588.8 674.5 646.0 587.5 592.3 573.8 526.3 406.0 348.4 280.7 389.1 486.9 447.9 290.2 316.0 426.6 357.0 277.4 358.9 438.6 507.3 559.9 514.8 591.6 601.9 515.7 571.9 544.1 468.4 352.4 371.2 438.7 454.4 461.5 442.1 371.8 301.8 268.9 254.3 181.5 156.4 140.0 154.8 162.7 254.0 271.2 268.7 257.3 291.1 291.4 322.5 326.0 247.8 169.8 124.9 122.1 175.2 219.0 263.8 276.5 249.6 276.7 273.6 238.8 184.2 183.9 177.9 159.2 145.7 127.1 118.1 112.8 92.7 80.9 106.8 123.5 127.1 139.8 203.1 246.6 248.0 183.0 181.3 265.3 331.0 280.2 215.3 160.9 169.7 192.5 148.7 161.0 184.4 150.6 123.0 121.4 120.8 120.6 120.0 117.9 116.7 -9999.0 -9999.0
310.7 558.0 442.0 471.0 467.2 582.8 724.2 593.2 737.7 982.4 1078.7 1091.3 1197.8 1016.1 672.2 582.2 643.4 781.8 840.3 947.4 1109.8 1308.9 1460.1 1560.3 1398.7 1136.7 1252.9 1476.3 1670.8 1591.3 1502.2 1339.1 1177.6 941.7 783.9 766.4 792.6 889.3 890.5 930.5 1046.5 1118.8 1039.9 961.7 936.8 868.4 813.2 791.9 733.5 707.8 588.6 513.3 495.4 542.2 568.9 604.5 664.3 581.5 535.5 438.9 364.5 387.3 441.2 463.6 462.8 471.3 456.9 423.8 412.4 427.7 496.7 543.6 579.0 510.6 598.5 748.1 845.1 680.0 644.3 601.1 718.9 763.4 817.9 883.8 931.0 1027.5 1188.1 1294.5 1127.0 1023.4 1083.5 1011.2 1110.6 1243.9 1434.2 1613.9 1669.3 1680.6 1656.9 1773.4 1820.6 1857.0 1660.8 1552.5 1476.1 1392.1 1291.0 1374.1 1491.1 1596.8 1727.1 1623.4 1539.1 1699.2 1713.5 1639.3 1582.4 1551.6 1592.9 1549.7 1463.8 1406.9 1343.2 1263.3 1191.9 1200.9 1216.5 1166.8 1169.2 1207.4 1238.1 1062.3 1116.4 1180.3 1152.7 1255.9 1372.9 1487.3 1602.7 1683.8 1711.2 1650.6 1571.7 1564.1 1489.6 1553.1 1597.3 1455.5 1282.1 1387.1 1503.0 1605.1 1708.0 1774.8 1702.1 1692.4 1515.9 1331.9 1099.4 951.3 905.7 766.8 759.5 846.6 876.5 804.9 936.2 1055.1 1052.2 1081.0 1153.1 1200.9 1125.8 984.5 842.8 696.6 676.3 710.3 712.2 702.6 685.3 633.5 562.0 475.0 424.9 509.3 585.5 674.5 721.8 700.9 645.5 602.9 553.8 459.6 499.0 550.8 535.5 540.6 567.2 607.5 662.8 722.9 781.1 837.3 899.8 971.2 949.5 909.5 939.5 833.5 941.9 1031.2 1090.7 1075.4 981.0 933.5 928.3 893.8 864.0 838.4 777.1 695.6 635.9 718.8 717.6 656.4 604.3 657.0 697.6 757.3 754.9 730.2 772.8 751.6 804.0 846.9 893.2 944.6 997.5 1063.3 1138.0 1147.3 1088.2 1127.5 1192.6 1111.7 990.8 934.0 907.6 888.0 875.1 868.6 834.5 797.3 769.7 740.7 686.0 631.6 601.2 581.7 575.8 581.9 625.7 726.4 810.3 893.8 936.1 930.4 887.3 767.3 674.3 733.7 697.2 592.3 450.7 405.7 505.1 613.4 737.3 719.4 636.3 728.1 838.4 901.1 939.7 883.6 797.6 795.9 859.7 901.0 834.3 900.0 892.4 793.9 691.9 616.1 541.1 464.4 456.6 479.7 477.1 565.4 654.0 667.8 660.3 761.1 770.5 711.0 644.8 648.8 738.5 771.7 809.4 792.8 754.8 667.2 663.4 598.0 525.1 444.1 428.5 359.5 271.8 366.3 454.7 479.4 497.0 500.1 540.3 641.1 575.4 564.8 581.2 501.3 431.7 357.2 299.8 338.1 471.4 520.1 422.1 301.4 307.6 452.2 332.0 337.2 425.9 384.7 479.7 562.2 591.5 623.1 631.7 585.6 532.1 457.6 372.1 426.5 496.9 472.9 383.8 391.4 432.0 398.7 337.4 260.9 178.2 142.1 175.1 205.7 190.3 199.7 298.1 357.6 369.6 336.6 283.9 344.8 325.8 279.9 208.8 144.8 127.5 151.5 221.4 281.3 277.7 223.6 209.3 199.7 196.0 190.2 215.1 206.3 180.7 168.8 146.5 122.3 81.1 74.2 77.2 76.3 132.4 155.4 153.9 134.2 151.0 165.0 207.3 207.0 168.7 201.4 254.2 287.1 234.2 185.4 199.2 180.7 162.4 197.4 209.2 167.0 127.1 123.9 123.5 123.2 121.4 119.3 116.5 -9999.0 -9999.0
359.8 651.3 635.7 515.5 612.5 670.7 804.5 783.3 811.3 863.7 1065.8 1163.2 1239.1 1158.0 868.2 913.2 785.6 687.1 721.7 871.1 1018.6 1152.1 1311.6 1502.9 1406.5 1223.7 1150.6 1322.3 1609.0 1740.2 1497.4 1225.6 1103.5 924.7 851.7 901.4 913.5 979.7 1093.8 1059.2 1049.8 1091.3 1049.2 1036.1 1069.8 929.9 782.3 660.9 582.1 533.1 631.7 644.6 639.0 758.3 758.8 722.4 748.5 668.3 602.9 514.4 444.2 376.0 353.6 371.8 402.9 446.7 379.8 394.4 434.8 448.0 464.5 513.6 483.3 555.5 684.5 761.5 682.9 524.7 600.8 742.4 903.3 997.1 1026.4 1104.5 1117.0 1175.9 1224.7 1178.7 1087.9 908.0 936.2 935.4 1127.6 1281.7 1440.0 1417.2 1504.0 1434.3 1451.9 1686.2 1885.1 1976.0 1791.6 1656.5 1591.4 1467.5 1335.8 1427.0 1560.4 1683.7 1726.7 1645.9 1581.9 1794.9 1825.7 1740.0 1719.7 1692.0 1696.9 1624.4 1557.3 1482.7 1397.9 1330.8 1276.5 1184.3 1079.4 1078.9 1007.6 1041.3 1075.8 993.3 998.3 1050.9 1076.3 1181.4 1288.8 1385.2 1490.0 1583.6 1689.8 1731.6 1713.1 1660.4 1599.6 1654.5 1644.7 1460.8 1466.6 1547.8 1557.5 1666.6 1767.5 1767.0 1701.3 1557.6 1427.2 1278.9 1193.7 1087.5 875.7 809.7 994.1 1070.1 894.3 895.7 1028.4 1161.5 1224.2 1185.5 1177.9 1180.6 1212.3 1068.3 865.2 774.2 888.4 879.0 849.2 782.9 698.9 631.8 577.4 493.5 422.3 507.9 571.0 617.0 670.0 728.4 707.4 640.3 585.1 498.5 521.8 597.2 667.6 662.6 617.7 626.5 657.5 714.2 782.9 861.7 941.2 992.4 1012.2 986.4 952.0 924.6 1075.6 1174.6 1210.7 1173.7 1080.2 1120.2 1115.7 1088.4 1024.5 881.9 755.9 647.0 646.3 739.6 766.7 704.2 680.9 636.7 621.9 652.9 691.9 682.7 682.8 744.1 798.8 846.5 890.3 936.7 990.1 1084.4 1203.3 1242.0 1191.5 1170.9 1208.3 1086.2 976.5 887.2 853.4 812.4 786.5 777.4 767.4 728.1 695.8 697.1 690.9 667.0 646.1 653.2 636.9 636.7 654.8 687.9 765.8 813.0 841.5 850.6 818.9 714.0 695.0 694.7 619.4 489.6 387.9 466.7 617.7 576.3 689.5 807.6 776.5 749.1 821.2 945.4 905.0 794.9 750.9 753.0 769.0 749.5 832.7 882.3 827.7 869.5 759.8 660.8 511.2 503.8 641.6 678.6 594.6 585.9 696.4 795.6 789.5 804.3 769.7 759.3 667.4 687.1 750.0 767.5 707.8 732.0 772.8 736.7 702.5 679.8 635.1 517.5 409.5 291.8 319.1 392.1 413.1 423.0 445.6 506.0 569.1 635.3 546.1 474.8 453.2 392.2 328.7 351.7 450.7 529.9 493.4 530.7 441.3 285.7 362.9 470.7 332.3 466.8 521.3 454.0 462.0 508.2 600.6 624.3 559.6 551.5 465.0 415.9 464.9 518.5 467.8 371.8 329.5 318.1 357.9 340.8 258.0 176.4 157.9 195.7 255.6 272.9 208.3 183.6 286.2 368.5 415.3 340.5 339.1 300.1 256.1 226.3 148.5 145.6 211.8 238.4 260.6 308.1 300.5 240.1 231.7 232.3 235.7 249.3 249.2 212.0 190.5 181.3 147.7 108.1 75.6 94.4 116.7 130.1 162.7 195.8 187.8 136.2 153.5 187.7 210.0 249.9 223.5 185.8 201.5 220.3 260.0 250.9 221.8 211.3 211.3 204.3 168.5 151.3 130.7 127.3 125.7 125.3 123.6 119.8 117.9 -9999.0 -9999.0
420.9 766.1 819.4 698.0 749.4 885.1 858.5 890.0 1066.0 1085.4 1102.3 1266.7 1307.7 1217.2 1131.8 1230.1 1181.2 1022.9 927.4 883.5 943.8 1098.7 1288.1 1567.8 1518.6 1382.0 1265.7 1326.4 1513.6 1679.1 1527.3 1333.6 1130.5 1142.5 1158.4 1151.8 1065.7 1010.5 979.2 1000.6 1063.4 1123.8 1146.7 1141.0 1010.4 880.1 761.6 593.5 686.9 813.9 843.2 782.3 812.0 859.2 966.3 883.2 775.0 696.5 667.8 596.3 522.8 474.7 445.4 371.2 353.2 382.4 362.1 413.0 425.2 437.9 466.0 497.8 432.8 500.4 621.8 612.6 474.8 519.1 700.5 873.6 1024.5 1027.1 1064.6 1177.4 1282.9 1186.2 1070.6 1031.9 1064.5 860.0 814.3 1003.8 1167.4 1224.3 1293.7 1227.2 1234.9 1251.5 1428.6 1567.5 1700.2 1857.8 1881.2 1689.5 1691.2 1618.1 1459.8 1483.2 1584.2 1675.6 1782.5 1679.3 1627.3 1769.3 1892.2 1868.0 1817.9 1656.2 1515.5 1417.3 1363.6 1324.4 1312.6 1344.9 1352.3 1290.3 1230.8 1120.9 1024.5 929.4 874.2 855.0 872.1 948.1 1044.0 1161.5 1235.0 1335.6 1455.1 1508.8 1585.0 1699.6 1739.9 1734.7 1779.9 1765.6 1652.8 1590.9 1553.7 1680.1 1746.6 1695.8 1717.0 1523.3 1423.6 1330.9 1253.8 1123.3 1075.6 956.0 837.3 946.6 1174.6 1133.3 923.7 945.1 1103.5 1252.9 1381.7 1398.4 1261.4 1134.4 1058.8 942.0 851.8 969.5 1146.1 1164.4 1073.7 949.3 770.3 637.9 521.9 454.7 456.8 480.4 512.5 563.3 628.5 692.2 671.0 600.6 538.3 497.6 526.0 587.4 647.5 709.9 723.3 694.6 730.1 743.3 804.6 934.0 994.9 994.5 997.5 951.4 917.2 942.7 1038.3 1112.7 1135.6 1107.4 1103.8 1141.4 1122.7 1097.9 1057.3 937.1 746.2 714.5 794.3 836.7 836.4 781.3 713.2 682.6 664.7 629.2 693.0 766.5 741.1 751.6 801.5 860.5 932.7 999.8 1062.8 1147.7 1214.2 1219.0 1156.7 1213.2 1209.8 1055.9 955.5 882.8 822.1 756.4 726.4 696.7 694.1 682.4 633.8 605.2 614.6 587.3 580.6 620.8 565.4 565.9 587.7 638.7 677.0 698.8 724.2 741.7 836.4 760.3 640.3 540.2 483.4 397.7 440.8 580.7 737.4 740.4 673.5 735.9 857.4 926.7 898.5 932.7 932.8 877.4 786.2 722.9 681.1 688.1 761.5 728.2 798.2 847.1 794.4 682.5 503.0 564.1 705.4 765.7 712.9 604.9 640.9 705.3 727.6 811.7 819.6 709.9 662.0 712.0 737.9 678.8 636.6 697.0 649.2 614.5 574.3 569.8 600.7 578.2 427.9 287.4 387.3 433.7 491.5 515.8 501.1 518.5 594.6 554.2 488.9 441.1 394.4 325.8 430.0 498.2 517.0 621.3 555.0 477.5 391.6 287.8 438.8 424.7 358.4 437.5 480.1 540.0 579.1 601.0 606.1 548.5 485.6 472.6 470.8 551.3 590.9 565.4 497.7 468.5 405.1 310.9 256.9 212.8 188.6 178.5 211.3 294.4 362.9 348.5 293.7 209.5 278.1 358.2 423.4 389.7 303.1 296.6 300.3 214.7 136.7 184.5 261.0 296.3 320.2 344.1 284.4 240.4 287.0 302.6 298.3 302.0 256.2 224.2 199.9 178.8 153.9 101.9 80.7 81.9 121.6 165.5 201.9 211.9 175.5 156.5 144.4 164.1 188.7 247.2 284.3 259.7 218.6 276.8 277.4 221.0 187.1 193.4 206.8 208.7 173.5 149.6 135.0 130.7 129.3 128.4 124.6 120.6 117.3 -9999.0 -9999.0
498.0 830.0 902.2 872.9 781.9 840.9 950.9 1034.3 1107.6 1197.8 1323.7 1402.3 1306.5 1313.6 1246.3 1224.5 1358.6 1349.4 1291.9 1150.5 1032.9 1075.7 1304.7 1573.6 1700.5 1595.8 1488.6 1475.5 1607.7 1651.9 1529.9 1406.8 1296.9 1390.9 1458.0 1250.1 1153.7 1078.4 956.2 835.4 891.5 998.1 1015.6 1043.3 1002.8 863.5 675.6 586.3 657.3 790.8 913.9 913.4 931.1 1027.0 1125.3 980.8 846.9 786.4 685.9 616.4 610.1 558.5 518.7 456.9 391.6 327.9 364.6 390.4 406.7 429.9 483.8 550.6 482.7 391.2 485.1 432.5 434.0 583.3 714.7 766.6 938.8 853.9 1000.4 1160.6 1226.9 1073.4 996.6 882.9 902.8 733.2 905.7 1056.0 1024.9 1118.3 1278.6 1139.7 1073.8 1167.8 1317.7 1354.7 1557.9 1752.8 1875.9 1771.3 1788.8 1780.8 1619.9 1570.2 1687.3 1772.8 1829.4 1767.4 1734.5 1788.8 1804.5 1681.7 1572.8 1447.0 1468.5 1485.8 1452.1 1426.3 1345.0 1206.3 1311.7 1362.7 1361.5 1354.2 1267.9 1146.3 1078.2 971.0 819.9 837.9 992.1 1135.0 1247.1 1344.7 1405.2 1469.8 1548.5 1586.7 1574.1 1632.7 1693.6 1762.0 1774.7 1727.0 1677.5 1688.9 1827.3 1915.1 1786.2 1526.4 1313.9 1197.4 1107.9 1050.0 1075.4 963.3 1017.6 1157.1 1164.0 1013.6 978.3 1065.8 1094.2 1201.5 1346.7 1441.2 1342.3 1186.6 1019.2 947.1 1070.1 1163.6 1198.3 1158.8 1026.3 836.8 672.0 496.9 559.6 664.3 642.4 588.5 506.9 548.9 621.1 698.5 702.4 641.2 587.6 508.7 514.9 588.8 656.0 723.5 785.9 791.9 824.8 840.0 866.6 918.3 1016.4 1026.3 940.1 918.5 904.7 933.8 1000.5 1047.5 1024.7 994.2 1010.2 1050.2 1055.8 985.6 902.6 841.2 701.5 841.6 993.3 1034.9 995.1 889.5 833.6 764.8 693.8 637.3 641.4 710.8 749.5 782.1 821.1 877.6 951.4 1034.5 1107.0 1189.8 1213.9 1149.3 1060.1 1084.1 1021.7 980.1 922.4 862.6 801.9 731.1 675.4 641.6 627.3 649.7 593.4 562.2 549.9 536.7 569.4 579.7 539.2 518.3 553.9 575.1 550.3 559.5 531.3 631.2 729.8 711.1 661.6 563.7 427.7 397.0 504.7 624.0 696.2 813.3 860.3 755.2 867.3 1006.9 973.7 856.4 801.2 823.9 822.4 807.0 733.5 675.9 627.1 647.3 695.1 733.8 747.6 638.5 500.2 562.6 717.3 756.7 699.1 655.7 683.9 677.2 746.5 814.4 745.1 712.2 756.0 679.1 635.9 589.1 674.3 591.9 516.7 567.4 477.8 460.2 463.7 464.1 334.4 309.0 448.8 519.1 567.5 635.9 667.1 654.1 685.4 613.7 522.1 393.8 342.8 412.3 473.7 575.1 640.6 611.0 527.4 451.8 327.5 312.4 462.9 420.6 433.0 515.8 554.4 560.6 525.1 564.0 531.1 481.3 443.5 477.9 524.0 515.5 543.9 489.8 491.2 466.8 373.2 237.3 176.5 189.9 250.7 327.2 291.5 259.8 334.6 379.0 320.5 250.1 225.7 334.3 414.3 429.5 401.1 385.0 334.1 210.7 140.3 202.4 269.3 351.8 378.4 336.6 302.2 291.7 328.3 321.4 268.3 232.8 215.0 218.3 210.7 202.5 145.1 90.4 93.9 134.1 183.8 215.3 232.9 246.1 228.9 184.2 144.6 170.0 181.3 212.2 265.2 305.7 234.9 287.7 301.7 237.2 193.1 185.9 167.1 171.8 172.8 160.6 139.8 134.5 132.1 129.7 127.7 117.7 106.5 -9999.0 -9999.0
442.4 733.9 740.7 709.6 595.9 715.7 898.3 991.9 1019.9 1145.1 1258.1 1384.5 1394.2 1398.2 1361.6 1267.7 1372.9 1539.6 1480.0 1373.1 1292.1 1230.7 1315.2 1403.8 1517.4 1497.2 1461.5 1533.6 1643.7 1725.4 1590.1 1471.9 1444.7 1412.4 1540.1 1354.0 1198.2 1124.3 945.1 795.8 748.5 770.8 832.1 842.4 771.0 669.3 607.7 674.7 692.3 829.2 900.7 949.1 1024.0 1120.6 1210.8 1083.5 986.7 854.5 772.8 681.2 676.4 593.3 542.7 469.5 423.2 359.9 314.1 333.8 383.4 435.5 462.7 462.5 451.8 316.9 315.8 307.6 412.5 487.5 599.6 735.6 765.0 745.0 922.9 1069.1 1162.1 1080.1 943.6 839.8 715.6 726.0 874.0 865.3 964.7 1122.7 1165.4 1140.1 966.5 1086.8 1120.5 1185.2 1355.4 1594.4 1759.4 1860.5 1903.8 1782.5 1730.4 1716.9 1686.8 1693.4 1739.7 1833.7 1886.6 1811.2 1680.4 1561.7 1522.7 1604.3 1668.8 1610.2 1570.0 1483.5 1374.5 1233.9 1131.0 1159.3 1285.7 1330.9 1308.7 1284.9 1263.2 1099.5 923.7 762.5 902.4 1050.3 1154.5 1238.0 1352.2 1447.5 1500.9 1425.9 1411.0 1482.7 1578.2 1697.6 1782.4 1832.0 1791.1 1743.0 1799.1 1902.1 1805.6 1577.1 1414.1 1292.0 1294.1 1332.3 1174.3 1114.5 1298.1 1354.0 1176.7 1029.2 1081.6 1193.9 1300.4 1357.0 1432.0 1388.5 1295.0 1203.2 1181.2 1193.5 1182.1 1099.6 970.2 913.3 854.9 679.4 525.7 609.9 826.8 947.0 855.1 720.3 563.2 594.0 683.6 756.1 771.2 711.3 656.5 553.5 527.2 643.1 749.2 847.4 933.0 982.4 1045.0 1071.4 1077.3 1054.1 996.7 975.9 979.3 995.0 950.8 966.4 989.9 1039.9 961.5 892.5 863.4 873.2 917.5 944.7 886.2 728.7 839.3 1001.0 1129.3 1196.1 1062.2 977.6 950.5 804.6 748.0 678.4 628.3 671.3 713.9 761.6 811.8 853.4 906.3 966.8 1045.9 1136.0 1163.4 1070.2 990.4 937.1 894.7 888.9 882.9 829.6 769.0 729.6 685.7 620.9 595.9 643.7 631.0 600.0 573.6 532.9 510.0 495.3 491.2 489.6 477.2 466.4 485.5 598.9 614.2 531.4 493.4 547.4 493.8 458.4 434.3 526.9 555.7 659.3 805.2 845.7 905.4 828.0 926.3 933.5 910.6 858.9 738.2 697.2 683.9 699.0 730.5 707.1 665.8 606.7 585.0 601.6 618.7 528.9 529.4 677.2 781.1 809.0 720.9 750.7 775.2 741.2 802.9 774.9 761.3 797.3 736.1 619.1 538.9 578.6 638.9 564.1 466.6 466.0 420.1 386.0 365.8 340.7 288.5 375.7 491.4 563.1 605.7 655.1 684.1 623.3 636.6 608.9 491.0 358.1 405.0 506.4 585.5 663.8 612.1 537.7 475.4 407.7 316.9 431.5 528.3 407.1 483.8 595.9 573.3 507.7 468.5 523.7 485.8 415.3 411.2 459.8 451.5 433.7 416.1 372.5 358.8 357.6 252.4 191.2 230.5 305.1 325.0 390.4 376.6 295.0 328.4 407.4 367.9 318.1 236.4 315.7 376.7 366.6 336.7 266.3 242.5 218.4 149.8 193.3 274.3 348.3 409.1 406.0 376.8 363.3 356.4 303.5 287.0 248.3 196.4 188.6 178.3 165.7 130.3 90.4 119.2 194.3 232.7 260.1 269.7 229.3 202.7 178.3 150.7 183.8 229.9 281.9 304.0 330.9 307.4 305.2 303.4 297.8 272.3 221.1 199.8 212.1 191.0 165.1 144.5 136.0 132.9 131.2 127.9 117.3 109.3 -9999.0 -9999.0
363.0 600.0 568.9 485.3 583.7 714.5 684.4 785.8 940.1 1060.8 1113.4 1148.1 1144.3 1152.9 1217.8 1321.1 1410.6 1560.0 1546.0 1261.0 1107.9 1205.5 1254.6 1102.6 1175.9 1151.4 1113.8 1249.7 1416.9 1626.5 1673.6 1720.3 1702.8 1653.4 1647.5 1460.0 1220.3 979.2 801.3 700.5 679.5 631.1 615.4 613.0 589.2 673.6 804.4 776.7 733.4 802.7 944.5 982.3 1038.6 1114.8 1254.3 1180.6 1073.3 988.6 901.9 768.9 670.1 592.7 548.4 524.5 524.5 476.0 376.8 310.0 329.0 343.8 361.5 381.7 320.9 356.9 472.4 373.4 295.2 429.6 539.0 595.6 611.0 680.1 805.7 950.7 1116.9 1086.8 928.6 785.7 640.2 706.7 823.7 936.0 1060.7 1132.7 990.2 962.6 885.8 997.0 1036.5 1200.3 1261.0 1371.8 1518.4 1689.1 1830.0 1738.9 1692.7 1715.5 1512.4 1403.6 1527.3 1712.8 1867.0 1802.8 1721.6 1669.7 1708.9 1779.9 1728.7 1713.0 1642.3 1528.3 1409.8 1324.4 1226.7 1111.5 1048.6 1016.6 1028.7 1111.5 1199.4 1157.3 993.5 773.0 787.4 910.7 1037.7 1180.9 1286.1 1365.1 1371.6 1242.5 1254.2 1362.1 1503.3 1576.5 1533.0 1634.5 1739.5 1855.3 1855.6 1757.5 1711.5 1685.4 1579.7 1526.6 1379.4 1260.5 1179.0 1302.8 1379.5 1325.1 1152.3 1173.2 1279.5 1335.9 1383.8 1333.0 1217.6 1149.1 1190.5 1312.0 1330.4 1355.5 1194.9 999.1 874.9 817.5 720.1 531.4 617.0 768.3 920.0 1063.6 907.0 722.5 592.8 685.8 748.0 836.4 955.7 904.4 845.6 670.7 533.3 687.0 816.7 953.6 1061.5 1131.0 1186.5 1203.5 1179.3 1084.8 995.4 1085.9 1100.7 1090.6 1007.8 1008.0 1098.5 1106.9 1022.2 982.7 961.4 875.0 808.3 795.1 743.8 835.9 972.6 1045.0 1124.7 1176.7 1176.7 1096.7 913.7 832.5 904.9 808.7 670.2 665.7 680.4 725.0 771.3 833.5 893.6 941.6 995.0 1084.4 1145.7 1034.1 942.7 897.2 839.1 806.2 800.6 769.3 711.6 657.8 635.0 613.2 570.2 597.8 574.5 557.5 521.8 489.8 500.9 530.9 522.4 492.9 502.9 551.7 533.0 560.8 680.1 692.1 538.0 521.7 446.7 477.3 557.3 705.4 778.5 772.9 871.4 1010.4 1007.9 951.3 939.0 882.4 797.3 782.6 774.6 738.3 745.2 677.3 636.0 614.5 624.4 647.0 606.3 519.9 496.4 503.3 653.8 676.0 715.9 796.6 810.0 831.4 829.1 810.2 809.7 806.0 801.4 743.6 688.9 620.8 567.0 499.7 500.0 482.5 439.7 428.0 448.9 436.4 334.7 291.2 314.9 383.9 454.1 505.6 547.9 627.3 667.9 564.3 555.9 542.6 434.7 381.5 520.7 568.2 623.3 652.5 532.7 463.9 411.8 328.6 377.0 479.3 529.2 429.1 541.4 633.4 566.3 486.4 465.7 421.8 416.2 364.1 356.7 333.1 318.5 328.5 342.1 372.3 326.0 272.0 203.6 232.7 325.3 339.8 384.6 438.9 425.2 330.5 362.9 458.3 431.0 379.6 285.3 309.7 375.8 324.5 298.2 303.1 315.3 295.0 183.5 169.0 241.4 325.3 369.5 403.1 430.5 434.1 392.6 334.0 285.3 252.1 245.1 238.2 215.7 171.3 149.2 102.4 120.8 194.9 254.0 298.2 318.8 294.8 264.6 197.5 166.2 164.5 190.0 241.1 239.2 272.4 327.9 338.1 316.5 338.3 284.3 273.0 267.4 271.0 222.0 175.5 152.0 137.8 135.9 132.9 128.8 119.7 113.6 -9999.0 -9999.0
349.5 548.4 440.5 398.2 595.2 593.0 464.5 623.1 795.0 873.3 780.5 817.6 821.6 861.4 969.4 1245.8 1396.3 1379.4 1368.6 1119.6 896.6 966.5 1061.1 916.5 808.2 870.6 1001.8 1056.1 1189.7 1389.2 1455.2 1615.9 1803.9 1804.7 1653.9 1390.9 1041.7 990.8 996.1 906.0 869.5 794.5 736.8 691.2 625.7 664.9 808.8 915.6 911.8 832.5 917.3 985.2 1051.2 1141.3 1245.8 1241.6 1137.3 1044.3 957.2 886.1 764.4 614.3 525.2 465.7 456.3 471.1 452.6 340.1 322.5 384.0 451.0 460.4 511.7 534.4 549.2 388.4 278.8 386.3 476.6 562.3 670.4 809.2 923.9 1011.9 1092.3 987.2 928.1 753.8 600.1 764.0 904.2 1034.5 935.7 1009.2 870.1 765.2 857.3 929.1 990.7 1085.5 1201.3 1397.6 1575.5 1702.0 1627.1 1467.3 1429.3 1490.7 1437.8 1276.4 1420.6 1619.7 1630.0 1633.8 1818.7 1817.4 1792.9 1745.8 1680.7 1733.0 1697.4 1615.7 1524.2 1427.2 1334.3 1281.4 1211.6 1127.8 1037.0 944.5 908.0 1038.4 1000.6 836.9 700.6 804.6 898.7 990.6 1082.0 1144.5 1157.3 1087.4 1162.1 1265.6 1352.5 1336.5 1316.0 1438.6 1569.8 1653.8 1669.8 1549.4 1513.6 1616.6 1705.4 1643.4 1531.0 1299.2 1333.5 1518.3 1495.9 1398.2 1386.3 1385.0 1389.7 1303.5 1237.9 1182.7 1201.5 1032.2 1022.3 1138.6 1120.4 1222.0 1178.2 1044.9 891.5 781.1 672.0 531.6 673.8 881.1 1025.3 1007.8 838.9 677.3 613.8 770.6 891.6 998.7 1079.7 976.5 893.4 792.2 590.2 649.7 788.5 928.6 1080.4 1240.7 1255.2 1160.4 1077.9 1020.3 1061.0 1149.5 1204.6 1183.5 1062.6 1097.6 1180.0 1213.8 1208.3 1190.2 1104.5 984.5 925.7 845.2 735.7 823.9 890.5 949.7 1017.0 1072.0 1135.9 1142.6 1068.1 981.8 930.7 832.3 725.6 686.5 699.5 726.2 768.4 808.8 868.7 914.2 968.7 1037.5 1088.6 1002.9 929.1 877.0 798.9 752.4 742.4 701.9 673.0 623.5 565.0 557.5 532.7 526.9 503.7 509.1 504.0 538.7 595.4 626.9 565.7 512.9 546.6 603.5 597.5 551.5 610.9 706.2 783.5 745.4 583.6 503.2 635.7 799.5 720.8 696.6 795.3 996.1 1095.8 1035.0 919.4 883.1 861.6 846.4 817.7 830.9 832.1 788.5 710.1 648.1 644.7 550.9 514.0 579.3 599.2 547.8 582.4 685.2 787.5 801.2 764.7 816.2 852.8 801.2 784.0 746.5 695.4 711.2 701.0 657.6 573.4 593.4 554.3 514.1 522.4 470.0 409.0 317.2 314.2 380.8 421.9 475.4 442.5 460.5 550.6 656.7 614.4 517.3 475.7 451.5 370.8 431.8 479.6 546.7 638.4 633.9 534.1 449.8 338.5 409.5 510.2 581.6 514.3 486.6 590.4 623.0 562.7 585.7 504.9 417.8 434.9 460.1 401.7 403.9 362.2 327.6 315.6 274.3 276.4 220.0 213.9 325.8 416.2 413.8 424.2 491.4 439.7 376.4 412.2 459.7 428.1 367.1 271.5 333.5 397.3 427.9 414.6 415.1 411.1 360.5 239.4 170.2 203.8 251.4 290.4 340.8 380.5 427.4 369.0 328.4 305.8 288.2 269.4 243.6 203.9 160.0 150.2 127.5 99.5 153.8 228.2 263.1 295.1 318.3 302.0 255.2 231.6 200.2 167.8 182.9 239.5 252.5 307.2 321.8 270.1 265.2 229.1 216.3 203.2 227.7 234.9 191.2 155.6 140.8 137.2 132.6 127.1 120.9 116.9 -9999.0 -9999.0
343.3 517.6 407.7 340.8 483.8 517.3 381.4 513.1 612.1 642.3 517.8 527.6 559.9 675.5 911.2 1169.9 1196.9 1049.9 1093.6 1046.5 825.1 738.5 777.5 717.4 610.4 692.3 783.0 914.7 1119.6 1136.4 1184.7 1419.3 1602.8 1639.3 1456.3 1265.3 973.6 1161.3 1265.8 1123.4 1050.8 983.5 836.7 736.2 651.8 685.4 721.8 905.7 1044.1 1007.8 1035.2 1099.2 1106.8 1144.7 1107.3 1088.7 1043.1 929.5 896.2 875.2 765.1 612.4 462.7 365.5 345.4 347.0 337.8 345.6 405.6 477.4 527.6 572.8 610.8 623.7 579.7 428.7 298.1 331.8 458.7 609.5 758.7 860.6 849.3 956.2 945.4 880.5 831.3 635.4 632.2 838.9 976.2 999.8 846.5 862.0 701.5 812.5 965.6 1101.7 1171.5 1214.9 1251.5 1307.0 1449.4 1570.2 1502.7 1276.7 1200.3 1239.5 1293.3 1205.3 1336.6 1441.2 1370.8 1488.4 1645.2 1772.7 1626.1 1503.7 1382.6 1450.9 1465.3 1433.2 1531.8 1552.6 1468.0 1388.9 1319.6 1285.8 1208.6 1073.9 943.8 848.9 841.1 781.9 702.1 659.7 759.4 875.7 965.7 1026.7 962.8 969.7 1066.5 1107.1 1148.6 1167.0 1323.3 1437.6 1434.6 1376.5 1443.2 1371.0 1443.5 1567.1 1724.7 1748.9 1554.6 1382.6 1474.8 1552.5 1512.7 1476.9 1467.8 1282.5 1118.4 1052.7 1064.6 1001.4 1044.1 955.3 924.0 961.6 964.9 1059.4 1082.8 990.5 858.8 708.0 567.4 614.9 749.7 887.2 1039.3 908.0 742.2 614.9 709.7 801.7 957.6 1080.9 1118.3 1004.9 909.5 802.4 662.9 565.9 695.5 838.2 1027.9 1237.4 1276.8 1151.8 1061.6 1076.6 1102.2 1163.5 1218.7 1169.5 1078.1 1062.2 1073.5 1073.8 1094.0 1085.4 1072.8 1068.7 994.4 854.1 749.6 831.4 889.1 940.2 984.4 1033.0 1052.0 1060.4 1069.3 1060.7 930.7 775.7 750.3 832.9 761.6 706.8 778.4 803.2 856.5 903.3 957.0 1024.2 1006.8 940.2 868.4 814.5 747.5 673.9 644.0 616.8 589.2 554.8 556.3 580.5 561.0 545.7 602.4 621.5 556.2 578.0 641.0 628.8 557.6 517.8 557.1 617.0 657.3 619.5 605.7 659.5 802.2 877.0 685.3 535.9 561.3 625.2 600.8 665.9 790.1 981.9 1083.0 996.7 926.9 899.8 885.5 818.0 839.2 843.4 818.6 765.9 730.5 697.6 578.5 542.0 633.7 693.0 622.4 622.2 623.4 618.4 691.5 697.1 767.1 860.9 859.5 736.8 655.5 666.6 618.0 597.6 658.9 690.7 663.5 603.2 569.6 489.3 410.1 326.9 312.1 336.0 385.1 481.1 474.5 511.6 535.0 554.5 573.7 623.9 565.4 567.9 548.9 405.5 398.8 525.0 591.9 604.1 631.2 630.8 520.3 361.6 407.8 535.5 606.5 613.8 487.9 582.2 626.7 658.4 687.2 638.2 515.5 470.5 507.7 482.8 430.6 494.9 428.1 432.5 361.4 231.1 215.8 231.2 286.5 295.6 342.0 370.9 406.2 445.3 492.3 442.1 466.6 399.0 336.6 290.7 296.8 353.6 419.5 464.6 435.5 352.4 306.7 282.4 246.6 176.6 195.8 266.0 301.2 337.9 396.7 390.2 314.8 264.4 243.9 224.0 242.1 247.7 186.3 161.4 149.9 130.2 106.7 113.0 161.1 235.4 276.6 300.3 341.3 310.0 271.0 212.0 174.4 203.2 224.6 243.1 292.5 334.9 303.5 270.7 336.3 295.6 233.5 229.3 207.1 180.3 158.5 144.2 134.4 127.3 123.2 118.1 150.5 -9999.0 -9999.0
357.4 501.3 411.2 329.3 336.0 484.5 341.9 383.1 457.7 406.0 431.6 594.2 718.4 728.9 891.7 1017.3 982.6 887.7 920.8 928.8 942.1 703.5 527.2 448.7 511.2 670.9 848.2 976.8 866.8 855.4 1045.2 1261.5 1435.5 1573.9 1440.6 1167.3 1008.5 1166.3 1340.6 1309.0 1252.8 1143.2 993.3 815.4 807.5 816.6 807.5 914.2 1111.1 1142.0 1151.9 1103.2 1049.7 1065.1 1049.8 889.8 930.2 948.1 819.9 716.3 690.3 676.4 506.0 406.5 511.8 537.5 444.1 440.7 475.4 490.7 534.3 597.0 554.2 514.6 539.9 527.6 392.5 271.4 375.3 546.5 668.4 714.6 811.9 823.2 785.3 803.0 683.6 545.3 716.0 869.8 995.5 952.9 848.0 709.6 674.2 853.7 981.5 1167.0 1202.9 1093.2 1083.5 1173.6 1349.6 1337.0 1355.6 1225.2 1061.2 1117.5 1240.4 1224.0 1229.6 1259.1 1228.8 1398.4 1601.6 1637.3 1625.5 1532.4 1334.5 1157.9 1201.3 1242.4 1392.5 1607.2 1594.7 1512.7 1455.7 1405.4 1287.6 1154.1 1057.6 1014.6 959.6 895.8 839.6 738.3 651.5 717.9 867.1 925.6 813.2 860.7 922.9 993.8 1079.9 1225.5 1378.1 1431.9 1442.6 1271.3 1222.8 1326.3 1474.0 1568.4 1637.1 1702.6 1621.4 1591.1 1496.5 1455.3 1480.6 1526.4 1537.4 1365.2 1198.1 1044.0 960.1 870.3 856.1 825.2 801.3 788.2 832.7 857.5 853.6 859.8 750.3 594.2 624.6 771.9 894.4 1000.8 944.9 833.5 664.1 709.2 776.0 899.4 971.9 1093.7 1140.1 1042.7 937.9 841.9 738.0 577.1 727.0 881.5 984.4 1090.6 1224.8 1154.7 1104.8 1175.8 1198.5 1250.2 1248.3 1217.4 1120.1 1020.7 959.4 940.6 954.8 933.6 921.7 938.4 968.3 913.3 772.3 906.5 965.0 1021.3 1049.0 1058.2 1095.4 1064.7 1026.9 989.6 916.2 837.3 783.0 832.9 825.5 748.3 738.9 765.5 830.4 865.2 927.3 987.8 958.5 893.6 797.3 736.7 717.2 692.6 714.1 652.9 643.2 668.1 647.9 648.4 623.6 622.2 685.0 640.8 614.7 664.8 670.5 612.9 572.9 544.4 536.1 583.3 649.6 688.4 696.2 717.0 762.2 866.0 818.8 657.0 555.5 660.3 762.0 826.6 875.3 963.4 1026.8 1034.8 933.6 830.8 771.5 737.5 711.3 708.4 706.7 695.0 615.6 578.5 612.1 598.4 687.1 757.1 673.2 635.9 701.5 656.3 637.4 693.0 783.5 839.8 879.6 810.8 739.9 639.8 565.5 528.8 552.1 576.7 554.1 532.7 427.5 339.2 323.7 356.5 413.4 432.3 403.4 430.2 471.3 548.0 595.2 609.0 652.7 621.2 644.6 642.4 511.6 383.2 458.1 534.7 633.1 646.3 587.4 527.4 434.2 358.4 490.9 589.6 677.8 640.0 528.6 635.4 708.6 733.1 674.8 693.2 643.5 631.5 628.0 555.3 573.8 535.8 460.7 397.2 278.9 226.6 301.8 351.8 408.4 360.1 335.7 374.9 376.7 407.3 488.5 470.7 382.0 315.9 357.7 375.8 412.7 431.7 423.1 367.0 326.0 300.2 281.3 333.7 283.9 183.9 212.5 302.1 364.3 405.4 422.0 356.4 305.8 283.8 266.9 228.4 201.3 206.2 173.9 157.2 129.7 104.1 129.0 205.0 125.0 169.5 276.2 295.3 333.6 324.2 240.3 220.3 191.0 204.1 255.0 296.5 347.0 382.6 332.3 351.0 375.5 329.7 322.8 296.6 237.3 206.7 167.8 145.8 132.8 123.0 120.4 128.2 153.1 -9999.0 -9999.0
358.4 529.7 485.8 403.3 297.6 335.1 347.4 274.1 415.8 538.0 617.8 651.2 622.0 603.9 719.4 864.7 887.2 727.1 855.8 801.6 867.1 691.9 461.6 414.0 554.9 702.7 936.7 877.7 668.5 729.1 862.5 1091.3 1305.1 1532.5 1551.9 1245.4 1202.5 1244.8 1363.5 1409.0 1202.8 1101.9 972.6 947.8 1053.9 1019.5 1016.3 981.2 1177.9 1218.3 1124.3 996.3 941.8 965.2 1010.1 846.1 729.3 747.5 818.9 769.0 670.0 548.8 493.8 391.8 580.8 628.3 500.8 532.2 583.3 571.7 566.2 543.2 463.0 418.2 381.1 410.5 320.8 246.7 390.7 487.2 580.0 668.0 707.8 668.9 709.0 626.3 517.0 643.3 815.4 946.7 994.3 937.3 756.4 607.9 728.3 892.3 1070.7 1117.3 1026.7 952.3 1087.9 1294.0 1319.1 1137.7 1041.3 990.1 939.5 1067.1 1182.5 1271.2 1067.1 1048.7 1197.0 1358.3 1421.1 1359.6 1457.2 1476.4 1299.8 1105.6 1023.8 1199.1 1359.9 1452.6 1568.1 1511.0 1461.4 1448.2 1399.4 1287.8 1228.2 1210.5 1101.4 982.0 908.7 814.4 753.6 640.5 771.4 771.3 809.2 893.1 1006.3 1109.1 1187.6 1282.9 1365.8 1292.3 1269.4 1143.2 1141.7 1267.3 1345.6 1404.0 1486.3 1640.9 1531.4 1449.2 1343.9 1232.0 1272.4 1340.8 1411.1 1415.1 1379.5 1206.2 1055.8 1037.5 980.6 986.0 890.4 840.8 778.3 720.2 701.7 680.4 642.7 624.0 749.2 847.2 975.8 989.1 835.7 693.5 679.7 829.9 929.1 953.4 1055.6 1158.5 1107.5 1044.7 978.5 877.6 749.8 589.3 694.2 778.5 854.3 975.4 1156.6 1193.9 1192.8 1221.6 1179.6 1076.5 1096.3 1063.0 1043.6 990.2 926.7 876.2 842.0 822.5 806.7 795.4 799.2 767.7 764.3 878.2 962.8 1014.8 1060.8 1107.3 1141.2 1121.9 1077.2 1012.8 939.1 875.8 835.1 817.5 873.5 831.5 821.8 853.7 844.3 881.7 932.8 965.7 949.9 966.2 975.0 926.9 857.8 825.8 839.4 768.6 782.2 725.6 737.7 695.9 729.5 718.3 693.1 626.3 687.5 767.4 732.3 677.2 650.6 604.5 548.4 561.6 622.0 656.3 694.2 752.4 784.6 788.0 799.0 682.8 577.5 618.3 636.9 718.9 730.2 781.5 869.9 1001.1 1036.8 904.0 814.5 736.9 737.2 731.9 707.8 646.3 626.3 738.0 688.5 633.6 740.3 801.8 727.7 673.9 735.6 763.0 708.7 736.1 757.7 743.9 829.4 765.0 677.8 715.6 655.2 621.7 549.0 490.8 438.3 449.8 359.1 353.8 424.8 476.2 504.3 457.3 477.1 464.3 497.7 528.7 592.7 634.7 679.1 634.2 568.8 535.6 481.0 397.3 486.6 578.6 660.6 611.6 509.6 399.5 363.1 439.5 491.0 587.0 635.9 654.3 628.0 615.1 713.7 686.9 599.2 680.7 698.7 643.8 638.3 675.5 619.0 496.6 389.4 290.0 234.2 319.2 417.4 354.8 419.3 354.0 342.8 377.4 437.9 414.3 453.5 457.9 350.2 371.8 454.1 463.6 455.5 410.3 357.4 365.2 378.8 335.5 311.6 335.2 266.5 187.7 239.5 311.4 420.1 475.4 434.1 372.1 344.4 315.4 281.4 268.7 241.1 188.4 167.1 152.6 115.8 131.1 227.9 275.2 182.1 122.1 182.8 246.9 326.4 323.5 275.4 276.1 217.0 198.6 212.4 246.9 291.3 364.6 393.5 391.1 315.7 287.0 303.4 280.3 255.6 212.9 164.6 145.0 130.2 120.6 138.0 147.4 186.5 -9999.0 -9999.0
283.0 432.0 373.8 362.2 315.8 250.9 306.5 284.2 462.4 496.6 530.2 464.5 463.0 598.8 690.9 740.6 720.4 628.4 701.6 720.3 753.3 562.5 395.2 376.3 542.6 757.0 884.3 745.3 566.9 631.4 807.8 1029.8 1237.8 1412.2 1604.0 1460.4 1366.3 1344.1 1438.6 1435.9 1177.6 1069.4 1049.3 1053.9 1238.3 1271.1 1313.1 1237.0 1205.0 1201.2 1071.6 930.5 836.8 824.8 881.3 833.9 733.9 632.3 654.1 634.4 470.1 418.6 452.5 525.4 695.8 712.8 594.5 550.1 648.2 639.5 602.8 541.7 474.9 411.2 339.5 275.3 232.7 308.1 419.4 443.8 494.7 549.0 548.7 569.3 531.3 469.9 615.6 758.1 821.4 875.5 871.7 840.0 710.6 589.5 774.8 908.8 963.2 912.9 867.6 964.6 1076.1 1222.1 1315.4 1195.2 987.8 823.7 888.7 1004.2 1099.6 1212.9 1039.5 1012.0 1329.6 1330.0 1146.4 1144.2 1294.1 1353.9 1238.3 1085.4 914.0 1018.1 1120.7 1250.2 1401.1 1315.5 1174.7 1236.9 1418.4 1426.6 1437.6 1349.7 1181.0 1038.0 942.1 844.2 883.6 720.9 610.8 675.6 755.2 865.3 969.6 1084.9 1182.3 1230.3 1288.5 1292.9 1132.4 1006.4 1095.5 1192.5 1306.6 1405.0 1499.5 1640.9 1509.0 1319.5 1232.8 1102.3 1077.8 1152.8 1189.2 1234.1 1295.5 1359.0 1323.1 1265.5 1166.8 1094.9 1061.4 947.2 954.9 913.8 794.7 617.3 627.9 788.7 855.0 997.2 1069.5 948.2 793.8 673.8 787.3 814.2 881.6 1042.0 1159.2 1070.3 997.5 942.3 878.7 797.9 697.6 603.6 755.0 860.4 914.6 900.2 990.6 1173.8 1163.1 1140.1 1093.2 934.6 923.6 920.7 1046.3 966.2 902.3 890.0 918.1 904.9 883.1 824.4 743.6 724.1 777.2 814.0 837.1 869.5 913.6 951.3 987.6 1060.0 1080.2 1024.8 960.2 897.1 871.4 852.4 910.6 928.0 892.8 865.0 861.1 900.0 892.1 866.6 852.4 931.8 1020.5 1068.6 1037.5 1004.4 992.6 955.4 899.5 803.9 864.3 859.3 847.6 758.2 669.5 679.0 746.4 806.8 835.9 752.9 669.3 611.8 588.2 562.1 567.0 591.5 633.9 698.6 763.1 767.2 767.3 659.8 677.5 787.6 643.0 750.7 862.6 919.8 890.6 973.2 1052.3 957.9 856.3 810.1 803.8 728.9 658.2 653.8 765.3 815.1 738.2 675.3 779.5 867.4 781.2 737.8 781.3 854.0 793.4 767.5 673.8 754.9 761.9 760.1 648.4 610.4 587.6 600.5 612.8 489.1 394.2 346.2 348.3 446.2 440.0 486.5 551.7 499.9 537.2 545.7 568.3 587.7 636.7 661.5 605.3 574.7 562.5 537.1 466.0 418.1 526.7 568.8 623.2 522.5 385.8 406.0 472.9 448.5 508.2 545.1 569.8 663.6 670.8 640.6 717.0 611.4 544.3 600.4 554.5 544.8 628.9 639.4 526.1 439.3 334.1 240.2 319.4 395.2 448.4 429.1 446.6 418.1 395.1 415.7 454.2 482.1 492.1 382.5 392.8 432.6 499.3 495.0 422.1 404.1 400.6 466.7 415.2 342.1 299.6 267.9 223.8 197.4 307.0 351.5 431.3 499.5 451.9 420.9 381.2 304.3 249.4 217.9 195.4 163.6 120.2 113.3 135.4 210.2 257.7 223.2 208.0 129.5 160.6 235.9 276.6 340.4 337.0 289.2 259.0 234.0 215.9 234.6 284.8 323.8 321.9 317.3 250.7 252.2 241.0 234.4 232.0 219.3 166.9 146.1 133.8 125.0 169.4 215.7 270.8 -9999.0 -9999.0
184.4 370.7 306.8 336.8 264.0 202.5 220.8 224.4 268.7 289.0 318.3 346.7 472.4 579.1 514.2 542.6 573.8 674.6 765.3 744.5 539.7 352.1 361.5 547.5 662.9 765.5 721.4 540.2 491.1 611.5 764.0 850.9 1004.0 1206.5 1437.5 1481.9 1539.4 1491.3 1512.3 1407.9 1337.9 1322.2 1241.6 1154.0 1204.9 1411.6 1416.5 1252.1 1195.4 1142.4 1060.4 987.0 962.3 805.3 762.1 722.9 614.6 557.6 497.2 429.8 481.1 573.2 609.9 673.0 733.3 699.5 588.7 588.3 656.1 585.2 522.3 496.1 423.9 365.4 273.6 219.5 260.7 296.4 316.9 341.7 378.2 398.1 394.7 399.9 444.2 601.0 689.3 689.5 760.4 755.3 760.3 775.7 595.6 631.1 822.4 884.9 781.3 793.9 937.2 980.0 955.1 1037.9 1129.0 1072.8 1035.2 848.4 692.8 752.2 818.9 863.0 868.9 1045.1 1408.4 1433.6 1104.3 998.6 1028.8 1106.6 1046.6 896.9 852.8 1045.5 1148.2 1206.1 1192.2 1173.3 1027.3 1067.9 1198.2 1360.3 1488.9 1371.3 1216.3 1083.0 970.0 937.7 952.2 836.8 694.7 601.4 701.5 789.1 910.6 1025.8 1108.6 1149.8 1189.8 1230.6 1067.1 966.8 1126.4 1292.6 1408.2 1487.0 1520.6 1565.3 1493.5 1418.5 1305.5 1190.8 1065.1 977.0 991.6 1055.8 1113.4 1231.8 1300.5 1183.1 1020.4 895.9 871.3 881.8 773.9 751.8 627.2 674.8 854.4 973.3 1060.8 1113.1 1008.4 879.5 741.2 729.9 883.6 1010.8 1071.1 1058.8 1032.4 949.3 827.4 805.2 752.6 663.1 666.6 602.9 733.6 748.4 761.2 825.8 939.3 1067.2 1092.0 996.1 995.4 921.9 772.5 889.4 1082.6 1108.0 1055.0 953.9 873.2 828.6 791.7 748.0 681.9 696.7 789.4 853.0 846.0 848.5 900.1 904.7 956.3 992.8 902.0 890.7 911.2 929.3 931.3 814.8 764.1 793.0 774.7 764.6 733.9 764.3 735.6 750.4 858.3 927.3 912.7 967.1 1052.5 1105.8 1100.9 1117.5 1023.2 950.8 965.6 917.9 800.1 720.0 709.9 692.6 730.7 803.4 871.5 797.9 711.8 665.1 641.9 619.2 602.7 589.1 644.5 706.1 752.0 778.1 780.9 655.0 799.1 925.3 762.7 693.3 772.9 912.7 979.9 1004.8 1096.8 1048.3 918.3 849.3 758.5 691.2 771.9 787.4 790.4 766.6 698.4 746.5 876.9 909.0 825.3 886.2 864.7 901.6 776.3 692.6 625.2 702.9 750.6 669.3 646.6 636.0 561.7 479.5 493.8 402.6 370.1 513.8 533.4 572.1 494.0 508.8 583.5 587.9 554.1 636.1 631.0 682.8 657.7 588.5 551.2 499.7 483.9 456.1 420.7 470.3 574.0 618.0 578.3 462.0 390.3 450.5 464.8 516.1 531.2 540.4 619.4 684.5 631.2 715.1 715.3 579.0 509.7 479.2 514.5 589.6 641.4 590.1 482.1 373.3 276.4 263.9 406.6 500.0 505.8 527.2 452.4 465.2 451.3 517.6 516.2 455.6 416.3 398.2 481.5 490.5 541.7 476.9 450.2 476.7 433.0 489.7 425.7 338.7 292.4 255.3 199.6 257.2 339.5 395.0 423.8 380.1 407.9 406.7 357.5 277.2 230.7 196.9 160.8 113.4 129.6 172.7 235.0 297.6 348.2 304.0 281.7 153.6 169.1 254.8 275.9 341.0 381.5 317.5 300.3 296.6 264.4 252.8 302.9 280.0 248.1 241.6 228.1 242.0 231.1 208.4 196.7 201.4 155.6 143.5 130.3 150.0 190.1 222.0 262.7 -9999.0 -9999.0
159.1 219.3 256.3 267.1 228.9 176.6 189.2 214.8 326.5 352.7 353.1 376.3 400.0 453.3 537.8 617.3 710.0 703.7 643.4 546.2 568.3 382.5 324.3 438.9 427.5 432.9 524.4 438.8 527.3 519.7 532.0 657.5 857.1 1120.4 1350.3 1313.2 1406.9 1583.4 1640.5 1579.6 1541.7 1530.0 1461.3 1454.7 1472.5 1470.6 1395.3 1301.4 1240.2 1221.7 1203.8 1113.6 983.8 805.8 558.0 496.4 467.9 586.7 571.9 655.9 739.7 671.5 753.7 847.4 795.1 691.3 602.1 604.8 606.0 560.1 465.6 399.3 384.9 340.8 238.9 215.7 251.8 270.2 294.8 308.4 332.8 357.4 388.8 441.5 488.1 553.1 581.2 639.0 618.4 635.0 692.5 693.2 526.1 700.3 855.8 769.5 739.1 872.2 959.0 907.3 832.6 919.6 959.6 807.6 823.8 705.8 672.4 785.9 890.2 1013.4 1160.9 1326.8 1447.9 1417.8 1289.2 1046.5 887.3 835.0 803.8 766.2 913.2 1071.4 1094.5 1024.2 1075.7 1034.5 944.6 1115.5 1206.9 1278.8 1272.0 1346.4 1347.6 1243.2 1093.0 1022.2 952.7 924.2 808.4 589.0 699.6 771.0 858.8 934.5 990.8 1009.6 1074.9 1059.4 908.0 1006.4 1146.3 1295.2 1416.6 1486.8 1379.5 1377.3 1366.8 1377.2 1397.5 1206.7 1088.6 992.4 913.2 897.5 1016.1 1043.9 1179.9 1122.6 923.2 876.9 777.1 688.9 641.3 662.9 700.3 804.9 961.1 1097.5 1131.4 1084.0 954.0 891.2 738.1 782.7 931.8 1104.2 1104.6 982.6 857.3 812.1 723.0 710.9 707.4 790.6 798.3 643.0 607.6 734.9 840.6 916.9 989.2 1033.5 1053.9 1007.1 853.2 731.6 708.6 820.6 960.4 965.8 956.5 929.4 859.5 781.0 698.8 613.3 696.3 759.8 781.5 852.8 920.8 870.0 935.6 954.7 973.0 933.1 814.7 755.4 820.4 802.5 845.6 764.1 666.9 668.4 687.7 683.9 636.6 626.4 687.7 796.2 886.8 870.8 806.1 886.6 938.7 962.2 1015.3 1087.2 1095.7 1028.5 1027.8 951.0 863.1 834.1 856.7 789.6 780.0 885.7 893.2 907.8 804.1 765.2 711.2 703.6 663.7 624.5 670.9 740.4 719.7 674.3 699.9 778.4 901.3 988.6 943.3 878.8 726.7 766.2 839.8 955.9 1067.5 938.7 833.4 792.9 808.3 861.5 846.5 783.8 770.6 761.6 736.8 809.8 881.3 963.8 953.1 878.5 854.0 857.4 769.9 739.1 633.8 611.4 696.1 654.2 684.6 650.9 598.4 433.3 376.8 394.4 503.5 547.4 579.8 638.5 528.9 593.7 686.3 699.4 650.3 666.8 668.5 614.4 574.7 519.1 466.0 492.2 471.4 493.6 523.6 595.8 604.2 522.0 459.8 395.4 460.7 533.4 534.4 499.6 550.8 618.7 650.7 654.5 700.1 699.5 673.4 637.1 625.2 484.2 470.7 492.9 529.2 518.3 415.3 336.8 242.8 312.9 413.6 510.8 597.5 581.6 535.7 565.5 554.8 591.3 513.1 491.1 570.0 478.0 558.4 632.9 601.1 555.6 560.0 553.8 496.9 519.0 480.4 424.1 343.5 258.0 205.3 322.7 416.2 399.4 325.0 281.6 286.6 303.6 278.9 303.9 218.8 171.3 129.2 139.7 185.7 199.6 238.2 297.8 360.6 323.8 246.9 187.9 157.0 243.4 320.6 334.2 372.8 384.3 370.4 371.5 349.9 320.4 333.5 293.6 308.7 326.1 333.2 341.3 321.9 292.5 247.4 198.3 155.6 141.3 132.5 225.5 222.7 226.0 245.0 -9999.0 -9999.0
156.4 177.0 171.1 172.5 162.2 189.4 217.0 242.8 333.5 460.3 513.8 533.0 566.3 630.0 735.5 866.3 833.1 662.3 619.0 458.5 358.7 310.7 315.0 377.4 473.4 406.8 368.2 388.8 410.3 504.3 569.6 654.1 881.8 1151.1 1335.4 1135.6 1201.5 1399.4 1554.7 1401.9 1342.1 1290.4 1156.7 1153.0 1260.6 1338.4 1137.3 1034.1 940.3 971.5 898.9 835.5 723.8 539.9 507.6 663.5 644.1 823.9 786.0 933.4 927.1 780.7 801.6 893.8 819.4 783.8 744.2 712.5 638.7 544.3 485.0 404.9 348.2 291.6 214.3 218.4 262.9 324.2 354.8 376.9 397.0 410.3 432.4 424.5 404.2 471.4 488.2 517.7 585.0 685.8 637.3 505.0 598.5 774.2 779.8 684.0 828.1 907.1 903.1 766.6 797.8 800.8 717.9 600.7 604.0 682.2 803.1 915.3 1011.1 1097.1 1282.8 1273.2 1204.8 1151.7 1173.6 1036.7 829.7 710.0 665.9 885.9 1047.9 1044.3 924.4 899.3 1050.4 874.6 979.9 1234.1 1200.2 1035.4 1054.1 1128.5 1244.2 1300.3 1118.2 987.6 860.4 780.6 696.8 582.5 759.7 822.8 727.0 763.9 836.7 868.7 863.3 863.7 935.4 1133.4 1267.8 1390.3 1478.5 1406.7 1261.9 1205.0 1270.1 1346.7 1454.9 1347.1 1162.1 1003.9 921.3 841.7 860.2 956.3 1018.9 1093.3 1005.2 839.3 661.5 703.6 823.9 911.9 931.1 918.0 1046.0 1131.6 984.3 878.0 813.8 741.6 782.1 901.8 1013.7 1092.2 1051.3 907.3 778.9 719.9 813.5 916.0 925.5 925.8 819.1 692.8 613.7 744.1 870.4 982.8 1079.0 1060.2 972.1 914.3 843.9 736.8 640.2 734.0 859.6 823.2 752.1 792.9 923.6 857.4 705.9 580.0 733.5 831.9 874.7 902.2 906.9 843.4 894.3 846.9 813.6 802.6 775.6 702.1 749.1 711.9 741.8 681.1 606.0 573.9 599.4 599.9 567.8 602.0 674.6 754.5 767.3 741.9 711.4 770.1 803.1 898.3 967.6 995.6 937.0 901.4 956.5 1015.8 999.9 984.4 1013.7 903.2 924.3 1026.2 992.2 991.7 946.3 854.9 793.4 771.0 722.4 698.4 724.0 741.0 666.7 658.5 692.9 733.2 841.0 952.4 1053.4 967.4 788.2 832.2 969.1 1036.2 1135.9 1048.3 1085.8 1025.3 998.8 917.7 885.7 862.8 859.4 791.2 804.9 872.5 894.2 893.2 876.2 832.3 716.5 774.4 821.7 692.1 638.5 578.7 548.7 560.7 580.0 539.4 421.3 409.8 443.1 468.6 499.2 563.2 562.2 570.9 622.1 578.9 637.8 701.3 766.6 755.6 709.8 638.0 526.3 498.0 577.4 566.3 570.0 622.3 652.9 624.2 514.1 421.7 447.5 478.9 469.2 529.1 580.8 556.6 556.9 613.3 616.2 676.1 621.0 580.7 615.3 621.8 632.5 559.0 495.9 418.3 449.9 510.9 503.9 380.4 258.6 370.2 458.8 547.1 627.6 699.9 677.0 632.2 612.5 620.3 614.2 640.6 575.8 535.2 591.1 581.8 555.4 520.8 509.3 560.6 522.3 485.1 438.4 379.3 300.3 221.3 244.0 329.1 400.2 395.6 317.7 262.1 231.9 219.7 200.1 180.5 131.6 137.0 138.0 184.3 216.3 261.7 286.5 326.6 359.3 284.9 285.9 270.5 151.9 199.7 246.7 267.6 300.4 364.7 447.8 463.5 468.4 453.3 392.9 356.5 328.8 276.4 276.7 309.9 277.5 240.2 215.8 181.4 149.1 131.3 183.1 280.0 275.7 326.0 270.9 -9999.0 -9999.0
122.4 142.1 133.5 145.4 175.9 221.9 272.3 330.1 324.9 414.7 524.8 588.4 680.6 826.7 894.9 932.9 849.4 641.6 484.8 390.8 246.5 366.6 559.9 692.2 710.1 564.0 452.5 534.8 616.1 738.6 895.5 999.9 1115.1 1210.6 1302.9 1095.2 1066.2 1222.8 1328.2 1288.9 1136.0 1085.7 1029.5 924.2 958.5 1113.5 1039.2 859.4 719.5 722.4 666.9 559.1 557.9 661.6 803.1 893.9 754.8 818.5 881.6 940.5 981.5 922.4 990.8 976.2 855.5 801.3 773.6 650.3 597.9 549.0 485.2 440.1 422.2 338.4 229.3 203.7 241.7 287.7 344.2 356.7 358.0 395.6 409.8 383.3 366.2 417.0 457.7 590.3 565.4 485.2 487.4 595.0 662.4 663.9 646.6 758.6 860.1 901.4 850.9 693.7 788.9 657.7 504.3 616.9 711.9 839.7 926.4 1038.4 1120.4 1211.5 1286.1 1123.1 1036.1 1030.9 920.8 826.8 614.8 650.8 818.9 1024.5 1174.8 979.0 781.2 817.2 881.2 745.8 937.2 1170.2 997.1 843.2 965.8 930.9 1066.0 1234.2 1227.1 1121.0 946.4 774.7 623.9 569.2 646.0 676.4 733.5 753.9 765.1 753.0 844.0 991.7 1110.8 1228.2 1293.0 1344.8 1424.5 1358.4 1210.1 1136.3 1245.7 1338.4 1431.9 1375.0 1228.7 1150.3 1004.0 891.4 783.5 805.6 855.8 886.4 898.8 728.9 701.4 851.3 942.5 1047.0 1117.9 1142.5 1171.7 1118.2 996.2 867.1 755.0 855.5 969.0 1050.8 1136.3 1054.5 911.1 806.9 772.9 830.9 903.3 1057.9 1105.3 980.0 874.9 751.6 645.0 736.5 820.9 905.8 1022.0 1138.6 1027.1 927.6 825.7 729.0 633.8 595.0 705.9 801.6 709.8 752.9 758.9 659.7 567.7 520.5 665.0 731.3 736.7 768.8 731.3 705.6 813.7 773.7 678.9 682.9 735.6 668.7 656.8 642.2 712.8 690.3 618.9 553.9 524.4 518.8 554.0 609.5 675.0 707.6 676.6 642.7 621.7 678.0 761.0 832.1 904.6 962.8 887.1 794.7 886.9 997.3 1045.4 948.2 968.0 1016.1 1043.3 1073.2 1097.5 956.8 889.3 822.2 792.7 761.5 731.7 725.8 728.8 725.7 697.3 717.8 782.5 754.9 757.3 829.3 957.1 1015.1 835.3 922.4 1045.4 1106.0 1110.2 1096.0 1164.3 1173.3 1122.9 1035.8 958.5 914.8 883.0 868.5 803.2 760.0 756.6 793.4 747.2 778.8 667.6 666.7 760.9 742.5 718.4 662.9 556.5 488.0 525.1 425.2 432.7 581.6 606.8 536.4 594.8 695.3 708.1 578.8 638.1 654.1 668.8 739.9 776.2 697.5 644.5 569.3 518.1 628.6 661.7 584.2 664.1 715.5 649.3 542.3 439.5 508.7 554.0 560.4 513.8 500.4 542.5 615.6 592.4 585.8 650.1 682.2 594.8 553.8 516.3 511.3 558.9 604.5 580.5 471.8 367.8 425.2 442.5 323.9 286.4 388.5 477.6 568.0 634.9 636.7 622.3 566.5 583.1 648.9 715.8 651.5 632.0 623.9 544.4 455.0 434.5 441.2 502.6 453.6 457.4 421.7 450.2 367.8 236.8 254.2 369.2 451.4 451.1 412.7 360.5 309.2 296.6 283.4 245.9 153.0 164.4 199.9 226.4 258.0 269.3 277.6 332.7 384.6 369.8 352.6 354.6 272.1 165.2 208.3 265.8 313.0 373.7 380.1 447.0 481.5 481.3 486.0 475.2 400.3 336.3 281.3 239.1 218.7 218.3 235.1 199.5 164.7 145.7 131.6 181.3 270.4 333.2 394.3 318.6 -9999.0 -9999.0
74.2 122.2 124.0 139.4 171.2 252.5 344.6 410.2 354.6 263.0 399.8 533.6 610.8 646.1 698.9 727.9 763.7 735.7 507.9 356.6 239.8 432.2 624.9 773.7 872.8 708.3 702.4 651.7 718.1 915.6 1069.0 1252.4 1177.0 1114.7 1181.8 1118.7 995.0 983.1 1064.3 1063.8 949.5 853.7 830.2 766.2 749.2 774.1 810.1 745.0 629.7 712.4 708.9 621.2 772.5 1017.2 1022.0 935.1 843.6 877.2 961.4 964.3 1041.2 1045.5 993.2 989.1 901.4 748.6 636.5 536.0 477.5 465.6 495.8 410.7 402.6 280.5 240.2 197.5 216.4 259.0 303.6 331.4 363.9 385.5 366.5 320.7 338.8 355.6 423.7 531.7 415.0 504.4 594.9 602.3 559.3 640.6 732.1 762.0 790.1 756.8 731.3 634.8 695.9 551.5 501.7 679.1 822.0 890.9 972.9 1058.3 1141.6 1188.9 1070.7 985.6 900.6 929.3 941.8 885.8 736.2 558.0 721.5 972.9 1091.2 834.4 656.0 784.5 769.8 717.9 980.6 1069.7 847.6 756.6 790.8 880.4 966.0 1125.1 1145.0 1065.1 928.1 818.1 646.7 532.2 686.2 810.2 876.9 881.9 872.8 897.2 968.9 1025.6 1099.9 1091.9 1102.4 1197.5 1301.4 1244.6 1123.2 1044.5 1113.9 1242.4 1302.1 1344.5 1353.4 1268.7 1121.9 974.9 905.0 810.9 768.6 741.6 714.5 668.4 825.4 944.3 1032.5 1108.5 1243.1 1228.1 1050.1 972.8 855.1 779.9 841.5 961.6 1070.1 1159.4 1162.6 1015.2 879.5 786.0 903.0 1021.4 1084.1 1133.1 1066.2 958.0 829.4 668.1 716.2 783.5 854.5 940.9 1012.1 1084.8 995.7 919.7 837.2 733.3 639.4 557.6 567.6 697.0 709.2 621.0 588.6 562.7 495.5 427.7 536.6 551.3 587.5 632.2 552.0 661.7 805.9 793.4 679.1 620.6 690.5 668.3 582.2 597.8 654.4 671.3 655.0 607.9 547.8 496.1 562.5 626.6 662.9 643.7 605.1 570.8 606.4 684.1 713.5 779.2 839.7 849.7 765.6 752.3 867.2 966.7 878.6 762.4 836.3 946.4 995.1 915.6 969.4 1012.0 920.9 891.5 930.9 828.4 785.2 738.5 720.3 761.7 835.1 782.7 832.4 906.1 876.7 925.5 930.1 958.8 880.3 884.4 938.7 980.8 1030.9 1072.5 1104.0 1103.0 1169.6 993.0 881.5 809.0 768.6 739.7 672.2 650.5 641.4 635.4 618.0 663.2 608.1 535.5 549.7 550.5 525.1 517.9 471.6 428.3 423.5 412.5 511.4 650.9 706.6 682.6 653.8 753.5 747.9 604.2 644.4 711.5 727.6 794.2 752.0 682.3 627.3 533.4 612.1 705.9 658.2 676.1 740.5 671.4 589.6 477.9 498.4 570.5 667.9 682.5 630.2 554.9 577.9 616.8 695.9 699.1 714.4 658.0 621.8 633.6 580.3 485.3 450.5 465.7 512.4 515.7 431.4 358.6 338.3 281.0 294.7 397.2 474.3 529.8 570.8 550.9 508.6 500.6 557.0 642.0 667.4 560.3 506.4 537.8 512.4 400.1 397.5 433.8 406.4 371.0 397.1 357.1 303.9 258.5 234.6 316.2 375.5 458.7 551.0 481.2 407.1 344.3 282.8 240.1 206.1 141.7 187.3 226.0 254.8 291.0 338.9 359.8 378.9 383.7 321.0 282.4 317.1 265.2 159.6 252.5 331.2 324.0 388.1 465.5 488.2 432.5 372.0 356.8 405.3 441.8 409.6 356.0 300.6 281.2 229.6 203.3 184.3 157.1 138.6 148.7 235.7 212.1 289.6 383.9 406.3 -9999.0 -9999.0
67.7 116.0 133.7 134.4 150.0 195.9 279.6 398.1 392.4 268.8 227.9 367.4 511.4 508.6 476.2 568.9 606.4 625.4 390.6 223.0 238.9 291.9 419.2 547.4 665.4 767.6 861.4 875.7 886.2 1014.2 1238.3 1275.2 1243.7 1211.1 1078.4 1014.2 950.5 923.7 878.8 843.1 823.9 924.1 1011.1 1066.4 993.3 950.8 881.8 782.0 853.2 912.8 806.9 685.5 783.4 929.4 1059.3 1010.5 924.4 903.5 1005.8 1049.5 949.8 832.0 734.5 728.5 722.9 737.9 635.9 579.6 553.6 413.9 362.1 299.7 250.7 271.1 237.2 208.9 190.4 224.1 265.0 301.0 306.1 333.6 316.4 297.6 297.7 352.4 393.2 345.7 390.2 601.2 590.9 535.5 653.4 766.7 733.8 698.9 720.3 616.2 586.8 589.3 510.2 465.7 618.7 713.3 778.6 870.8 1007.6 1117.8 1200.1 1185.9 1117.7 1044.7 935.3 814.4 793.3 812.4 771.8 579.0 569.6 812.2 943.5 768.1 573.9 679.4 654.7 702.7 815.2 792.3 731.7 660.5 706.3 863.4 1012.4 1101.6 1013.3 892.1 867.9 744.5 591.6 510.6 629.6 710.4 728.3 746.5 735.3 764.7 806.2 857.8 921.5 917.4 954.8 1025.9 1093.9 1106.6 995.5 936.9 1008.3 1095.6 1117.1 1170.7 1217.3 1156.5 1143.3 1148.9 1081.2 941.4 793.3 669.6 696.7 811.7 846.9 841.4 924.4 1062.9 1216.0 1209.6 1037.2 843.2 857.7 949.7 932.3 1075.8 1212.5 1271.4 1120.8 981.4 846.2 839.2 977.6 1124.1 1095.5 973.9 925.3 920.1 762.8 658.1 809.4 890.1 897.4 932.8 973.8 1018.0 938.0 855.4 766.8 663.2 577.8 517.7 617.5 753.3 730.7 668.7 669.5 677.8 601.4 451.7 393.9 435.4 473.0 481.0 573.1 643.2 758.4 802.8 716.8 613.5 629.8 670.8 595.5 559.4 617.1 584.8 602.9 583.2 529.1 483.3 546.1 610.0 619.0 577.9 540.1 553.7 624.2 693.8 687.3 654.2 722.8 690.2 691.1 813.1 889.6 835.7 750.1 682.6 785.9 874.2 810.0 769.5 865.2 971.6 1023.4 1017.8 988.1 914.6 844.6 788.0 757.6 802.7 910.9 866.0 894.6 947.5 960.9 993.8 1094.6 1006.5 989.2 980.6 963.4 1006.2 1031.8 1031.0 1043.4 1118.6 1170.6 1076.1 941.1 881.8 803.3 745.6 777.4 793.0 737.5 711.5 675.8 567.0 517.0 569.9 594.0 561.2 570.6 506.8 498.9 579.5 556.9 458.4 505.7 565.6 618.6 695.7 792.5 750.4 656.3 636.1 712.9 740.4 791.8 738.9 690.1 649.7 559.8 632.2 700.6 798.8 754.1 797.3 792.0 680.8 590.0 497.5 633.8 678.7 665.9 664.2 680.6 622.1 651.5 693.8 734.1 758.5 656.0 589.1 544.0 526.6 539.7 526.9 479.7 399.6 433.1 505.5 470.7 416.3 344.2 267.4 327.0 343.2 384.0 431.5 466.1 469.7 460.3 543.9 636.7 673.7 629.7 562.3 443.1 420.0 420.8 350.4 304.6 289.5 268.5 275.5 264.3 248.8 262.1 320.2 387.3 374.4 460.3 481.3 518.0 439.2 397.4 360.6 322.6 244.5 158.8 146.4 219.1 268.3 308.2 331.1 361.5 394.0 357.9 291.1 248.7 206.3 216.2 230.0 165.5 255.8 344.1 387.0 427.9 481.3 492.9 459.8 408.8 332.9 289.3 317.2 346.2 356.8 343.9 298.9 251.4 205.3 174.8 152.5 131.2 168.4 284.8 275.6 239.9 335.3 405.5 -9999.0 -9999.0
63.0 104.7 123.3 166.0 176.4 194.8 263.6 296.9 282.2 267.4 240.1 200.3 303.1 377.7 304.8 403.0 488.8 430.0 239.6 243.5 343.2 421.6 393.0 403.0 433.3 538.9 637.7 693.4 784.6 946.1 1156.9 1335.7 1403.3 1446.1 1292.2 1191.1 1190.1 1232.1 997.6 938.6 1082.5 1184.1 1278.3 1343.4 1162.4 1044.0 996.3 900.2 965.8 878.5 863.8 901.4 980.8 1060.9 1130.2 1223.4 1138.7 1055.6 1043.7 954.9 783.3 683.8 657.8 605.7 525.1 446.2 423.7 408.0 315.4 335.8 351.9 341.9 392.6 369.1 359.0 276.6 217.2 185.2 219.3 241.9 260.2 291.2 267.0 268.8 311.4 332.7 287.0 276.1 397.7 504.7 523.2 508.5 666.0 706.4 648.7 664.3 600.2 549.6 540.3 405.1 435.6 593.1 661.4 783.8 829.6 820.4 923.9 1089.7 1117.9 1144.5 1278.1 1270.7 1192.3 1029.4 873.9 780.8 655.5 538.7 484.2 706.2 790.5 647.0 506.1 531.6 562.2 628.4 612.0 611.4 568.7 673.4 715.6 839.2 875.5 966.2 947.2 799.0 800.8 772.0 584.8 484.9 540.4 569.7 594.4 622.0 636.7 657.3 699.5 773.9 813.6 828.0 864.9 904.7 924.4 964.0 923.3 873.8 892.5 925.8 967.0 998.7 1074.1 1110.1 989.8 1009.3 1041.7 884.7 700.2 736.4 837.6 884.6 954.3 914.0 925.2 1030.3 1159.5 1074.9 960.4 839.4 954.8 1110.8 1030.4 1095.8 1261.8 1248.9 1078.4 949.6 854.5 932.1 1055.1 1157.5 1129.7 974.2 843.8 779.4 677.2 717.7 797.1 897.1 971.9 1030.9 937.1 894.3 889.3 822.2 719.9 621.0 536.9 523.8 659.9 680.5 659.5 563.0 534.5 531.6 544.5 464.8 349.5 398.2 466.2 553.6 663.0 764.1 769.8 702.4 663.7 588.1 600.1 630.5 657.4 644.6 591.7 538.6 541.7 540.6 482.9 472.8 534.6 583.3 584.4 526.1 517.4 576.3 631.4 683.1 666.6 592.5 623.5 616.4 731.2 836.5 883.0 778.0 643.4 667.8 800.8 800.9 690.1 715.9 780.6 859.7 946.5 1044.0 1033.3 902.8 852.4 839.7 822.5 851.2 945.6 997.8 984.6 1046.0 1072.2 1037.4 1061.6 1106.5 1124.9 1073.7 1087.6 1044.4 1079.0 1062.5 1064.5 1107.3 1134.2 1174.9 1127.3 1011.4 922.0 894.0 867.0 809.6 721.1 662.9 598.0 535.1 684.7 669.6 742.7 709.4 681.0 734.5 745.3 672.1 559.4 494.8 507.0 626.9 736.2 819.3 823.6 727.6 670.1 700.0 760.4 850.0 806.9 747.7 694.2 643.0 599.9 772.1 779.9 839.0 857.8 809.6 723.0 646.5 596.6 504.2 637.6 616.5 643.6 668.4 701.5 718.3 760.7 794.2 795.7 785.2 720.0 671.2 616.1 549.1 479.5 440.4 410.7 394.1 361.6 398.9 374.6 321.5 273.9 331.4 414.0 386.0 392.3 429.1 438.2 469.0 540.0 585.8 600.9 618.0 574.0 477.3 449.2 354.0 293.4 310.0 377.4 368.9 376.3 404.3 363.8 363.1 336.7 405.4 457.8 473.8 546.8 564.5 507.9 413.9 305.5 304.3 254.9 165.4 165.6 213.1 253.7 302.5 365.7 408.7 390.2 315.0 221.6 207.3 235.4 244.7 219.5 183.3 219.2 237.6 253.7 303.8 357.9 398.6 460.4 489.1 439.8 375.9 315.5 265.8 246.6 259.6 286.3 304.0 237.1 177.0 151.8 140.0 141.2 226.1 305.4 332.4 270.4 318.1 374.2 -9999.0 -9999.0
57.3 96.5 108.2 164.0 170.3 188.8 166.8 166.7 200.5 166.2 174.2 156.1 151.6 186.0 194.3 242.6 237.2 199.3 249.3 377.6 482.1 592.1 637.9 626.1 611.7 622.1 638.4 738.5 875.5 1022.9 1089.2 1014.6 1051.9 1186.1 1317.5 1288.7 1195.5 1185.2 990.0 953.4 1024.2 1085.6 1211.4 1331.8 1178.7 1136.8 1116.5 1054.8 1030.0 1158.2 1216.4 1234.6 1347.4 1295.8 1347.0 1405.7 1285.6 1266.0 1137.9 907.3 791.0 743.5 593.8 500.9 416.5 420.2 409.7 461.4 451.0 476.2 552.5 505.1 509.5 502.3 546.1 463.9 357.5 242.2 194.1 226.2 230.9 238.5 242.8 290.4 293.7 274.6 236.0 318.7 379.6 439.7 398.1 470.0 556.3 540.7 524.2 529.3 498.9 532.4 377.9 383.0 524.3 631.4 754.7 808.6 724.4 746.3 842.1 916.2 906.4 952.8 963.2 987.3 1039.1 1051.3 927.4 882.5 678.2 428.2 497.4 560.9 582.1 542.4 522.7 461.3 459.5 467.3 472.5 562.4 492.7 581.6 562.0 692.2 723.6 841.8 829.8 688.4 676.1 603.8 482.7 603.1 669.9 717.4 756.3 772.9 830.3 812.5 739.2 684.6 707.6 744.5 774.6 794.5 827.2 883.3 910.1 892.5 844.9 851.3 876.7 897.2 931.2 1001.6 974.7 853.3 857.4 735.5 743.6 907.0 1000.2 1078.5 1064.9 973.5 1006.8 1089.4 1127.9 1039.4 880.9 907.0 952.5 1011.7 1118.8 1146.8 1245.3 1177.4 1056.0 932.7 931.8 1087.2 1144.9 1196.8 1050.9 947.8 916.0 785.8 718.2 868.0 911.9 933.6 992.6 941.5 817.9 772.0 792.9 843.6 852.2 764.1 646.1 485.0 525.9 551.2 569.7 558.3 472.6 421.7 425.3 397.1 328.5 392.4 486.3 561.3 677.6 782.0 763.1 663.4 593.8 566.9 527.7 529.1 594.1 653.0 658.8 590.5 501.9 527.9 485.6 469.1 538.4 583.2 552.2 486.2 530.3 574.4 615.9 624.5 593.9 546.6 544.4 623.2 729.0 811.1 833.8 776.3 639.3 613.2 705.0 754.6 638.1 720.9 803.1 857.9 931.8 980.5 972.8 936.9 937.6 962.8 940.8 946.4 956.5 990.0 1036.3 1011.6 1036.4 1057.2 1008.9 1039.3 1019.1 1086.9 1097.3 1086.9 1111.5 1120.8 1089.7 1126.2 1158.9 1140.3 1062.7 1028.7 988.8 959.2 910.1 833.2 800.0 715.4 609.0 590.6 763.7 818.1 842.4 862.1 814.6 773.2 653.1 591.6 605.1 515.7 535.6 631.4 736.6 844.6 797.3 720.9 781.0 822.7 815.2 874.1 814.3 743.4 684.6 612.4 627.1 675.2 705.8 739.6 821.1 816.2 733.4 692.9 587.7 542.1 611.8 641.7 657.6 693.4 756.1 804.4 784.9 744.6 704.2 728.9 721.9 699.6 663.3 586.7 508.9 473.2 471.2 418.4 335.5 288.9 284.9 298.0 340.3 372.8 427.2 455.2 423.8 473.3 514.6 559.6 604.1 646.1 556.7 488.1 457.8 424.7 324.6 301.2 384.1 452.1 544.1 502.5 495.9 537.6 497.3 441.8 341.0 409.5 519.0 513.0 468.2 443.0 435.9 425.1 299.3 218.2 164.7 151.0 212.6 258.6 310.7 366.9 412.4 407.3 314.6 217.9 258.5 331.8 373.8 343.2 264.1 225.8 277.1 308.6 271.1 260.2 304.2 370.7 395.3 409.4 446.5 411.2 366.6 322.4 275.6 238.9 214.5 201.8 180.6 158.9 166.9 156.7 147.2 195.3 289.0 375.4 386.9 394.9 397.9 -9999.0 -9999.0
51.8 85.9 88.0 91.9 98.5 114.5 123.5 113.3 122.0 132.2 125.2 129.4 131.2 135.7 137.0 159.5 254.2 330.3 387.0 457.8 595.9 716.0 819.7 847.8 772.3 795.5 931.4 1006.4 1081.5 1019.5 868.4 723.5 690.9 823.8 1076.9 1234.7 1122.8 1024.1 1049.1 1070.1 1056.7 1141.1 1287.3 1358.7 1312.3 1316.3 1306.3 1262.1 1176.7 1443.9 1592.3 1504.9 1528.0 1482.4 1490.7 1511.2 1350.4 1257.5 1093.1 875.7 740.4 653.3 555.5 401.5 540.3 654.2 666.7 703.6 565.6 507.0 599.9 658.5 658.4 622.5 754.6 618.4 522.4 448.1 319.7 200.8 185.8 184.7 217.9 222.1 229.7 210.7 248.9 310.2 335.3 354.3 339.4 416.5 420.8 454.6 421.1 523.5 555.5 402.0 327.7 472.1 570.2 670.6 730.3 662.2 602.7 752.2 895.2 887.6 816.0 748.5 700.4 689.5 715.8 733.3 644.6 584.2 550.6 366.2 404.9 411.1 376.7 355.2 372.5 359.2 438.7 585.2 496.6 403.6 399.5 449.5 415.5 517.2 544.6 597.4 634.0 589.0 499.1 474.0 578.4 713.5 814.8 871.0 934.8 947.5 989.8 974.4 896.2 791.4 779.6 801.6 823.2 831.7 859.8 878.9 848.6 859.5 846.1 801.6 806.5 842.9 818.2 844.5 816.8 718.1 710.0 792.5 839.5 899.3 991.4 1024.1 1033.8 1072.6 1067.9 967.3 974.7 927.1 870.9 939.6 1027.9 1132.7 1133.5 1271.8 1247.0 1117.2 1001.8 922.8 991.9 1133.9 1234.8 1115.1 992.5 881.2 775.7 713.0 850.1 962.6 1043.9 1134.2 1172.5 997.3 861.3 717.3 683.2 772.8 797.1 778.1 674.3 585.6 537.7 477.0 444.1 422.3 381.6 404.4 368.7 326.3 341.5 475.4 547.3 592.1 658.9 724.0 685.5 621.1 555.1 543.8 580.6 527.2 492.3 518.8 551.7 574.3 514.3 481.4 469.1 454.9 521.5 565.8 523.3 462.3 507.9 546.2 575.4 569.9 520.2 504.5 569.0 682.3 789.7 794.2 717.4 691.4 642.8 564.3 591.2 634.8 571.2 651.5 763.2 839.3 866.6 827.3 855.1 943.0 884.5 929.8 967.4 922.9 891.4 917.2 919.4 896.4 932.0 962.9 861.5 875.1 877.4 953.3 1027.6 1007.6 1017.0 1056.4 1120.1 1123.8 1056.2 1049.1 982.3 932.2 879.3 834.4 813.5 790.7 817.5 773.1 645.9 624.7 744.1 861.2 941.3 895.6 790.0 714.4 743.9 698.7 588.7 500.3 577.6 635.6 724.2 776.2 774.8 844.5 930.4 949.0 964.7 903.4 824.8 743.7 647.5 671.4 782.2 725.5 767.9 828.8 826.0 730.7 690.0 621.3 567.9 587.0 694.7 716.0 784.4 796.0 814.6 844.4 792.7 703.2 619.3 619.7 615.5 619.4 584.7 563.9 496.5 413.0 387.3 317.8 303.1 340.0 383.6 440.7 441.4 401.4 445.0 493.7 526.4 545.2 514.1 532.3 622.2 578.5 536.6 489.0 407.7 317.4 303.1 409.1 510.5 583.8 606.0 543.1 506.6 477.7 452.7 402.6 366.0 432.9 493.3 431.8 388.1 343.9 300.5 283.0 204.9 167.2 186.0 229.9 251.0 317.7 381.8 451.3 425.7 330.6 236.6 307.1 376.3 431.3 449.6 347.6 257.6 247.1 297.3 353.7 312.7 295.2 311.9 352.4 305.0 327.7 362.4 380.1 408.4 389.0 331.5 283.5 244.9 181.7 184.9 235.0 215.5 170.8 152.6 195.3 253.5 317.6 374.2 403.9 438.3 -9999.0 -9999.0
